ply
format ascii 1.0
comment Created by Open3D
element vertex 1300
property double x
property double y
property double z
property uchar red
property uchar green
property uchar blue
end_header
0.0756589 0.157297 0.503 255 255 255
0.153315 0.14646 0.508 0 0 0
-0.0856069 0.00477969 0.705 255 255 255
0.120549 -0.167526 0.551 0 0 0
0.0324296 0.171921 0.459 255 255 255
0.275464 -0.230243 0.701 255 255 255
0.0888903 -0.223415 0.935 255 255 255
-0.179472 0.13056 0.466 255 255 255
-0.00854977 0.0807033 0.611 255 255 255
0.249674 0.143462 0.547 255 255 255
0.0946558 -0.212413 0.947 255 255 255
0.257218 -0.208486 0.737 255 255 255
-0.102738 -0.0817549 0.393 255 255 255
-0.140952 -0.0347115 0.389 255 255 255
0.0961816 0.157612 0.512 255 255 255
-0.184783 -0.0454235 0.825 255 255 255
0.203258 0.152911 0.513 255 255 255
-0.117702 -0.0754159 0.726 255 255 255
0.326619 -0.169818 0.657 255 255 255
0.327062 0.0582887 0.714 255 255 255
0.329232 -0.0277636 0.687 255 255 255
0.0791858 -0.0749597 1.005 255 255 255
-0.100474 -0.131712 0.375 0 0 0
-0.0938941 -0.126615 0.378 255 255 255
-0.115735 0.138269 0.469 255 255 255
0.173187 0.0091714 0.914 255 255 255
0.0479988 0.131566 0.542 255 255 255
0.240653 0.15693 0.518 255 255 255
0.242136 -0.0777007 0.798 255 255 255
0.167677 0.167444 0.476 255 255 255
-0.0237031 0.143449 0.492 255 255 255
-0.129261 -0.266206 0.718 255 255 255
0.138055 -0.187412 0.908 255 255 255
-0.0242774 -0.280383 0.802 0 0 0
-0.129607 0.0720228 0.429 255 255 255
-0.162458 0.13343 0.392 255 255 255
0.250536 -0.158515 0.768 255 255 255
-0.0297831 0.131461 0.514 255 255 255
-0.171206 0.0658381 0.396 255 255 255
0.0221007 0.158813 0.478 255 255 255
-0.11434 0.160402 0.432 255 255 255
0.115957 0.151483 0.511 255 255 255
0.144702 0.0986137 0.599 255 255 255
-0.158896 0.137706 0.457 255 255 255
0.00674668 -0.224462 0.767 0 0 0
0.0311837 -0.210568 0.785 255 255 255
-0.168979 0.119555 0.486 255 255 255
-0.0530641 0.168659 0.437 255 255 255
0.270724 0.0205989 0.783 255 255 255
-0.17159 0.0427369 0.391 255 255 255
0.133226 0.174125 0.486 0 0 0
0.152734 0.13887 0.523 255 255 255
0.0666892 0.00151248 0.797 0 0 0
0.0872173 0.0165406 0.772 255 255 255
-0.12893 -0.119556 0.364 255 255 255
-0.190917 0.0396615 0.374 255 255 255
-0.0907072 -0.145138 0.375 255 255 255
0.176535 -0.0833856 0.886 255 255 255
0.179356 0.123397 0.561 255 255 255
0.282414 -0.0316562 0.753 255 255 255
0.256109 -0.0294664 0.793 255 255 255
-0.0727762 0.0230703 0.703 255 255 255
0.102051 -0.315526 0.878 255 255 255
-0.18965 0.0471 0.38 255 255 255
0.173546 -0.174105 0.871 255 255 255
-0.0755941 0.126371 0.507 255 255 255
-0.162304 -0.0236351 0.374 255 255 255
-0.0579522 -0.0334991 0.69 0 0 0
0.304344 -0.122913 0.694 255 255 255
0.305715 0.121662 0.607 255 255 255
-0.110217 -0.0452542 0.404 0 0 0
0.21711 -0.146714 0.792 255 255 255
0.226548 -0.181589 0.798 255 255 255
-0.164518 0.140826 0.448 255 255 255
0.19194 0.150699 0.514 255 255 255
-0.0205541 -0.17219 0.679 255 255 255
0.270261 -0.0137163 0.778 255 255 255
-0.0850144 0.0518462 0.648 255 255 255
-0.152937 0.0469294 0.411 255 255 255
0.257789 -0.0976558 0.771 255 255 255
0.111521 0.168489 0.495 255 255 255
-0.144056 0.00469966 0.403 255 255 255
0.186187 0.141858 0.531 255 255 255
-0.167588 -0.0978152 0.338 255 255 255
-0.130617 0.0275181 0.421 255 255 255
0.199747 0.145353 0.528 255 255 255
-0.130768 -0.22644 0.733 255 255 255
-0.109601 -0.118918 0.377 0 0 0
-0.177847 0.0618151 0.395 255 255 255
-0.141164 -0.116349 0.356 255 255 255
0.0254188 0.0432899 0.697 255 255 255
-0.0622811 -0.166986 0.642 255 255 255
0.043514 -0.236239 0.777 255 255 255
0.0442875 0.173783 0.458 255 255 255
0.169441 0.0735414 0.683 255 255 255
-0.0450541 -0.0453111 0.699 255 255 255
0.263699 -0.187587 0.735 255 255 255
-0.0678806 -0.0571054 0.677 0 0 0
-0.0554528 0.0321307 0.701 255 255 255
-0.0846757 0.156101 0.45 255 255 255
-0.16912 -0.0368105 0.36 255 255 255
-0.104759 0.0465545 0.439 255 255 255
-0.144127 0.120474 0.493 255 255 255
-0.216 0.120678 0.463 255 255 255
0.0983536 0.173593 0.478 255 255 255
-0.0573232 -0.0156685 0.696 255 255 255
0.000313471 0.155376 0.477 255 255 255
0.181008 -0.2027 0.866 255 255 255
0.0554087 0.151348 0.505 255 255 255
-0.170765 -0.0357378 0.361 255 255 255
0.0990027 0.179101 0.47 255 255 255
-0.0617929 0.14729 0.471 255 255 255
-0.171417 0.0682431 0.395 255 255 255
0.256642 0.0345331 0.811 255 255 255
-0.107489 -0.0774747 0.394 0 0 0
0.118311 0.143171 0.514 0 0 0
0.21997 0.0550681 0.864 255 255 255
-0.127039 -0.0278122 0.399 255 255 255
0.30501 -0.0710405 0.706 255 255 255
-0.21957 0.122407 0.461 255 255 255
0.0686131 0.0947575 0.559 0 0 0
-0.0577641 0.0644506 0.627 255 255 255
0.169445 -0.059938 0.902 255 255 255
-0.0420247 0.0553492 0.652 255 255 255
-0.0681177 -0.107971 0.658 255 255 255
0.0266154 0.0568773 0.67 255 255 255
-0.146489 -0.0929788 0.362 255 255 255
-0.0227311 0.0443165 0.678 255 255 255
0.0983045 0.113333 0.552 255 255 255
0.314013 -0.0432824 0.703 255 255 255
0.16021 0.13676 0.528 255 255 255
0.182903 -0.0260033 0.896 255 255 255
-0.102694 -0.0977626 0.388 0 0 0
-0.0969743 -0.0481617 0.412 255 255 255
0.228075 0.0043383 0.842 255 255 255
0.223322 0.181368 0.466 255 255 255
0.12458 -0.179426 0.549 255 255 255
-0.151987 0.151664 0.398 255 255 255
0.246199 -0.150451 0.778 255 255 255
0.00773461 -0.249747 0.742 255 255 255
-0.170837 0.0188997 0.385 255 255 255
-0.0720216 -0.135227 0.645 0 0 0
0.0567485 0.141109 0.525 255 255 255
0.28092 0.0639216 0.783 255 255 255
-0.15011 -0.0530898 0.819 255 255 255
0.249082 -0.188025 0.756 255 255 255
0.295609 -0.0225882 0.737 255 255 255
-0.0693355 0.0921457 0.571 0 0 0
0.106479 -0.0287976 0.775 255 255 255
-0.127048 -0.0399477 0.397 255 255 255
0.258531 -0.0743915 0.777 255 255 255
0.102111 0.0439096 0.726 255 255 255
0.317358 -0.132926 0.676 255 255 255
-0.131554 0.00210732 0.409 255 255 255
-0.0268053 0.165481 0.438 255 255 255
-0.0508884 -0.217695 0.701 255 255 255
0.0676684 0.0695902 0.677 255 255 255
0.122033 0.0497482 0.725 255 255 255
-0.00193843 -0.23167 0.746 255 255 255
-0.193087 0.120034 0.392 255 255 255
0.131223 0.0782089 0.648 255 255 255
0.0887594 0.159753 0.503 255 255 255
-0.10944 0.00617076 0.734 255 255 255
-0.160599 0.151935 0.426 255 255 255
0.0660736 0.0499516 0.695 255 255 255
0.277315 -0.00103942 0.766 255 255 255
-0.112185 -0.0612674 0.397 0 0 0
0.0400601 0.114568 0.567 255 255 255
0.269646 -0.0919434 0.755 255 255 255
0.303953 -0.156558 0.688 255 255 255
0.1963 0.0980856 0.614 255 255 255
-0.0942594 -0.126893 0.377 255 255 255
0.0864455 -0.220139 0.581 0 0 0
0.266252 -0.249269 0.713 255 255 255
0.000473164 0.0294866 0.72 0 0 0
0.273089 -0.124002 0.741 255 255 255
-0.0028992 0.040374 0.686 255 255 255
0.265645 -0.202452 0.724 255 255 255
0.0869534 -0.314585 0.856 255 255 255
0.0958846 -0.08029 0.761 0 0 0
-0.223587 0.131349 0.448 255 255 255
-0.121173 0.0969886 0.541 255 255 255
-0.0805351 0.0866911 0.578 255 255 255
0.0919301 -0.0416765 0.78 0 0 0
-0.1311 -0.131781 0.357 255 255 255
-0.0190829 0.166329 0.458 255 255 255
-0.0512803 -0.249826 0.776 255 255 255
-0.0987273 -0.18529 0.655 0 0 0
0.0664364 0.149863 0.514 255 255 255
0.136446 -0.171697 0.55 0 0 0
0.1043 0.0583682 0.701 255 255 255
0.240639 -0.273333 0.734 255 255 255
-0.149285 0.0584414 0.412 255 255 255
-0.18805 -0.0126845 0.357 255 255 255
0.31469 -0.186793 0.668 255 255 255
0.00203465 0.134688 0.52 255 255 255
-0.0848047 0.16462 0.432 255 255 255
-0.133342 -0.098113 0.368 255 255 255
0.0185549 0.0206719 0.74 0 0 0
0.0930565 -0.23458 0.931 255 255 255
0.270677 -0.133649 0.741 255 255 255
-0.19429 0.0755628 0.377 255 255 255
-0.115118 0.121281 0.503 255 255 255
0.194072 0.152076 0.513 255 255 255
0.301513 -0.164793 0.685 255 255 255
0.306873 -0.0617618 0.705 255 255 255
-0.0263729 -0.0254756 0.717 0 0 0
0.216594 -0.0667537 0.84 255 255 255
-0.217024 0.13062 0.448 255 255 255
0.0338825 0.128038 0.542 255 255 255
-0.185081 -0.0185459 0.358 255 255 255
0.0704468 0.0267291 0.741 255 255 255
-0.00856913 -0.131758 0.693 255 255 255
-0.00528219 -0.176739 0.706 255 255 255
-0.20029 0.109598 0.491 255 255 255
0.25379 0.157233 0.519 255 255 255
-0.115399 0.151423 0.447 255 255 255
0.292414 -0.0404682 0.735 255 255 255
0.236104 -0.112303 0.804 255 255 255
-0.244534 0.116357 0.473 255 255 255
-0.164045 -0.0345401 0.367 255 255 255
-0.181149 -0.0242356 0.356 255 255 255
-0.0411775 0.160057 0.455 255 255 255
-0.0921585 -0.117079 0.381 255 255 255
-0.0545281 0.131922 0.503 0 0 0
-0.070235 0.0615855 0.629 255 255 255
-0.189428 0.124032 0.47 255 255 255
-0.11805 -0.0106417 0.413 255 255 255
-0.17574 -0.0283343 0.364 255 255 255
-0.0918768 0.151982 0.453 255 255 255
-0.127315 -0.019614 0.404 255 255 255
-0.14055 -0.0722785 0.81 255 255 255
0.316432 0.0914732 0.738 0 0 0
-0.111384 -0.112739 0.381 0 0 0
0.0274342 -0.0521994 0.826 255 255 255
0.293933 -0.130968 0.707 255 255 255
-0.196921 0.0550237 0.375 255 255 255
0.122222 0.0948907 0.594 0 0 0
-0.20323 0.126082 0.458 255 255 255
-0.134223 -0.00320157 0.407 255 255 255
0.216618 0.152165 0.519 255 255 255
-0.130081 0.139514 0.463 255 255 255
-0.169226 -0.073315 0.347 255 255 255
0.110575 0.166269 0.498 0 0 0
0.288047 -0.0719706 0.727 255 255 255
-0.00770356 0.0751916 0.623 255 255 255
-0.0740453 0.137745 0.486 255 255 255
0.0219694 0.168933 0.459 255 255 255
0.104539 -0.0423953 0.77 255 255 255
-0.00302654 0.134752 0.517 255 255 255
-0.15371 -0.0109829 0.764 255 255 255
-0.0362036 -0.189424 0.662 0 0 0
-0.170549 0.0480718 0.393 255 255 255
-0.107826 -0.0108994 0.423 255 255 255
0.00923168 -0.231648 0.766 0 0 0
-0.17836 -0.0588567 0.345 255 255 255
-0.0607536 -0.145347 0.648 0 0 0
0.165876 -0.216738 0.883 255 255 255
0.135617 0.140388 0.513 255 255 255
0.241712 0.118856 0.593 255 255 255
0.224442 0.105215 0.609 255 255 255
0.232688 -0.162643 0.788 255 255 255
0.109315 0.135465 0.523 0 0 0
-0.0554609 0.0795146 0.602 255 255 255
0.294765 -0.115186 0.709 255 255 255
0.173788 0.0728541 0.687 255 255 255
0.335934 -0.0747142 0.667 255 255 255
-0.162361 -0.0995891 0.807 255 255 255
0.0462747 0.117633 0.564 255 255 255
-0.00471357 0.0698851 0.63 255 255 255
-0.165372 -0.0123542 0.772 255 255 255
-0.185277 0.0621422 0.389 255 255 255
0.0762378 -0.192582 0.948 255 255 255
-0.0357946 0.159512 0.462 255 255 255
0.254479 -0.0776134 0.784 255 255 255
0.24961 -0.129939 0.769 255 255 255
-0.153379 -0.0366109 0.376 255 255 255
0.327795 -0.0387733 0.684 255 255 255
0.00546231 -0.106436 0.762 255 255 255
-0.11331 -0.104358 0.706 255 255 255
0.234544 -0.273792 0.745 255 255 255
0.152998 0.140034 0.521 255 255 255
0.295787 -0.228971 0.677 255 255 255
-0.117322 -0.0664187 0.731 255 255 255
-0.161886 0.129386 0.47 255 255 255
-0.163155 -0.25084 0.698 255 255 255
0.337666 0.111792 0.707 255 255 255
-0.104756 0.0397727 0.695 255 255 255
0.00926784 -0.225047 0.769 0 0 0
0.244857 -0.196958 0.762 255 255 255
0.258039 -0.0319666 0.791 255 255 255
-0.0824048 -0.18509 0.636 0 0 0
0.0644372 0.171851 0.469 255 255 255
0.0790521 -0.268784 0.861 255 255 255
0.301526 -0.17023 0.68 255 255 255
0.189187 0.175301 0.466 255 255 255
-0.165982 -0.0360257 0.825 255 255 255
0.289835 -0.0107817 0.75 255 255 255
-0.138804 -0.251366 0.719 255 255 255
0.190855 0.130401 0.552 255 255 255
-0.11647 0.110994 0.52 255 255 255
-0.0837855 -0.0379906 0.69 255 255 255
-0.142627 -0.00833307 0.399 255 255 255
-0.10286 -0.18376 0.661 0 0 0
-0.172197 0.00132894 0.377 255 255 255
-0.183666 0.0418624 0.383 255 255 255
0.210921 0.119082 0.58 255 255 255
-0.126409 0.0651931 0.43 255 255 255
0.298779 0.0319783 0.751 255 255 255
0.247266 -0.0493776 0.802 255 255 255
0.324671 0.0563568 0.719 255 255 255
-0.0995973 -0.137447 0.374 0 0 0
-0.0780175 -0.181412 0.634 0 0 0
-0.160543 0.0186055 0.392 255 255 255
-0.169939 -0.0323915 0.363 255 255 255
-0.121653 0.157955 0.433 255 255 255
-0.097717 0.154714 0.446 255 255 255
0.244099 0.0994583 0.629 255 255 255
-0.0269639 -0.0957705 0.702 0 0 0
-0.0752879 -0.153308 0.646 0 0 0
0.142476 0.0779179 0.637 255 255 255
-0.175182 -0.0775965 0.341 255 255 255
0.128038 -0.199087 0.921 255 255 255
0.214802 -0.190775 0.793 255 255 255
-0.168738 -0.096429 0.337 255 255 255
0.239732 -0.0768808 0.803 255 255 255
-0.196396 0.138258 0.374 255 255 255
0.321107 -0.0203441 0.701 255 255 255
-0.15161 -0.00116983 0.392 255 255 255
-0.118484 -0.0762949 0.388 255 255 255
0.281303 -0.111623 0.731 255 255 255
-0.161315 -0.121838 0.333 255 255 255
0.101945 -0.130207 0.742 255 255 255
0.0909575 -0.254463 0.91 255 255 255
-0.117436 0.102198 0.536 255 255 255
-0.106964 -0.137784 0.37 0 0 0
0.072012 0.151779 0.512 255 255 255
-0.132488 0.0115651 0.414 255 255 255
-0.150022 -0.112278 0.347 255 255 255
-0.0935469 0.0631143 0.614 0 0 0
-0.168521 0.105747 0.511 255 255 255
0.0888177 -0.0716777 0.775 255 255 255
0.295005 0.0396251 0.757 255 255 255
-0.176847 -0.073712 0.341 255 255 255
0.245775 -0.200415 0.761 255 255 255
-0.145361 -0.258983 0.711 255 255 255
-0.166875 -0.118232 0.329 255 255 255
-0.176849 0.113364 0.497 255 255 255
-0.171624 0.0693526 0.394 255 255 255
-0.175609 0.125087 0.474 255 255 255
-0.100042 0.0305731 0.718 255 255 255
-0.150313 0.00139944 0.397 255 255 255
0.311488 -0.149205 0.68 255 255 255
0.299309 -0.228294 0.675 255 255 255
0.0957747 0.0983045 0.569 0 0 0
0.0629238 0.0222309 0.752 255 255 255
0.192143 0.109428 0.589 255 255 255
-0.144117 0.15088 0.437 255 255 255
0.312894 0.0616987 0.741 255 255 255
-0.13846 -0.117585 0.358 255 255 255
0.289938 -0.221321 0.684 255 255 255
0.112097 0.172106 0.487 255 255 255
-0.12583 0.139815 0.464 255 255 255
0.133202 -0.150975 0.815 255 255 255
-0.156188 0.0480322 0.409 255 255 255
-0.0495993 0.12538 0.52 255 255 255
0.31304 -0.227593 0.651 255 255 255
-0.178485 0.0834502 0.388 255 255 255
0.124137 -0.166629 0.551 0 0 0
-0.0361687 -0.285552 0.777 0 0 0
-0.00333095 0.105712 0.569 255 255 255
0.138461 0.133071 0.527 255 255 255
0.170711 -0.158514 0.871 255 255 255
0.131404 0.0159179 0.804 0 0 0
0.135304 -0.174065 0.549 255 255 255
-0.0770366 0.042234 0.68 255 255 255
-0.160062 0.0524335 0.407 0 0 0
-0.0350626 -0.0181399 0.704 255 255 255
0.288246 -0.141923 0.71 255 255 255
0.244509 0.00288701 0.819 255 255 255
0.243435 -0.0919854 0.798 255 255 255
0.131974 0.0731107 0.679 0 0 0
0.303991 -0.113886 0.701 255 255 255
-0.144942 0.0364044 0.413 255 255 255
-0.0746576 -0.101701 0.659 0 0 0
-0.169187 -0.0612357 0.821 255 255 255
-0.0985058 -0.0499295 0.41 255 255 255
0.314276 -0.237776 0.647 255 255 255
-0.0498721 -0.211111 0.687 0 0 0
0.0472131 0.0547265 0.684 255 255 255
-0.171298 -0.0555193 0.356 255 255 255
-0.112813 -0.0222275 0.416 0 0 0
0.171948 0.0843719 0.631 255 255 255
0.0370799 0.145397 0.513 255 255 255
-0.124461 -0.0763315 0.385 255 255 255
-0.0439791 -0.0168977 0.7 255 255 255
-0.142043 -0.132035 0.789 255 255 255
0.03807 0.169263 0.464 255 255 255
0.27275 0.131155 0.575 255 255 255
-0.085049 0.0591597 0.625 0 0 0
0.317231 -0.0430977 0.7 255 255 255
-0.105887 0.150507 0.453 255 255 255
-0.024813 0.0611474 0.646 255 255 255
0.146868 -0.188152 0.559 0 0 0
0.298817 0.0220239 0.745 255 255 255
-0.106902 0.0472689 0.439 255 255 255
-0.136422 0.0420048 0.422 255 255 255
0.302664 -0.0365287 0.728 255 255 255
-0.0108878 -0.118908 0.697 0 0 0
0.151738 0.10006 0.596 255 255 255
0.326681 -0.0409995 0.684 255 255 255
-0.105459 -0.112413 0.382 0 0 0
0.0475753 0.15786 0.492 255 255 255
-0.0724682 -0.128673 0.649 0 0 0
0.265086 0.113144 0.609 255 255 255
0.135255 0.0529201 0.72 255 255 255
-0.0561853 0.0557181 0.644 255 255 255
0.148618 0.175558 0.477 0 0 0
0.107786 -0.211862 0.564 255 255 255
0.328188 -0.158298 0.658 255 255 255
0.215326 0.0892541 0.644 255 255 255
0.251496 -0.0272245 0.803 255 255 255
0.0925784 -0.285861 0.897 255 255 255
-0.127457 -0.0850101 0.379 255 255 255
0.0762075 -0.288541 0.845 255 255 255
0.217807 0.096081 0.627 255 255 255
-0.159732 -0.0140458 0.378 255 255 255
0.297991 -0.193716 0.677 255 255 255
0.121611 -0.140835 0.767 255 255 255
-0.0173958 -0.296534 0.786 255 255 255
-0.137678 -0.116745 0.359 255 255 255
0.26281 -0.0662891 0.771 255 255 255
-0.142303 -0.0600423 0.805 255 255 255
-0.18938 0.0418201 0.377 255 255 255
0.316429 -0.0171632 0.711 255 255 255
0.0588356 0.174921 0.461 255 255 255
0.108276 -0.128136 0.744 0 0 0
-0.029154 0.058263 0.649 255 255 255
0.125015 -0.0325323 0.805 255 255 255
0.160098 0.0915365 0.617 255 255 255
0.262296 0.104077 0.626 255 255 255
-0.173036 -0.0468294 0.356 255 255 255
0.0897378 0.072034 0.669 255 255 255
-0.147155 0.0418747 0.657 255 255 255
-0.0407588 -0.176479 0.666 0 0 0
-0.0993394 -0.118627 0.38 0 0 0
0.0190385 -0.197989 0.812 255 255 255
0.0602589 0.103313 0.566 255 255 255
-0.17999 -0.0300289 0.356 255 255 255
-0.0112627 -0.080763 0.721 0 0 0
-0.178019 0.104287 0.512 255 255 255
0.33662 0.0159757 0.693 255 255 255
-0.107054 -0.0453743 0.718 0 0 0
-0.0342057 -0.059889 0.71 255 255 255
-0.0952334 -0.132675 0.376 255 255 255
-0.140985 -0.0985521 0.363 255 255 255
0.119236 0.0689944 0.682 255 255 255
0.322508 0.0821659 0.73 255 255 255
-0.166717 -0.085866 0.343 255 255 255
0.062117 -0.0299123 0.805 255 255 255
-0.0444817 0.027843 0.708 255 255 255
0.350662 0.093925 0.694 255 255 255
-0.111711 -0.111207 0.38 0 0 0
-0.0652003 -0.0977067 0.661 0 0 0
0.121519 -0.102455 0.751 0 0 0
-0.00973181 0.0741777 0.623 255 255 255
-0.163701 0.0361033 0.395 255 255 255
-0.0177692 0.125204 0.53 255 255 255
-0.0525638 -0.0686047 0.693 255 255 255
-0.14339 -0.0508712 0.382 255 255 255
-0.0292077 0.035553 0.701 0 0 0
-0.189853 0.125754 0.388 255 255 255
0.321085 -0.138288 0.67 255 255 255
-0.0462276 -0.270031 0.776 0 0 0
-0.00867609 0.140107 0.503 255 255 255
-0.155195 0.00778074 0.393 255 255 255
0.234501 0.141306 0.549 255 255 255
0.315624 -0.140835 0.677 255 255 255
-0.140952 -0.0302803 0.389 255 255 255
-0.0903888 0.080399 0.587 255 255 255
0.180837 -0.0331823 0.893 255 255 255
0.333849 -0.00984727 0.685 255 255 255
0.0440104 0.0703112 0.653 255 255 255
0.0994452 0.126148 0.534 0 0 0
-0.126409 0.0637936 0.43 255 255 255
-0.129183 -0.0658513 0.386 255 255 255
0.069803 0.108335 0.554 255 255 255
0.338163 0.124859 0.678 255 255 255
0.234392 0.0933203 0.636 255 255 255
0.0903896 -0.212621 0.576 0 0 0
0.248414 -0.0142805 0.81 255 255 255
-0.0293744 -0.0824126 0.705 0 0 0
0.100047 0.135042 0.528 255 255 255
0.243693 0.151648 0.532 255 255 255
0.273271 -0.136155 0.735 255 255 255
-0.0571959 0.0618792 0.632 255 255 255
-0.154896 0.100763 0.524 255 255 255
-0.112625 -0.107779 0.381 0 0 0
0.028023 0.0680815 0.652 255 255 255
-0.17319 -0.0985825 0.335 255 255 255
0.122684 0.0862287 0.601 0 0 0
-0.147585 0.076358 0.411 255 255 255
-0.163388 0.115661 0.493 255 255 255
-0.0662742 0.086789 0.585 255 255 255
0.118534 0.0832333 0.615 255 255 255
-0.171677 -0.0453447 0.358 255 255 255
0.106557 0.139454 0.522 255 255 255
0.313414 -0.211289 0.663 255 255 255
-0.15578 0.153345 0.428 255 255 255
-0.156767 -0.114 0.342 255 255 255
-0.172985 -0.0598267 0.82 255 255 255
-0.160163 0.0371182 0.399 255 255 255
-0.184345 0.0357798 0.378 255 255 255
0.343083 0.000183592 0.679 255 255 255
-0.106664 -0.0543236 0.403 0 0 0
-0.144092 -0.0693297 0.371 255 255 255
-0.0206805 -0.030353 0.722 0 0 0
-0.0364657 -0.0263451 0.709 255 255 255
-0.117447 -0.1295 0.367 255 255 255
-0.109203 0.00424453 0.423 0 0 0
0.322657 -0.105737 0.671 255 255 255
0.136991 -0.212359 0.901 255 255 255
-0.155071 0.143101 0.446 255 255 255
-0.0969504 0.127369 0.498 255 255 255
-0.128909 0.0685321 0.429 255 255 255
0.045214 -0.251849 0.763 255 255 255
0.258159 0.144616 0.548 255 255 255
-0.166845 -0.116444 0.33 255 255 255
0.10312 -0.193801 0.954 255 255 255
-0.178311 0.0811331 0.389 255 255 255
0.157964 -0.0906969 0.887 255 255 255
0.159038 -0.202421 0.877 255 255 255
-0.159639 -0.110337 0.341 255 255 255
-0.158864 -0.123849 0.337 255 255 255
-0.134772 -0.0996381 0.367 255 255 255
0.168059 0.0568271 0.725 0 0 0
-0.0982305 -0.0365219 0.705 0 0 0
-0.00579931 0.159639 0.469 255 255 255
0.235693 0.0206081 0.835 255 255 255
-0.0596454 -0.29305 0.754 255 255 255
0.195373 0.0307588 0.893 255 255 255
0.239274 -0.20708 0.772 255 255 255
-0.158737 0.0511089 0.407 0 0 0
0.188218 0.170125 0.477 255 255 255
0.233514 0.154699 0.519 255 255 255
-0.205102 0.116031 0.478 255 255 255
-0.192791 0.142448 0.366 255 255 255
0.0163748 -0.196425 0.811 255 255 255
-0.172235 -0.105471 0.792 255 255 255
0.100876 0.150476 0.519 0 0 0
0.199836 0.0420996 0.887 255 255 255
0.208526 0.175254 0.472 255 255 255
0.243277 0.111162 0.609 255 255 255
0.23393 -0.0386638 0.824 255 255 255
0.0421397 0.15609 0.494 255 255 255
-0.077066 0.153324 0.457 255 255 255
-0.156815 -0.176719 0.755 255 255 255
-0.0586241 0.034265 0.698 255 255 255
-0.0175871 0.0595019 0.651 255 255 255
-0.0644684 0.0996612 0.561 255 255 255
0.123453 -0.194381 0.556 255 255 255
0.00962939 -0.0595948 0.799 255 255 255
0.139275 0.0661642 0.699 255 255 255
0.0821307 0.10435 0.552 0 0 0
0.234435 -0.195514 0.781 255 255 255
0.248652 -0.264446 0.726 255 255 255
0.270964 -0.154659 0.732 255 255 255
0.175891 0.0636494 0.709 255 255 255
0.227953 0.16139 0.503 255 255 255
0.272016 -0.0983943 0.748 255 255 255
0.199816 -0.0600855 0.862 255 255 255
-0.152782 0.137411 0.461 255 255 255
0.120383 0.133763 0.523 255 255 255
0.0921788 0.104783 0.564 0 0 0
0.298922 -0.0583081 0.719 255 255 255
0.0125021 0.100861 0.573 0 0 0
-0.159725 -0.108907 0.34 255 255 255
0.139773 0.120758 0.549 255 255 255
0.00860277 0.110814 0.562 255 255 255
-0.0731377 0.147742 0.47 255 255 255
-0.114447 0.06689 0.603 255 255 255
-0.115371 -0.125062 0.368 255 255 255
0.109727 -0.239125 0.931 255 255 255
-0.161464 -0.0901535 0.351 255 255 255
0.0641624 0.174158 0.467 255 255 255
-0.174038 0.142435 0.377 255 255 255
0.31127 -0.172088 0.67 255 255 255
-0.123817 -0.043824 0.397 255 255 255
-0.117168 -0.123265 0.368 255 255 255
-0.134632 -0.106223 0.365 255 255 255
0.331619 -0.0243386 0.685 255 255 255
0.205383 0.134403 0.55 255 255 255
-0.144336 -0.0917155 0.364 255 255 255
0.33405 -0.11028 0.659 255 255 255
0.232984 -0.142306 0.789 255 255 255
-0.181729 -0.0253942 0.356 255 255 255
-0.127527 0.0148289 0.749 255 255 255
0.217572 -0.207789 0.789 255 255 255
0.166815 -0.103805 0.888 255 255 255
0.258996 0.0474365 0.806 255 255 255
0.267075 0.152514 0.532 255 255 255
-0.151827 0.028821 0.401 255 255 255
-0.184219 -0.0303502 0.353 0 0 0
-0.179468 -0.00349364 0.368 255 255 255
-0.143119 -0.0558746 0.378 255 255 255
-0.10566 -0.109537 0.385 0 0 0
-0.0213085 0.0490981 0.668 255 255 255
-0.167077 0.0157671 0.385 255 255 255
-0.138309 -0.0635909 0.38 255 255 255
0.33786 -0.0491017 0.673 255 255 255
-0.163317 0.00511627 0.385 255 255 255
-0.113897 0.0718122 0.595 255 255 255
-0.0437809 0.157729 0.459 0 0 0
-0.0342452 -0.249506 0.791 255 255 255
-0.097426 0.153949 0.448 255 255 255
0.225402 -0.282382 0.755 255 255 255
-0.00368855 0.146147 0.493 255 255 255
-0.0129674 0.152448 0.48 255 255 255
-0.141601 0.0967836 0.535 255 255 255
-0.0170428 0.0882726 0.595 255 255 255
0.0472034 0.130042 0.543 255 255 255
-0.0957506 0.147914 0.461 255 255 255
0.100194 0.161023 0.507 255 255 255
0.32317 -0.0734935 0.686 255 255 255
-0.071948 0.0363797 0.695 255 255 255
-0.094873 -0.131801 0.377 255 255 255
-0.164298 0.143958 0.373 255 255 255
0.0574872 0.0232363 0.745 255 255 255
-0.0514927 0.146222 0.475 255 255 255
0.237287 -0.257164 0.746 255 255 255
-0.134495 -0.0193227 0.398 255 255 255
0.115744 0.0828167 0.627 255 255 255
-0.168867 -0.104267 0.334 255 255 255
-0.209393 0.10734 0.488 255 255 255
0.17551 0.170687 0.47 255 255 255
-0.167828 -0.15187 0.766 255 255 255
-0.149177 -0.0139992 0.394 255 255 255
-0.118323 -0.0237336 0.407 255 255 255
0.190704 0.17606 0.466 255 255 255
-0.170026 0.131979 0.463 255 255 255
-0.168054 -0.207165 0.724 255 255 255
-0.011307 0.0869165 0.599 255 255 255
-0.167174 -0.0102454 0.374 255 255 255
-0.0720476 0.134385 0.494 255 255 255
0.163405 0.160807 0.484 255 255 255
0.299168 -0.0706836 0.714 255 255 255
-0.019479 0.0947049 0.581 255 255 255
0.226331 -0.279553 0.754 255 255 255
0.234112 0.046926 0.844 255 255 255
0.338803 0.00911626 0.686 255 255 255
-0.118156 -0.0777576 0.389 255 255 255
0.0361899 0.166508 0.469 0 0 0
-0.0160236 -0.0304371 0.724 0 0 0
-0.13659 0.124271 0.489 255 255 255
-0.154043 0.100763 0.524 255 255 255
-0.138978 0.123476 0.489 255 255 255
0.326467 -0.0212397 0.693 255 255 255
0.156933 0.0604427 0.712 255 255 255
0.243571 0.0815574 0.658 255 255 255
0.3141 0.0641104 0.741 255 255 255
-0.189076 0.125445 0.389 255 255 255
0.329105 -0.126941 0.662 255 255 255
0.296862 -0.207355 0.682 255 255 255
-0.0148861 -0.0576943 0.726 0 0 0
0.0314935 0.154343 0.491 255 255 255
-0.196036 0.0726876 0.378 255 255 255
-0.175426 -0.136728 0.772 255 255 255
0.267023 0.138917 0.561 255 255 255
-0.109078 -0.138612 0.369 0 0 0
-0.0805854 0.166026 0.432 255 255 255
-0.171873 0.138406 0.452 255 255 255
-0.136168 -0.0535644 0.388 255 255 255
-0.108024 -0.0916843 0.389 0 0 0
0.212165 -0.170337 0.788 255 255 255
0.167024 0.14678 0.512 255 255 255
-0.124463 -0.043178 0.397 255 255 255
0.0596381 -0.165857 0.954 255 255 255
0.274351 -0.252996 0.704 255 255 255
-0.0937845 0.0554439 0.629 0 0 0
-0.0343984 -0.0486073 0.714 255 255 255
0.336294 0.0432899 0.697 255 255 255
-0.0426021 -0.277413 0.779 0 0 0
-0.11597 -0.123265 0.368 255 255 255
-0.143617 0.0419834 0.415 255 255 255
-0.0966185 0.149932 0.458 255 255 255
-0.102829 0.052746 0.443 0 0 0
-0.10576 -0.138988 0.37 0 0 0
-0.112619 0.157286 0.439 255 255 255
0.148264 -0.209444 0.575 255 255 255
0.325919 0.00362727 0.704 255 255 255
0.115276 0.1539 0.508 255 255 255
0.105929 0.118991 0.545 255 255 255
-0.176682 0.0529174 0.391 255 255 255
-0.152849 -0.233815 0.719 255 255 255
0.269493 0.114322 0.61 255 255 255
0.246486 -0.0313387 0.808 255 255 255
0.214141 -0.0372047 0.852 255 255 255
-0.185302 0.00068887 0.363 255 255 255
-0.156667 -0.110984 0.343 255 255 255
-0.124677 0.129836 0.486 255 255 255
-0.0942658 -0.114278 0.382 255 255 255
-0.152741 -0.0037025 0.39 255 255 255
-0.175152 -0.120683 0.782 255 255 255
-0.134495 -0.0219134 0.398 255 255 255
0.304881 0.0486958 0.745 255 255 255
-0.132278 0.114593 0.506 255 255 255
0.191868 0.0250577 0.897 255 255 255
-0.143045 -0.00381642 0.402 255 255 255
-0.168184 0.0512741 0.398 255 255 255
0.0355789 0.0477583 0.696 255 255 255
0.1963 0.0990848 0.614 255 255 255
0.332022 -0.15651 0.655 255 255 255
0.00406125 -0.278924 0.733 255 255 255
-0.111055 -0.0999807 0.382 0 0 0
-0.150623 -0.0304365 0.383 255 255 255
-0.157176 0.0781508 0.403 255 255 255
-0.175958 0.0424089 0.388 255 255 255
0.0360789 0.0536134 0.684 255 255 255
0.0842134 -0.0216688 0.791 255 255 255
-0.17907 0.132733 0.463 255 255 255
-0.148415 -0.258254 0.709 255 255 255
0.0623456 -0.145259 0.972 255 255 255
0.0674652 0.037793 0.722 255 255 255
0.0681358 -0.256972 0.883 255 255 255
-0.0988164 0.0938478 0.559 255 255 255
0.220243 -0.216858 0.794 255 255 255
-0.024005 -0.287561 0.793 0 0 0
0.221406 0.136689 0.552 255 255 255
0.111147 0.0606497 0.701 255 255 255
0.289241 -0.212955 0.693 255 255 255
-0.0742364 -0.136488 0.646 0 0 0
-0.0415916 -0.179729 0.662 0 0 0
-0.0176443 0.0783565 0.616 255 255 255
0.334738 0.0971732 0.718 255 255 255
-0.115464 0.0183128 0.742 255 255 255
-0.169859 0.120638 0.484 255 255 255
-0.0843483 -0.142842 0.651 0 0 0
0.123662 0.0852506 0.601 0 0 0
-0.147298 -0.0648475 0.373 255 255 255
-0.0781099 -0.115475 0.652 0 0 0
0.232037 0.129331 0.567 255 255 255
0.310138 -0.0900586 0.702 255 255 255
0.139458 -0.235033 0.898 255 255 255
0.0283638 -0.186809 0.898 255 255 255
-0.148303 0.0585832 0.413 255 255 255
-0.148677 -0.0177103 0.391 255 255 255
0.243958 -0.165434 0.783 255 255 255
-0.164567 -0.112083 0.333 255 255 255
-0.122394 0.117064 0.506 255 255 255
0.0383756 -0.0389454 0.83 255 255 255
-0.164143 0.0619087 0.404 255 255 255
0.23676 -0.208337 0.772 255 255 255
-0.17442 -0.00471685 0.37 255 255 255
-0.0953828 -0.166914 0.654 0 0 0
0.126814 0.183314 0.471 255 255 255
-0.102032 -0.135621 0.374 0 0 0
0.334927 -0.0820654 0.665 255 255 255
0.287517 -0.0445959 0.744 255 255 255
-0.143828 -0.115119 0.354 255 255 255
-0.152349 -0.0106563 0.389 255 255 255
0.127918 0.0785295 0.642 255 255 255
-0.19429 0.134459 0.377 255 255 255
-0.206226 0.115788 0.477 255 255 255
-0.162667 -0.182384 0.748 255 255 255
0.252632 0.147777 0.54 255 255 255
0.242728 0.00691058 0.822 255 255 255
0.14393 -0.226028 0.584 255 255 255
0.249651 -0.19489 0.754 255 255 255
-0.163651 -0.199819 0.736 255 255 255
0.0422259 -0.253786 0.754 255 255 255
-0.0634404 0.0321307 0.701 255 255 255
-0.0609535 -0.290982 0.755 255 255 255
-0.150457 -0.0408178 0.381 255 255 255
-0.113032 -0.0539192 0.4 0 0 0
-0.134139 -0.0617607 0.384 255 255 255
0.244606 -0.145947 0.781 255 255 255
0.234895 0.0165712 0.837 255 255 255
-0.152337 0.0545507 0.413 255 255 255
0.245703 0.0363834 0.823 255 255 255
0.32916 0.0487875 0.711 255 255 255
0.0907024 -0.219553 0.938 255 255 255
-0.105128 -0.0887467 0.39 255 255 255
0.0291022 -0.0919854 0.798 255 255 255
-0.11283 0.12609 0.493 255 255 255
0.227136 -0.222475 0.791 255 255 255
0.310381 0.110842 0.68 255 255 255
-0.042962 -0.0729228 0.702 255 255 255
0.26805 0.127357 0.579 255 255 255
0.323002 -0.104016 0.674 255 255 255
-0.157913 -0.0927016 0.352 255 255 255
0.219082 0.140019 0.544 255 255 255
0.172073 0.0558008 0.727 0 0 0
-0.192924 0.0346065 0.372 255 255 255
0.310709 0.0335975 0.733 255 255 255
0.229664 0.141423 0.546 255 255 255
0.321099 0.000190892 0.706 255 255 255
-0.0139429 -0.210067 0.68 0 0 0
-0.156591 -0.0392482 0.372 255 255 255
-0.12558 -0.272836 0.717 255 255 255
0.196137 0.164855 0.489 255 255 255
-0.150735 -0.0512175 0.371 255 255 255
-0.0774051 0.0798498 0.59 255 255 255
-0.0593635 0.119523 0.524 0 0 0
0.198259 0.000237939 0.88 255 255 255
-0.169235 -0.044303 0.359 255 255 255
-0.121288 -0.0985787 0.379 255 255 255
0.115801 0.146517 0.514 255 255 255
-0.198928 0.121337 0.386 255 255 255
0.163963 0.170646 0.472 255 255 255
0.166839 -0.16314 0.873 255 255 255
-0.122111 0.13406 0.473 255 255 255
0.0922877 -0.00753791 0.794 255 255 255
-0.145422 -0.0108481 0.396 255 255 255
-0.145065 0.0159757 0.693 255 255 255
-0.00818195 -0.252759 0.762 255 255 255
-0.0969075 0.140515 0.474 255 255 255
0.261652 -0.212463 0.726 255 255 255
-0.0496636 0.0806279 0.603 255 255 255
-0.148346 0.0541395 0.415 255 255 255
-0.0441675 -0.0352743 0.703 0 0 0
0.258574 -0.231907 0.724 255 255 255
-0.049185 0.163062 0.447 255 255 255
0.0278868 -0.278544 0.732 0 0 0
0.242642 -0.130419 0.787 255 255 255
-0.178899 -0.0187531 0.362 255 255 255
-0.0827768 -0.132488 0.647 0 0 0
0.212842 0.171976 0.48 255 255 255
0.271704 -0.145526 0.734 255 255 255
0.272924 0.0231177 0.782 255 255 255
-0.175213 -0.106221 0.788 255 255 255
0.293118 -0.0656009 0.722 255 255 255
-0.196029 0.140168 0.371 255 255 255
-0.112987 -0.133569 0.37 255 255 255
-0.146475 -0.060761 0.374 255 255 255
0.24018 0.128385 0.571 255 255 255
-0.139332 0.155823 0.431 255 255 255
-0.125109 -0.0418859 0.397 255 255 255
-0.0290591 0.131133 0.516 255 255 255
0.241909 0.0503811 0.833 0 0 0
0.200052 -0.0764724 0.857 255 255 255
-0.111245 0.121522 0.504 255 255 255
-0.113245 -0.109019 0.381 255 255 255
0.304413 -0.154535 0.684 255 255 255
0.0156883 -0.128762 0.777 255 255 255
0.0981273 -0.182091 0.966 255 255 255
-0.165968 -0.0609039 0.357 255 255 255
0.16504 -0.0731486 0.902 255 255 255
0.270899 -0.267888 0.701 255 255 255
0.327795 -0.0398864 0.684 255 255 255
-0.125303 0.0082559 0.417 255 255 255
0.0270356 -0.198477 0.814 255 255 255
0.0801757 0.0722493 0.671 255 255 255
0.074312 0.114645 0.554 255 255 255
0.0348827 0.118197 0.558 255 255 255
-0.15271 -0.265226 0.697 255 255 255
-0.0462395 0.120891 0.53 255 255 255
-0.168565 0.121133 0.402 255 255 255
0.107741 -0.186333 0.559 255 255 255
0.0552989 0.151868 0.504 255 255 255
-0.181967 -0.00288692 0.367 255 255 255
0.037081 -0.0624288 0.802 0 0 0
0.127725 -0.183666 0.551 255 255 255
-0.0654413 0.00700398 0.698 255 255 255
-0.164791 0.131212 0.393 255 255 255
0.171235 -0.0682878 0.896 255 255 255
-0.149354 0.137709 0.462 255 255 255
-0.1738 0.118516 0.402 255 255 255
0.248936 0.155891 0.523 255 255 255
0.100059 0.0337808 0.737 255 255 255
-0.0115282 -0.233989 0.738 255 255 255
-0.109116 0.102579 0.538 255 255 255
-0.095234 0.00602784 0.717 255 255 255
-0.0905675 -0.00549851 0.699 255 255 255
-0.109094 0.151762 0.448 255 255 255
0.0533429 0.0198623 0.755 255 255 255
0.182552 0.160735 0.491 255 255 255
-0.206263 0.106186 0.49 255 255 255
0.225813 0.173899 0.481 255 255 255
-0.0736045 0.142478 0.478 255 255 255
-0.138804 -0.252536 0.719 255 255 255
-0.0117625 -0.241196 0.753 255 255 255
0.306999 -0.0464131 0.716 255 255 255
-0.166694 0.0825931 0.396 255 255 255
-0.00455483 0.14334 0.5 255 255 255
-0.170624 -0.111272 0.329 255 255 255
0.141391 -0.180102 0.901 255 255 255
-0.147172 0.0326439 0.408 255 255 255
-0.168625 0.0972674 0.519 255 255 255
0.314019 -0.205584 0.662 255 255 255
0.302276 -0.233187 0.667 255 255 255
-0.156767 -0.115113 0.342 255 255 255
-0.158234 -0.0782504 0.354 255 255 255
-0.180889 0.119063 0.484 255 255 255
0.0913408 -0.0678942 0.775 255 255 255
-0.107862 0.0516727 0.44 255 255 255
-0.0272328 -0.00557718 0.709 255 255 255
-0.140875 0.0187468 0.409 255 255 255
-0.124534 -0.00656119 0.41 255 255 255
-0.109316 -0.0344151 0.408 0 0 0
-0.100115 0.113337 0.523 255 255 255
0.159443 0.178336 0.47 255 255 255
0.324755 -0.178312 0.649 255 255 255
0.0402098 0.15229 0.5 255 255 255
0.145749 0.023975 0.811 0 0 0
-0.0383507 0.0853678 0.595 255 255 255
0.282968 -0.243675 0.697 255 255 255
-0.182871 0.131036 0.465 255 255 255
0.0281609 0.0533783 0.681 255 255 255
0.0613964 0.0981318 0.568 0 0 0
-0.169835 -0.0958806 0.337 0 0 0
-0.0546781 0.123687 0.52 255 255 255
-0.126307 0.0172667 0.749 0 0 0
0.16543 0.159611 0.49 255 255 255
0.0157099 0.160231 0.473 255 255 255
-0.0120593 -0.282458 0.772 255 255 255
-0.182419 0.134729 0.383 255 255 255
0.00964413 0.0346086 0.705 255 255 255
-0.00511103 0.1566 0.476 255 255 255
-0.00552909 -0.0178391 0.739 255 255 255
-0.159139 -0.00795714 0.381 255 255 255
0.117887 0.17246 0.488 255 255 255
0.127757 0.112843 0.563 255 255 255
-0.179067 -0.0642784 0.341 255 255 255
-0.180156 0.135616 0.46 255 255 255
0.133944 0.0792376 0.631 255 255 255
0.0176778 0.0783586 0.624 255 255 255
-0.170294 0.121175 0.483 255 255 255
0.00585829 0.111728 0.562 255 255 255
0.170459 -0.216692 0.877 255 255 255
-0.172941 -0.0434752 0.357 255 255 255
0.145635 -0.125842 0.833 255 255 255
-0.085408 -0.116357 0.651 0 0 0
-0.15415 -0.0682369 0.362 255 255 255
-0.185361 0.0151119 0.369 255 255 255
-0.0850066 -0.198752 0.64 0 0 0
0.33026 -0.11904 0.66 255 255 255
-0.180037 0.101152 0.513 255 255 255
-0.157297 0.0673345 0.405 255 255 255
-0.105397 -0.0845203 0.391 255 255 255
0.100229 -0.214289 0.568 255 255 255
0.258611 0.0650269 0.766 0 0 0
-0.11901 -0.11972 0.37 255 255 255
-0.0857795 -0.180481 0.638 0 0 0
0.311198 0.121271 0.61 255 255 255
-0.152032 0.0519879 0.414 255 255 255
-0.170035 -0.0533515 0.357 255 255 255
0.0970089 -0.0264447 0.78 255 255 255
-0.0360542 -0.0842265 0.701 255 255 255
0.0695625 0.0775509 0.634 255 255 255
0.154731 0.0783347 0.632 255 255 255
0.042768 -0.183394 0.925 255 255 255
0.176216 0.126365 0.554 255 255 255
-0.150146 0.00531561 0.4 255 255 255
-0.0240448 0.0724975 0.626 255 255 255
0.240385 -0.170337 0.788 255 255 255
0.0689736 0.065376 0.679 0 0 0
-0.172274 0.129523 0.465 255 255 255
-0.127888 -0.071759 0.384 255 255 255
-0.140692 -0.272859 0.705 255 255 255
0.0147393 -0.271843 0.73 255 255 255
-0.0411587 0.167288 0.439 255 255 255
0.0184758 -0.207525 0.788 255 255 255
0.108216 -0.0744455 0.752 255 255 255
0.12716 0.0806222 0.618 255 255 255
-0.16307 -0.0726529 0.352 255 255 255
0.285857 -0.240021 0.693 255 255 255
0.154668 0.113517 0.571 0 0 0
-0.15093 0.0582995 0.411 255 255 255
-0.178318 0.124824 0.473 255 255 255
0.13516 -0.21693 0.575 0 0 0
-0.0973896 -0.104438 0.387 0 0 0
0.0310107 -0.198477 0.814 255 255 255
0.141862 -0.189528 0.904 255 255 255
0.335263 -0.0619665 0.67 255 255 255
-0.0842187 -0.123583 0.65 0 0 0
-0.151952 -0.258724 0.704 255 255 255
0.132742 -0.192011 0.557 255 255 255
-0.181172 0.0437322 0.383 255 255 255
0.0863497 -0.0548576 0.787 255 255 255
-0.170807 -0.0233823 0.37 255 255 255
0.0177255 0.012507 0.756 0 0 0
0.221884 0.127485 0.567 255 255 255
0.242284 0.08848 0.646 255 255 255
0.0878416 -0.150313 0.974 255 255 255
0.174259 0.153509 0.504 255 255 255
0.26812 -0.15747 0.734 255 255 255
0.28579 0.0188064 0.762 255 255 255
0.206355 0.0275716 0.884 255 255 255
-0.131067 -0.113945 0.365 255 255 255
-0.167536 0.0745904 0.398 255 255 255
0.110736 -0.214996 0.565 255 255 255
0.0951774 0.179101 0.47 255 255 255
0.0738279 -0.208645 0.937 255 255 255
-0.142927 -0.0747576 0.368 255 255 255
0.200002 -0.119405 0.845 255 255 255
-0.0326775 -0.0877738 0.702 0 0 0
-0.0290362 0.0931334 0.583 255 255 255
0.32136 -0.202344 0.655 255 255 255
-0.084737 -0.10625 0.654 255 255 255
0.17567 0.0686808 0.69 255 255 255
0.298255 0.0681381 0.759 255 255 255
-0.0208265 -0.139764 0.688 255 255 255
0.334848 -0.0823122 0.667 255 255 255
0.279305 -0.128452 0.732 255 255 255
-0.133671 -0.110078 0.364 255 255 255
0.296402 -0.256681 0.666 255 255 255
-0.0819435 -0.0510173 0.684 255 255 255
0.302341 -0.149586 0.692 255 255 255
0.0365594 0.169263 0.464 255 255 255
-0.169272 0.0755045 0.396 255 255 255
-0.125443 -0.067803 0.39 255 255 255
0.18794 -0.083487 0.872 255 255 255
-0.170317 0.0331926 0.391 255 255 255
0.337556 -0.0197056 0.679 255 255 255
-0.112719 0.141176 0.466 255 255 255
-0.144213 -0.00895986 0.398 255 255 255
0.289112 -0.208665 0.69 255 255 255
0.238722 -0.0822101 0.804 255 255 255
0.295232 0.127856 0.59 255 255 255
0.028081 0.00396733 0.77 0 0 0
0.278201 -0.0907256 0.745 255 255 255
-0.0601991 -0.26605 0.761 255 255 255
-0.146409 0.13388 0.467 255 255 255
-0.124475 0.14279 0.459 255 255 255
-0.104043 0.0270795 0.436 255 255 255
-0.0227004 0.0896027 0.591 255 255 255
-0.127992 0.0468611 0.652 255 255 255
-0.0844778 -0.117597 0.652 0 0 0
-0.0726275 -0.197296 0.632 0 0 0
-0.0195322 -0.0056873 0.723 0 0 0
0.286357 -0.0637097 0.741 255 255 255
-0.0617661 -0.015646 0.695 255 255 255
-0.112005 -0.099719 0.381 0 0 0
-0.115408 -0.0956292 0.382 255 255 255
0.190311 -0.0356845 0.883 255 255 255
-0.106294 -0.126492 0.374 0 0 0
-0.0117636 -0.186268 0.682 0 0 0
-0.057735 0.0104564 0.701 255 255 255
-0.176332 -0.0141179 0.364 255 255 255
-0.165935 -0.0387823 0.362 255 255 255
0.229707 -0.2777 0.749 255 255 255
0.209508 -0.140402 0.839 255 255 255
-0.0475466 0.117678 0.535 255 255 255
-0.0327241 -0.0844668 0.703 255 255 255
-0.134619 -0.0530694 0.389 255 255 255
-0.0698082 0.123692 0.513 255 255 255
0.023413 0.0712162 0.642 255 255 255
0.318315 -0.0795363 0.69 255 255 255
0.141948 0.149849 0.5 0 0 0
-0.104057 0.0973401 0.553 255 255 255
0.219778 -0.183956 0.797 255 255 255
0.326857 -0.130567 0.664 255 255 255
-0.0738894 -0.177286 0.634 255 255 255
0.187504 0.0691967 0.684 255 255 255
-0.108405 -0.0712434 0.395 0 0 0
-0.167942 -0.029324 0.369 255 255 255
-0.077066 0.154067 0.457 255 255 255
-0.0720216 -0.150972 0.645 0 0 0
0.314512 -0.0890323 0.694 255 255 255
0.127386 0.180612 0.476 255 255 255
0.315329 -0.229353 0.647 255 255 255
0.197399 0.140226 0.538 255 255 255
-0.136524 0.0571193 0.614 255 255 255
0.160499 0.15706 0.492 255 255 255
-0.101654 -0.0939541 0.697 0 0 0
-0.0102149 -0.0295014 0.73 0 0 0
0.149708 0.168148 0.478 255 255 255
-0.187474 0.139335 0.372 255 255 255
0.19475 0.17214 0.474 255 255 255
0.119142 -0.195637 0.557 255 255 255
-0.131068 -0.064595 0.386 255 255 255
-0.114785 -0.0342532 0.73 0 0 0
0.0803506 0.00793718 0.791 255 255 255
0.222536 -0.0107978 0.847 255 255 255
-0.168907 0.132446 0.462 255 255 255
0.0170185 -0.112758 0.78 255 255 255
-0.144542 0.0972891 0.533 255 255 255
0.235159 -0.137692 0.792 255 255 255
-0.0533592 0.148056 0.471 255 255 255
0.263501 -0.125116 0.755 255 255 255
0.215088 0.0284523 0.867 255 255 255
0.218642 0.158034 0.508 255 255 255
0.281422 0.0176816 0.767 255 255 255
-0.06885 0.00700398 0.698 255 255 255
0.132974 0.0194974 0.79 0 0 0
-0.112457 -0.0815558 0.389 0 0 0
-0.124615 -0.00598622 0.761 255 255 255
-0.0262626 -0.0648741 0.714 255 255 255
-0.143996 -0.115368 0.353 255 255 255
0.192163 0.0950084 0.62 255 255 255
-0.190157 -0.00283972 0.361 255 255 255
0.321872 -0.0636313 0.688 255 255 255
-0.152168 -0.257944 0.705 255 255 255
0.311361 -0.0286931 0.71 255 255 255
0.0210835 0.170798 0.456 255 255 255
0.0463296 0.10063 0.588 255 255 255
-0.17877 0.0692832 0.39 255 255 255
0.284725 0.0545105 0.776 255 255 255
0.321544 -0.042913 0.697 255 255 255
-0.0465728 -0.288341 0.761 255 255 255
-0.169308 -0.0259302 0.372 255 255 255
-0.160388 0.149795 0.42 255 255 255
0.219383 -0.0622799 0.835 255 255 255
-0.183064 0.0700098 0.387 255 255 255
0.0844628 0.0325815 0.737 255 255 255
-0.136742 -0.0225044 0.397 255 255 255
-0.0393067 0.153206 0.468 255 255 255
-0.150627 0.0450322 0.412 255 255 255
-0.144284 0.00372516 0.723 255 255 255
0.15696 0.111699 0.576 255 255 255
-0.179632 -0.087226 0.802 255 255 255
-0.0378212 0.0725767 0.618 255 255 255
-0.123522 0.0842669 0.568 255 255 255
0.0194356 0.162274 0.47 255 255 255
0.319858 0.0378977 0.724 255 255 255
-0.118999 -0.0631079 0.734 255 255 255
0.209951 0.0386822 0.875 255 255 255
0.288113 -0.215211 0.693 255 255 255
0.254903 0.0895313 0.646 255 255 255
0.118919 0.091681 0.592 0 0 0
0.0431997 -0.0317653 0.819 255 255 255
-0.0465754 0.111691 0.544 255 255 255
0.275145 -0.201719 0.709 255 255 255
0.262197 -0.216866 0.721 255 255 255
0.26735 -0.109934 0.752 255 255 255
-0.125591 0.0598723 0.432 255 255 255
0.0602024 -0.0166453 0.797 0 0 0
-0.0809446 0.139169 0.48 255 255 255
-0.162246 -0.232189 0.714 255 255 255
-0.124376 -0.0274352 0.403 255 255 255
0.177465 0.160547 0.488 255 255 255
0.0888217 -0.218062 0.578 0 0 0
0.231785 0.179082 0.474 255 255 255
0.111759 -0.137637 0.743 255 255 255
-0.161344 -0.250419 0.7 255 255 255
0.190173 0.0851741 0.637 255 255 255
0.270415 -0.141323 0.737 255 255 255
-0.164567 -0.115335 0.333 255 255 255
-0.0928525 0.0698339 0.603 255 255 255
0.117833 -0.0338423 0.775 0 0 0
0.23963 -0.116074 0.794 255 255 255
0.243319 0.0189957 0.824 255 255 255
-0.224817 0.130181 0.449 255 255 255
0.181753 0.160735 0.491 255 255 255
-0.165926 -0.206271 0.725 255 255 255
-0.088624 0.0402563 0.684 255 255 255
0.21666 -0.0288519 0.851 255 255 255
-0.0515884 0.0584051 0.639 255 255 255
0.285524 0.00267198 0.758 255 255 255
-0.161764 -0.0170761 0.377 255 255 255
0.0685216 -0.255537 0.888 255 255 255
-0.117797 0.0463424 0.437 255 255 255
-0.0656506 0.10627 0.548 0 0 0
0.328543 -0.201042 0.644 255 255 255
0.204812 -0.294257 0.77 255 255 255
0.124813 -0.156718 0.554 255 255 255
0.305075 -0.228502 0.666 255 255 255
0.121399 0.0990523 0.59 0 0 0
0.275018 0.0489418 0.788 255 255 255
-0.180175 0.0246421 0.377 255 255 255
0.0152949 0.0378345 0.701 255 255 255
-0.153394 -0.0684254 0.363 255 255 255
-0.128653 -0.0415694 0.394 255 255 255
0.275071 -0.217385 0.7 255 255 255
0.277164 -0.106831 0.739 255 255 255
-0.0150912 -0.00219642 0.736 0 0 0
-0.142558 -0.0952696 0.364 255 255 255
-0.176175 -0.0487326 0.353 255 255 255
-0.159963 -0.0742179 0.354 255 255 255
-0.0327241 -0.00896201 0.703 255 255 255
0.205786 0.108181 0.598 255 255 255
-0.109461 -0.00540526 0.424 255 255 255
-0.147427 -0.00468544 0.751 255 255 255
0.190168 0.123576 0.566 255 255 255
-0.160867 0.0990572 0.524 255 255 255
-0.211426 0.117126 0.473 255 255 255
0.182087 -0.0897767 0.878 255 255 255
0.155002 0.0718406 0.688 255 255 255
-0.189277 0.0568208 0.383 0 0 0
-0.111398 0.122429 0.501 255 255 255
-0.147631 0.0599274 0.413 255 255 255
0.0342607 -0.275939 0.741 255 255 255
0.342481 0.0278485 0.68 255 255 255
-0.11364 0.00620439 0.738 255 255 255
0.16813 -0.0856891 0.895 255 255 255
-0.0456288 0.12355 0.523 255 255 255
-0.124286 -0.0124741 0.407 255 255 255
0.130953 -0.212999 0.91 255 255 255
-0.160033 -0.117467 0.336 255 255 255
-0.0895918 -0.17457 0.643 0 0 0
-0.16554 -0.0317259 0.369 255 255 255
0.288649 0.0337309 0.763 255 255 255
-0.0411815 0.147286 0.481 255 255 255
-0.0610365 0.169229 0.433 255 255 255
0.313702 -0.122647 0.68 255 255 255
0.250983 0.118109 0.599 255 255 255
0.230776 0.102747 0.618 255 255 255
0.281505 -0.211387 0.699 255 255 255
0.132449 0.118723 0.552 255 255 255
0.178441 0.141378 0.526 255 255 255
-0.128912 -0.131935 0.359 255 255 255
0.145278 -0.200072 0.567 0 0 0
0.341766 0.0486099 0.692 255 255 255
-0.170664 -0.0198231 0.371 255 255 255
0.076246 -0.00891897 0.802 0 0 0
0.191641 0.148228 0.52 255 255 255
0.254084 0.145598 0.545 255 255 255
0.0745664 -0.321772 0.842 255 255 255
-0.098746 -0.0493824 0.411 255 255 255
0.351673 0.11345 0.696 255 255 255
-0.103115 -0.0591472 0.715 0 0 0
0.271041 -0.0186599 0.773 255 255 255
-0.203626 0.123204 0.464 255 255 255
0.0402168 0.080776 0.627 0 0 0
-0.10515 0.14977 0.453 255 255 255
-0.00644964 -0.19913 0.708 255 255 255
-0.123305 0.00142898 0.753 255 255 255
0.1526 0.118621 0.56 255 255 255
0.225657 -0.255806 0.76 255 255 255
-0.180549 0.0381228 0.383 255 255 255
0.0631136 0.13446 0.543 0 0 0
0.101104 -0.287889 0.908 255 255 255
0.208053 -0.159876 0.787 255 255 255
-0.175628 -0.0254422 0.365 255 255 255
0.0465919 0.0594986 0.675 255 255 255
-0.136055 0.0512061 0.64 255 255 255
-0.148 -0.0102037 0.396 255 255 255
0.0725099 -0.0285668 0.804 0 0 0
-0.0606641 0.0888446 0.586 255 255 255
-0.148648 0.00994617 0.403 255 255 255
-0.00897718 -0.0825045 0.726 0 0 0
-0.147996 -0.260977 0.707 255 255 255
-0.159893 -0.0483409 0.363 255 255 255
0.235425 0.103585 0.617 255 255 255
-0.142676 -0.120304 0.354 255 255 255
0.22569 0.0681831 0.685 255 255 255
0.279058 0.148803 0.547 255 255 255
-0.144353 -0.000545491 0.402 255 255 255
0.18706 -0.151428 0.855 255 255 255
0.0447694 0.145964 0.515 255 255 255
-0.172217 -0.108389 0.33 255 255 255
0.10264 0.107918 0.566 255 255 255
0.188325 0.151483 0.511 255 255 255
0.0673693 0.0232987 0.747 255 255 255
-0.11597 -0.12566 0.368 255 255 255
0.261858 -0.0164364 0.787 255 255 255
-0.17264 -0.0563596 0.354 255 255 255
0.0941956 0.113611 0.549 255 255 255
0.116611 0.128514 0.533 255 255 255
0.129136 0.149408 0.504 0 0 0
0.144914 -0.157904 0.555 0 0 0
0.133525 0.170774 0.49 255 255 255
0.0874469 -0.00626941 0.797 255 255 255
-0.140257 -0.13129 0.348 255 255 255
-0.16051 -0.112333 0.337 255 255 255
0.141921 0.00744863 0.886 255 255 255
0.28713 -0.0529997 0.743 255 255 255
-0.0264646 -0.1153 0.689 0 0 0
-0.160386 0.00451307 0.387 255 255 255
0.32823 -0.078153 0.678 255 255 255
0.22977 0.101742 0.618 255 255 255
-0.139767 -0.0975798 0.366 255 255 255
0.0989994 0.138216 0.527 255 255 255
-0.0945639 -0.0752114 0.399 255 255 255
0.264009 -0.0863684 0.76 255 255 255
0.283518 -0.187695 0.704 255 255 255
-0.157485 -0.0159753 0.38 255 255 255
0.178262 0.0717361 0.687 255 255 255
0.198456 0.113445 0.585 255 255 255
0.0216287 -0.202774 0.81 255 255 255
0.314582 -0.222638 0.652 255 255 255
0.283353 -0.0607409 0.749 255 255 255
-0.112747 0.142528 0.463 255 255 255
-0.0429225 0.107433 0.554 255 255 255
0.182029 -0.177032 0.851 255 255 255
0.21489 -0.104242 0.823 255 255 255
-0.141166 0.0398573 0.659 255 255 255
-0.0405087 -0.120434 0.68 0 0 0
0.0782732 -0.189144 0.954 255 255 255
-0.0497749 0.107552 0.55 255 255 255
0.125034 0.118508 0.551 255 255 255
0.283653 0.064946 0.78 0 0 0
0.334336 -0.00762895 0.686 255 255 255
-0.05506 -0.0830535 0.682 0 0 0
-0.0883822 0.068209 0.606 255 255 255
-0.129996 0.0246599 0.419 255 255 255
-0.127109 0.0442006 0.43 0 0 0
0.132439 0.066724 0.693 255 255 255
0.243613 -0.140486 0.786 255 255 255
-0.176777 0.141069 0.375 255 255 255
0.0229176 0.00394156 0.765 255 255 255
0.220359 0.100573 0.617 255 255 255
-0.0779455 0.143431 0.476 255 255 255
-0.110951 -0.135561 0.713 255 255 255
0.266816 -0.154516 0.737 255 255 255
0.256947 0.118686 0.597 255 255 255
0.157551 0.0501599 0.731 0 0 0
-0.0829008 0.102182 0.55 255 255 255
-0.0418116 -0.266513 0.788 0 0 0
0.271783 -0.156827 0.731 255 255 255
