ply
format ascii 1.0
comment Created by Open3D
element vertex 1303
property double x
property double y
property double z
property uchar red
property uchar green
property uchar blue
end_header
0.148571 -0.170871 0.562 0 0 0
-0.123139 -0.120782 0.379 255 255 255
-0.173923 -0.10515 0.344 255 255 255
0.276989 -0.256819 0.745 255 255 255
-0.191167 0.122483 0.4 255 255 255
-0.121129 0.15691 0.444 255 255 255
0.224129 -0.0502239 0.886 255 255 255
0.0289817 0.135453 0.533 255 255 255
0.33546 -0.206937 0.677 255 255 255
0.0917536 0.0796572 0.66 255 255 255
-0.137143 0.0226683 0.42 255 255 255
-0.0379684 0.162918 0.461 255 255 255
0.104015 -0.19721 0.948 255 255 255
0.199749 0.117453 0.586 255 255 255
0.122616 -0.312658 0.882 255 255 255
0.189824 0.0617161 0.727 0 0 0
0.0234364 -0.113302 0.742 255 255 255
0.152761 -0.0563976 0.773 0 0 0
0.0887133 0.153894 0.522 255 255 255
0.220587 -0.120382 0.872 255 255 255
-0.154863 -0.123716 0.349 255 255 255
-0.127603 -0.142639 0.367 255 255 255
-0.175552 -0.0992795 0.345 255 255 255
0.0326219 -0.25794 0.759 0 0 0
0.114105 -0.0704018 1.01 255 255 255
0.312573 -0.117249 0.729 255 255 255
0.103463 0.1701 0.495 255 255 255
-0.196314 0.124032 0.47 255 255 255
0.355181 0.00131701 0.694 255 255 255
0.312611 -0.190256 0.705 255 255 255
0.172826 -0.207854 0.92 255 255 255
-0.113066 -0.0138221 0.784 255 255 255
-0.093 0.136486 0.49 255 255 255
-0.170024 0.141438 0.386 255 255 255
0.11461 0.0446354 0.738 255 255 255
-0.17462 -0.0278209 0.373 255 255 255
-0.0147237 -0.285385 0.78 255 255 255
-0.118021 -0.00680123 0.425 255 255 255
0.0290844 0.0712645 0.652 0 0 0
-0.0154674 0.124051 0.54 255 255 255
0.177894 0.167351 0.487 0 0 0
-0.194775 0.0710046 0.389 255 255 255
-0.0841739 -0.0662999 0.743 255 255 255
0.31102 -0.0307138 0.76 255 255 255
0.171067 0.11951 0.573 255 255 255
0.0359934 -0.265351 0.752 255 255 255
0.324628 0.0669911 0.76 255 255 255
0.120918 0.181371 0.478 255 255 255
0.335563 -0.0835598 0.705 255 255 255
-0.125483 -0.172349 0.774 255 255 255
0.0584091 0.116184 0.575 255 255 255
0.0562343 0.00021036 0.778 0 0 0
-0.180981 0.126143 0.478 255 255 255
-0.126889 -0.110879 0.381 255 255 255
0.25918 -0.228557 0.764 255 255 255
0.0822553 0.171046 0.484 0 0 0
0.325466 -0.128849 0.708 255 255 255
-0.0858674 -0.0634499 0.42 255 255 255
-0.118985 0.149187 0.458 255 255 255
0.279134 0.0585764 0.815 0 0 0
-0.116282 0.163264 0.434 255 255 255
-0.167563 0.00839886 0.392 255 255 255
0.150148 0.123888 0.551 255 255 255
0.102044 0.0952658 0.573 0 0 0
-0.100929 0.162309 0.441 255 255 255
0.278923 -0.273405 0.731 255 255 255
-0.0180171 0.165621 0.45 0 0 0
-0.109892 -0.145684 0.378 255 255 255
-0.164143 -0.113407 0.347 255 255 255
0.306988 0.012871 0.778 255 255 255
-0.175521 -0.0759461 0.354 0 0 0
-0.143851 0.00343007 0.408 255 255 255
-0.0977246 -0.0422716 0.427 0 0 0
-0.0592386 -0.266687 0.781 255 255 255
0.0655559 -0.106403 0.799 0 0 0
-0.0483926 -0.199295 0.652 0 0 0
-0.131851 -0.0966189 0.381 255 255 255
0.131931 0.173672 0.496 255 255 255
-0.175751 -0.0341278 0.369 255 255 255
-0.179114 -0.0737986 0.352 255 255 255
0.134224 0.112441 0.575 255 255 255
-0.182051 0.0652013 0.4 255 255 255
-0.0993832 0.0499507 0.457 255 255 255
-0.119866 -0.251146 0.732 255 255 255
-0.0182792 -0.0208955 0.72 255 255 255
-0.192703 0.116552 0.49 255 255 255
-0.122971 -0.0269663 0.416 255 255 255
0.284744 -0.0673208 0.783 255 255 255
0.173258 -0.18197 0.571 0 0 0
-0.0227751 0.139571 0.507 255 255 255
-0.136564 -0.127111 0.367 255 255 255
0.319858 -0.105841 0.724 255 255 255
-0.139756 0.0732479 0.428 255 255 255
0.162275 0.0701739 0.705 255 255 255
-0.0590988 0.0945419 0.58 255 255 255
-0.0830917 -0.0859154 0.413 255 255 255
0.0874683 0.164497 0.505 255 255 255
0.0320207 0.0622358 0.669 255 255 255
0.172463 0.0510519 0.744 255 255 255
0.0459314 -0.116513 0.797 255 255 255
-0.156633 -0.0645849 0.375 255 255 255
-0.185562 0.0791706 0.395 255 255 255
0.31893 -0.26092 0.677 255 255 255
-0.184345 0.0080989 0.378 255 255 255
0.107083 -0.323428 0.861 255 255 255
0.304291 -0.241418 0.707 255 255 255
-0.137024 0.144913 0.461 255 255 255
0.153231 0.167552 0.497 255 255 255
-0.0761194 0.114384 0.54 255 255 255
-0.104352 -0.0575481 0.412 255 255 255
0.0162745 0.158016 0.49 255 255 255
0.112709 -0.31337 0.872 255 255 255
0.12805 -0.243932 0.932 255 255 255
-0.117861 0.135603 0.484 255 255 255
0.000406133 0.0856507 0.618 255 255 255
0.170198 -0.179772 0.567 255 255 255
-0.0341839 0.14374 0.493 0 0 0
-0.170747 -0.0529096 0.366 255 255 255
0.34507 -0.0260479 0.701 255 255 255
0.327012 -0.081709 0.719 255 255 255
-0.046781 0.101829 0.568 0 0 0
0.0550385 -0.233044 0.779 255 255 255
-0.212524 0.109385 0.501 255 255 255
-0.00395148 -0.200833 0.675 0 0 0
0.00504971 0.16103 0.419 255 255 255
-0.11462 -0.076241 0.401 255 255 255
-0.173255 0.120875 0.41 255 255 255
0.224841 0.179854 0.474 255 255 255
-0.108692 0.149197 0.465 255 255 255
0.28427 0.14479 0.559 255 255 255
0.117299 -0.00240532 0.806 255 255 255
0.0817728 0.00283766 0.805 0 0 0
-0.125387 0.102838 0.544 255 255 255
-0.119786 -0.225565 0.754 255 255 255
0.190902 0.154203 0.509 255 255 255
0.325811 0.0556396 0.757 255 255 255
0.112426 -0.148201 0.981 255 255 255
0.292927 -0.130548 0.758 255 255 255
-0.123074 0.144657 0.465 255 255 255
-0.164784 -0.0552942 0.37 255 255 255
0.0983895 0.0922501 0.602 255 255 255
-0.169422 -0.0518597 0.367 255 255 255
-0.0307406 0.166354 0.454 255 255 255
0.0823131 0.111855 0.572 0 0 0
0.341096 0.0955914 0.742 255 255 255
-0.0159351 -0.00332035 0.72 255 255 255
-0.145891 0.134886 0.41 255 255 255
-0.150058 0.032607 0.416 255 255 255
-0.147226 0.013455 0.41 255 255 255
-0.124265 -0.13242 0.807 255 255 255
-0.101914 -0.223061 0.758 255 255 255
-0.0879936 -0.0485254 0.427 255 255 255
-0.154986 -0.126193 0.348 255 255 255
-0.0784661 -0.0799616 0.417 255 255 255
-0.113286 -0.267544 0.728 255 255 255
-0.0997082 -0.228597 0.76 255 255 255
-0.184563 0.0498532 0.397 255 255 255
0.0749042 0.157517 0.509 255 255 255
-0.00777392 -0.00569517 0.724 255 255 255
-0.192101 0.0718218 0.39 255 255 255
0.310138 -0.232857 0.702 255 255 255
0.205443 -0.183238 0.874 255 255 255
-0.0949783 -0.069448 0.415 0 0 0
0.073352 0.0155417 0.785 0 0 0
-0.0911021 0.141512 0.48 255 255 255
-0.152774 0.00938257 0.407 255 255 255
-0.11219 -0.0827283 0.404 255 255 255
-0.190048 0.0739148 0.391 255 255 255
0.230768 0.0795056 0.677 255 255 255
-0.0265812 0.157588 0.472 255 255 255
-0.0903525 -0.13258 0.392 0 0 0
-0.0184561 0.131711 0.525 255 255 255
-0.144641 -0.134308 0.356 255 255 255
0.164065 0.153074 0.508 255 255 255
-0.192264 -0.0165326 0.365 255 255 255
-0.111511 0.0356842 0.446 255 255 255
0.0807941 0.173538 0.48 255 255 255
-0.159947 0.129569 0.485 255 255 255
0.332324 0.067779 0.755 255 255 255
-0.15393 0.132414 0.481 255 255 255
0.345782 0.0909774 0.734 255 255 255
-0.100948 0.0688318 0.454 255 255 255
-0.0390833 0.0453623 0.694 0 0 0
0.0882248 -0.202111 0.928 255 255 255
-0.206 0.11183 0.501 255 255 255
0.0121922 0.140612 0.52 255 255 255
-0.0698535 -0.270952 0.786 255 255 255
-0.105685 0.165382 0.434 255 255 255
0.304858 -0.252637 0.703 255 255 255
-0.12931 -0.0519664 0.4 255 255 255
0.185185 -0.198942 0.9 255 255 255
-0.104815 -0.0890841 0.406 255 255 255
0.120412 0.183711 0.476 255 255 255
0.300832 -0.148119 0.741 255 255 255
-0.00527471 -0.106505 0.705 255 255 255
0.198474 -0.0058334 0.935 255 255 255
-0.0792025 0.166854 0.436 255 255 255
0.19225 -0.207334 0.892 255 255 255
0.222547 -0.305627 0.793 255 255 255
-0.176542 -0.056455 0.362 255 255 255
-0.0429898 0.0768474 0.62 255 255 255
0.260266 -0.194508 0.831 255 255 255
0.0648483 -0.258332 0.775 255 255 255
-0.0867572 -0.0608605 0.421 255 255 255
0.0695414 0.110969 0.582 255 255 255
-0.0470012 -0.283494 0.768 255 255 255
0.163129 -0.259122 0.916 255 255 255
-0.0568739 0.143871 0.488 255 255 255
-0.168138 -0.126967 0.338 0 0 0
0.187938 -0.0090284 0.951 255 255 255
-0.143743 -0.110078 0.364 255 255 255
-0.173111 -0.01655 0.379 255 255 255
0.111956 -0.0528943 0.796 255 255 255
-0.188519 -0.0378766 0.359 255 255 255
-0.162041 -0.0543824 0.372 255 255 255
-0.142927 0.0727345 0.425 255 255 255
-0.172417 -0.0594005 0.362 0 0 0
0.0976422 -0.290931 0.852 255 255 255
0.332851 -0.0794188 0.709 255 255 255
0.16928 -0.233474 0.909 255 255 255
0.161908 0.100586 0.605 255 255 255
0.187894 -0.18405 0.906 255 255 255
-0.192635 0.0618151 0.395 255 255 255
0.319075 -0.0192479 0.747 255 255 255
-0.0306597 0.147047 0.488 255 255 255
-0.00291611 -0.170488 0.69 0 0 0
0.341363 -0.201709 0.667 255 255 255
-0.143574 0.0531734 0.429 255 255 255
-0.12481 -0.0834606 0.392 255 255 255
-0.112329 -0.140889 0.38 255 255 255
0.326557 -0.0886059 0.718 255 255 255
0.343681 -0.128906 0.678 255 255 255
0.159019 -0.0796538 0.779 255 255 255
0.282518 -0.274652 0.728 255 255 255
-0.193676 0.0178935 0.377 255 255 255
0.322508 -0.0568242 0.73 255 255 255
0.309189 0.0808206 0.774 0 0 0
-0.0520695 -0.297629 0.769 255 255 255
0.164745 0.0592683 0.726 255 255 255
-0.242218 0.127856 0.47 255 255 255
-0.168505 0.0389945 0.405 255 255 255
-0.114952 0.162259 0.437 255 255 255
-0.0495967 0.124106 0.529 255 255 255
0.155527 0.119468 0.564 255 255 255
0.263051 -0.0172718 0.827 255 255 255
0.194072 0.162217 0.498 255 255 255
-0.00345974 0.0982584 0.591 255 255 255
-0.173484 -0.056611 0.363 255 255 255
-0.0545035 -0.0614813 0.689 0 0 0
-0.167116 -0.0257333 0.378 255 255 255
-0.0948688 -0.0196127 0.433 0 0 0
-0.00725129 -0.242016 0.796 255 255 255
-0.102652 0.0556556 0.455 255 255 255
0.324242 0.0870077 0.762 0 0 0
0.0862078 0.182517 0.467 255 255 255
-0.110553 0.0533413 0.448 255 255 255
0.267194 -0.0621145 0.815 255 255 255
0.316567 -0.0877109 0.73 255 255 255
-0.107663 -0.14436 0.381 255 255 255
0.330761 -0.0918505 0.707 255 255 255
-0.0381309 0.167093 0.454 255 255 255
0.303629 -0.114047 0.739 255 255 255
0.172633 0.178633 0.479 255 255 255
-0.182087 0.00754316 0.381 255 255 255
0.139557 -0.109289 0.756 0 0 0
-0.127688 -0.0557323 0.399 255 255 255
0.219367 0.0266652 0.902 255 255 255
-0.182348 0.0836701 0.395 255 255 255
0.166363 0.112685 0.586 255 255 255
0.100654 0.0779878 0.655 255 255 255
-0.110152 -0.0933919 0.399 255 255 255
-0.0182355 -0.174471 0.675 0 0 0
0.108923 0.179006 0.48 255 255 255
0.0365142 0.139602 0.529 255 255 255
-0.164784 -0.0504773 0.37 255 255 255
-0.0973619 -0.1806 0.761 255 255 255
-0.117451 -0.0656348 0.404 255 255 255
0.127672 0.112441 0.575 255 255 255
-0.0340484 -0.167878 0.662 255 255 255
0.194738 -0.0104425 0.939 255 255 255
0.166836 -0.170425 0.92 255 255 255
-0.12286 -0.0727126 0.396 255 255 255
-0.147894 -0.028746 0.394 255 255 255
0.0769863 0.146489 0.529 255 255 255
-0.131644 -0.114741 0.812 255 255 255
-0.193273 0.0396777 0.386 255 255 255
-0.172197 -0.0225977 0.377 0 0 0
-0.134332 -0.135019 0.361 255 255 255
0.328574 0.0219057 0.741 255 255 255
0.141755 -0.176068 0.564 255 255 255
0.345326 0.0831255 0.728 255 255 255
0.208628 0.113447 0.595 255 255 255
-0.0851837 -0.0634499 0.42 255 255 255
-0.0482635 0.0926591 0.586 0 0 0
0.0428305 -0.190061 0.812 255 255 255
0.0235084 0.138216 0.527 255 255 255
0.344647 -0.0594108 0.691 255 255 255
-0.173547 -0.0325892 0.372 255 255 255
-0.141401 -0.0458237 0.392 255 255 255
0.014021 0.0984491 0.598 255 255 255
0.244397 0.159151 0.517 255 255 255
0.117048 0.105503 0.578 0 0 0
0.0381398 -0.172298 0.855 255 255 255
-0.169904 -0.0286565 0.376 255 255 255
0.208371 0.133634 0.558 255 255 255
-0.121578 0.0491414 0.443 255 255 255
0.119303 0.155593 0.522 0 0 0
-0.111863 -0.00104078 0.767 255 255 255
0.288389 -0.265407 0.719 255 255 255
0.0317501 0.155601 0.495 255 255 255
0.0347845 0.100459 0.587 0 0 0
0.271834 0.0590076 0.821 0 0 0
-0.173246 0.00770155 0.389 255 255 255
-0.137609 0.0623941 0.43 255 255 255
0.272011 0.106103 0.632 255 255 255
-0.187176 0.134941 0.389 255 255 255
0.336357 0.0131558 0.724 255 255 255
-0.164229 0.0222954 0.401 255 255 255
-0.0546876 0.011928 0.721 255 255 255
-0.192242 0.0767019 0.389 255 255 255
0.336863 0.0791109 0.746 255 255 255
0.158109 -0.188144 0.57 255 255 255
-0.16498 0.0730138 0.411 255 255 255
0.272924 -0.15886 0.782 255 255 255
-0.0302622 -0.0487236 0.699 255 255 255
0.00872551 0.0367195 0.724 255 255 255
-0.108837 0.15493 0.453 255 255 255
-0.0692662 0.134378 0.503 255 255 255
0.00643002 -0.0592812 0.731 255 255 255
0.32495 0.0161764 0.755 255 255 255
-0.238202 0.120139 0.482 255 255 255
0.302712 -0.264055 0.706 255 255 255
-0.071348 -0.285864 0.761 255 255 255
0.244774 0.145865 0.546 255 255 255
-0.173051 -0.117413 0.339 255 255 255
-0.164438 0.0700087 0.413 255 255 255
-0.0811274 -0.11771 0.4 0 0 0
-0.18999 -0.00835203 0.371 255 255 255
0.346505 -0.0440472 0.697 255 255 255
-0.0673802 -0.255929 0.787 255 255 255
0.139676 0.176275 0.492 255 255 255
0.344516 -0.058455 0.693 255 255 255
-0.203426 0.0615032 0.385 0 0 0
-0.151793 -0.0994588 0.362 0 0 0
0.108159 0.0252362 0.769 255 255 255
-0.127506 0.0132285 0.728 255 255 255
-0.00902553 0.0684002 0.645 255 255 255
0.144097 -0.115135 0.754 0 0 0
-0.0231019 0.101565 0.577 255 255 255
0.317006 -0.21305 0.697 255 255 255
-0.0930312 -0.119713 0.398 0 0 0
-0.0768984 -0.140022 0.395 0 0 0
0.021705 0.149704 0.505 255 255 255
0.325339 -0.166718 0.693 255 255 255
0.202414 -0.134755 0.892 255 255 255
-0.189091 0.00497009 0.374 255 255 255
0.265396 0.0619606 0.843 0 0 0
-0.106389 0.0405776 0.452 0 0 0
-0.0956649 -0.0536246 0.418 0 0 0
-0.163715 -0.0210875 0.383 255 255 255
-0.137929 0.0457061 0.431 0 0 0
0.324201 0.0706083 0.759 255 255 255
0.045778 0.106996 0.581 255 255 255
-0.136164 0.0136847 0.417 255 255 255
0.297469 -0.104506 0.757 255 255 255
0.28251 -0.188974 0.75 255 255 255
-0.146709 -0.132401 0.354 255 255 255
-0.133217 -0.045457 0.4 255 255 255
0.328234 -0.104802 0.709 255 255 255
0.302283 -0.267123 0.705 255 255 255
0.0550835 0.178672 0.461 255 255 255
-0.187933 0.101034 0.521 255 255 255
0.136096 0.152715 0.518 255 255 255
0.261558 0.136747 0.571 255 255 255
-0.180846 0.0044431 0.381 255 255 255
-0.10936 0.102702 0.548 255 255 255
-0.160225 -0.0592253 0.372 255 255 255
-0.0564502 0.104597 0.563 255 255 255
0.131852 -0.293153 0.906 255 255 255
0.127243 -0.0986997 0.997 255 255 255
-0.124026 -0.0187974 0.415 255 255 255
-0.127037 -0.0768848 0.391 255 255 255
-0.132347 -0.139517 0.362 255 255 255
-0.15926 -0.0491972 0.374 255 255 255
0.0760608 -0.206848 0.909 255 255 255
0.0859107 0.0934269 0.597 255 255 255
0.248588 -0.0220564 0.856 255 255 255
0.00364017 0.0643269 0.657 255 255 255
0.33621 -0.13208 0.683 255 255 255
-0.125749 -0.0174046 0.414 255 255 255
-0.125347 -0.16247 0.781 255 255 255
-0.0109502 -0.111605 0.701 255 255 255
-0.0369999 -0.284744 0.768 255 255 255
-0.0645124 -0.150242 0.665 0 0 0
-0.20173 0.11958 0.399 255 255 255
0.00650798 0.128445 0.54 255 255 255
-0.152602 -0.110285 0.357 255 255 255
-0.184335 -0.012039 0.373 255 255 255
0.0747902 -0.184385 0.93 255 255 255
-0.191026 0.126733 0.397 255 255 255
-0.0335598 0.150568 0.484 0 0 0
-0.139932 -0.113084 0.368 255 255 255
0.308327 0.0266943 0.775 255 255 255
0.327841 -0.255597 0.666 255 255 255
0.28746 -0.176062 0.747 255 255 255
-0.143482 -0.134308 0.356 255 255 255
0.155719 0.0558775 0.728 255 255 255
0.094245 0.180244 0.473 255 255 255
0.189669 0.13698 0.546 255 255 255
0.0590693 -0.230124 0.782 255 255 255
-0.0978233 -0.24798 0.755 255 255 255
-0.0400856 -0.177828 0.655 255 255 255
-0.103643 -0.0422621 0.42 255 255 255
-0.1535 -0.0396492 0.845 255 255 255
0.186273 0.172866 0.476 0 0 0
-0.13261 0.139154 0.472 255 255 255
-0.148041 -0.0724832 0.378 255 255 255
0.192423 0.0527544 0.751 0 0 0
0.113693 -0.327886 0.858 255 255 255
-0.125528 0.164799 0.427 255 255 255
0.315188 -0.22585 0.698 255 255 255
0.32753 -0.12142 0.705 255 255 255
-0.10356 0.109314 0.541 255 255 255
-0.0869896 0.0559777 0.647 0 0 0
0.125102 -0.0785873 0.781 0 0 0
-0.203952 0.11086 0.504 255 255 255
-0.154603 0.145728 0.376 255 255 255
-0.0621448 0.0929737 0.582 255 255 255
-0.141658 0.15834 0.436 255 255 255
0.07524 0.151579 0.517 255 255 255
-0.14158 0.137889 0.413 255 255 255
-0.14499 0.0584845 0.427 255 255 255
-0.240176 0.132927 0.469 255 255 255
-0.211709 0.107754 0.501 255 255 255
0.240481 0.135748 0.563 255 255 255
0.286431 -0.0232753 0.802 255 255 255
-0.172891 -0.0872975 0.351 255 255 255
0.260579 -0.0187302 0.832 255 255 255
-0.161119 0.0811122 0.408 255 255 255
-0.159266 -0.12679 0.345 255 255 255
0.212579 -0.0723377 0.892 255 255 255
0.15158 0.186428 0.479 255 255 255
-0.151912 -0.085537 0.368 255 255 255
-0.000407666 0.161414 0.42 255 255 255
-0.187023 0.0413582 0.39 255 255 255
0.307642 -0.00603342 0.767 255 255 255
-0.0227982 -0.161377 0.68 0 0 0
-0.0937761 -0.109683 0.404 0 0 0
-0.128474 0.123982 0.504 255 255 255
-0.181963 0.0189488 0.386 255 255 255
0.261909 0.0405333 0.854 255 255 255
0.165409 -0.20773 0.586 0 0 0
0.220845 0.0837583 0.667 255 255 255
0.275064 0.126896 0.59 255 255 255
0.259603 0.0334667 0.851 255 255 255
0.253815 -0.0695704 0.841 255 255 255
0.333111 0.0824133 0.754 255 255 255
0.236822 -0.1825 0.802 255 255 255
0.284017 -0.0976515 0.781 255 255 255
-0.0237996 -0.169479 0.677 0 0 0
-0.126047 -0.131617 0.373 255 255 255
-0.151587 -0.133555 0.348 255 255 255
0.107601 0.125225 0.549 0 0 0
-0.13152 0.0131558 0.724 255 255 255
-0.0150563 0.161428 0.472 255 255 255
-0.104168 0.139658 0.479 255 255 255
-0.0225844 -0.080459 0.708 255 255 255
0.187964 -0.185475 0.582 0 0 0
-0.0863032 -0.140513 0.391 0 0 0
-0.124199 0.160125 0.437 255 255 255
0.167605 0.0632889 0.718 255 255 255
0.0685281 0.132854 0.551 255 255 255
-0.15173 0.138439 0.467 255 255 255
-0.152253 0.117413 0.424 255 255 255
-0.127701 0.0296431 0.432 255 255 255
0.188024 0.179465 0.465 255 255 255
-0.133534 -0.0446941 0.399 255 255 255
0.0290297 -0.199438 0.762 255 255 255
0.0726151 0.134806 0.548 255 255 255
0.301572 0.0143006 0.787 255 255 255
-0.119784 -0.0628491 0.403 255 255 255
0.357228 0.0183627 0.698 255 255 255
-0.000769712 -0.242394 0.793 255 255 255
0.160493 0.157801 0.502 255 255 255
-0.0926497 -0.0656012 0.763 255 255 255
-0.0437411 0.0611474 0.646 255 255 255
-0.0856158 -0.101723 0.409 0 0 0
-0.188878 -0.00295771 0.376 255 255 255
-0.0939144 -0.117416 0.399 0 0 0
0.281839 -0.22651 0.745 255 255 255
-0.150623 -0.0553672 0.383 255 255 255
-0.187321 0.054883 0.396 0 0 0
0.33264 -0.0603951 0.716 255 255 255
-0.0896107 -0.0789185 0.748 255 255 255
-0.197786 0.0821784 0.385 255 255 255
0.112279 -0.182091 0.966 255 255 255
0.305293 -0.182171 0.723 255 255 255
0.202011 0.0872934 0.645 255 255 255
-0.12226 -0.257003 0.725 255 255 255
-0.17522 0.0186055 0.392 255 255 255
0.0302414 0.13196 0.54 255 255 255
-0.081194 0.0938899 0.576 255 255 255
0.226308 0.137836 0.553 255 255 255
-0.155681 -0.0805268 0.367 255 255 255
0.0736823 -0.233776 0.817 255 255 255
0.110538 0.150198 0.533 255 255 255
0.0821311 0.153558 0.518 255 255 255
-0.13465 0.045318 0.434 0 0 0
-0.0551993 0.101082 0.569 255 255 255
0.256734 -0.211104 0.787 255 255 255
0.0150998 0.136321 0.533 255 255 255
0.3244 -0.194349 0.691 255 255 255
-0.121148 -0.0651475 0.401 255 255 255
-0.147444 -0.0797455 0.819 255 255 255
0.241513 0.0733844 0.692 255 255 255
0.15621 0.156789 0.504 0 0 0
0.116483 0.171475 0.499 255 255 255
0.00122018 0.131362 0.534 255 255 255
-0.0380668 0.114504 0.549 255 255 255
-0.178986 -0.00113701 0.381 255 255 255
-0.233793 0.121456 0.481 255 255 255
-0.109338 0.0381163 0.449 255 255 255
-0.12133 0.123407 0.505 255 255 255
-0.194695 0.117053 0.406 255 255 255
-0.111734 0.0304665 0.444 255 255 255
0.115681 -0.279634 0.873 255 255 255
-0.174288 -0.0331053 0.371 255 255 255
0.181635 0.177559 0.472 255 255 255
0.285685 0.00813786 0.811 255 255 255
-0.143145 -0.154844 0.781 255 255 255
-0.106797 -0.0884234 0.406 255 255 255
0.336606 -0.00914049 0.717 255 255 255
-0.181963 0.137041 0.386 255 255 255
0.282198 0.0684014 0.776 0 0 0
-0.149094 -0.0031937 0.406 255 255 255
0.294654 0.0222362 0.796 255 255 255
-0.185536 0.139092 0.383 255 255 255
-0.0691864 -0.16335 0.679 0 0 0
0.049838 0.00273896 0.777 0 0 0
0.257308 -0.0216184 0.839 255 255 255
-0.15123 0.0161238 0.41 255 255 255
-0.15297 0.133922 0.478 255 255 255
-0.169503 0.0699962 0.409 255 255 255
0.102 0.17246 0.488 255 255 255
-0.199556 0.0566378 0.386 255 255 255
-0.16198 -0.119274 0.346 255 255 255
-0.183836 -0.0743055 0.349 255 255 255
-0.00473007 -0.257498 0.808 0 0 0
-0.0814761 -0.170567 0.709 255 255 255
0.161953 -0.178821 0.564 255 255 255
-0.181491 0.0176467 0.385 255 255 255
0.265885 -0.191517 0.807 255 255 255
-0.184194 0.0617918 0.399 255 255 255
0.153154 0.148737 0.513 0 0 0
0.277146 -0.148801 0.776 255 255 255
-0.0954521 -0.113154 0.4 255 255 255
-0.0916739 0.159737 0.452 255 255 255
0.319434 -0.0228334 0.745 255 255 255
0.222938 0.043543 0.887 255 255 255
-0.12238 -0.0329001 0.414 255 255 255
-0.127824 -0.0213433 0.412 255 255 255
-0.176569 -0.0919495 0.347 255 255 255
-0.0700312 -0.252407 0.788 255 255 255
0.223016 0.0826729 0.667 255 255 255
0.305994 -0.020984 0.766 255 255 255
0.143751 0.174128 0.495 255 255 255
-0.131722 0.0540411 0.436 255 255 255
-0.114445 -0.0684336 0.405 255 255 255
-0.100112 -0.282557 0.727 255 255 255
-0.0666083 0.000195489 0.723 0 0 0
-0.142235 0.143279 0.425 255 255 255
-0.154856 0.0207435 0.409 255 255 255
0.295752 0.0234133 0.792 255 255 255
-0.00514003 -0.155213 0.687 255 255 255
0.27912 -0.254234 0.741 255 255 255
-0.16081 -0.0237037 0.385 255 255 255
-0.155992 0.0336344 0.412 255 255 255
-0.0716177 0.127279 0.514 255 255 255
0.0905289 -0.123283 0.986 255 255 255
-0.0995467 0.157916 0.451 255 255 255
-0.16628 -0.0416697 0.372 0 0 0
0.253484 0.120831 0.598 255 255 255
-0.0702393 0.0718026 0.62 255 255 255
0.172357 -0.162588 0.565 0 0 0
-0.030089 -0.0835056 0.695 0 0 0
0.188018 -0.135652 0.879 255 255 255
0.290373 0.0701131 0.781 0 0 0
0.0736808 -0.232652 0.832 255 255 255
0.25756 -0.0565723 0.831 255 255 255
-0.158342 -0.132753 0.343 255 255 255
-0.141578 -0.125272 0.36 255 255 255
-0.0890373 0.165144 0.439 255 255 255
0.216374 0.0934461 0.644 255 255 255
0.000314786 0.159146 0.479 255 255 255
0.246845 -0.059249 0.85 255 255 255
-0.062953 0.0538803 0.66 255 255 255
0.304552 -0.219101 0.713 255 255 255
-0.116567 -0.272427 0.719 255 255 255
-0.0158687 -0.0616462 0.717 255 255 255
0.108578 0.168564 0.5 255 255 255
0.155218 -0.205603 0.58 255 255 255
-0.154767 -0.0311409 0.384 255 255 255
-0.0187488 -0.117266 0.694 0 0 0
-0.113399 -0.0881975 0.399 255 255 255
-0.180211 0.0292246 0.389 255 255 255
-0.148846 -0.103582 0.362 255 255 255
0.189916 0.067584 0.714 255 255 255
0.281074 -0.0779104 0.787 255 255 255
-0.169463 -0.0981502 0.351 255 255 255
0.12872 -0.222226 0.584 0 0 0
-0.132655 -0.0731505 0.835 255 255 255
0.32016 -0.20084 0.694 255 255 255
-0.00264985 0.0797557 0.627 255 255 255
-0.0828865 -0.0358192 0.433 255 255 255
0.269077 -0.124295 0.797 255 255 255
-0.205057 0.129874 0.469 255 255 255
0.208088 0.118811 0.588 255 255 255
0.354278 0.0520381 0.708 255 255 255
-0.0098931 0.0404594 0.707 0 0 0
0.191545 0.158618 0.502 255 255 255
-0.181978 0.0795714 0.397 255 255 255
-0.0395396 0.0272563 0.723 255 255 255
0.137186 0.0952102 0.596 0 0 0
-0.042218 0.0566698 0.655 255 255 255
-0.0270023 -0.0627306 0.703 255 255 255
0.270915 -0.145242 0.791 255 255 255
0.21619 -0.023216 0.901 255 255 255
-0.196801 0.055037 0.388 255 255 255
0.000301642 0.16744 0.459 255 255 255
-0.111941 0.0853054 0.575 255 255 255
0.162294 -0.163554 0.562 0 0 0
-0.133754 0.150243 0.45 255 255 255
0.0358648 -0.129311 0.804 255 255 255
-0.163013 -0.113972 0.347 255 255 255
-0.165089 -0.107246 0.349 255 255 255
-0.159013 -0.0622521 0.372 255 255 255
-0.125767 0.147164 0.461 255 255 255
-0.110705 0.112034 0.533 255 255 255
0.189916 0.0687459 0.714 0 0 0
-0.196454 0.138003 0.38 255 255 255
0.23355 0.0854139 0.663 255 255 255
-0.124587 0.108565 0.533 255 255 255
-0.0431158 0.158537 0.468 255 255 255
0.328211 -0.14416 0.704 255 255 255
0.169572 0.129928 0.55 255 255 255
-0.0850303 -0.143695 0.391 0 0 0
0.0330947 0.0102325 0.77 255 255 255
-0.0456953 0.140579 0.496 255 255 255
-0.0861266 0.0434933 0.739 255 255 255
-0.179197 0.131586 0.398 255 255 255
-0.0186577 0.163168 0.466 255 255 255
-0.161502 -0.0889501 0.36 255 255 255
0.0181721 0.163915 0.477 255 255 255
-0.180921 -0.011524 0.376 255 255 255
0.161648 0.116386 0.576 255 255 255
-0.178585 -0.0594925 0.359 255 255 255
-0.197171 0.138873 0.379 255 255 255
0.23631 -0.295402 0.783 255 255 255
0.11518 0.174761 0.49 255 255 255
-0.0169883 -0.0707826 0.715 255 255 255
-0.132975 -0.122183 0.372 255 255 255
0.163106 0.108606 0.595 255 255 255
-0.180793 0.123402 0.403 255 255 255
-0.166499 0.139452 0.391 255 255 255
-0.0107218 0.109224 0.568 255 255 255
-0.0702014 0.0603902 0.638 255 255 255
-0.172649 0.0663423 0.407 255 255 255
0.105024 0.182553 0.473 255 255 255
-0.163185 -0.0949137 0.356 255 255 255
0.186408 0.0981933 0.621 255 255 255
0.0181615 0.154112 0.498 255 255 255
0.332015 -0.014058 0.73 255 255 255
0.253624 -0.275277 0.766 255 255 255
0.29735 -0.00874104 0.786 255 255 255
0.0303495 0.0176125 0.764 0 0 0
-0.0953528 0.0324865 0.452 0 0 0
-0.0456914 -0.295607 0.767 255 255 255
0.091075 0.0376324 0.742 255 255 255
-0.154798 0.125352 0.416 255 255 255
0.0857666 -0.258067 0.831 255 255 255
-0.0234222 0.0982129 0.585 255 255 255
-0.183612 -0.0114627 0.374 255 255 255
-0.0423834 -0.274728 0.775 255 255 255
-0.0506193 -0.0752846 0.682 0 0 0
0.277305 -0.125451 0.78 255 255 255
-0.170417 0.0518984 0.408 0 0 0
0.00732807 -0.135947 0.703 255 255 255
-0.136081 0.11822 0.511 255 255 255
0.126061 0.174674 0.492 255 255 255
-0.121875 -0.128734 0.377 255 255 255
0.31376 -0.116063 0.729 255 255 255
-0.100426 -0.270018 0.738 255 255 255
0.117529 -0.0941354 0.773 255 255 255
0.141552 -0.24973 0.931 255 255 255
0.265618 0.163145 0.519 255 255 255
-0.0743979 0.0219352 0.742 0 0 0
0.296012 -0.262823 0.712 255 255 255
-0.232492 0.131473 0.472 255 255 255
-0.137191 0.010267 0.416 255 255 255
-0.0322786 -0.136108 0.67 255 255 255
-0.0837654 0.160091 0.453 255 255 255
0.26697 0.0499084 0.848 255 255 255
-0.00252895 0.161105 0.432 255 255 255
-0.197188 0.105121 0.512 255 255 255
0.20677 -0.114433 0.892 255 255 255
0.11235 -0.0933197 1.009 255 255 255
-0.107125 0.0501398 0.452 255 255 255
-0.00620368 -0.187104 0.681 255 255 255
0.00439369 -0.300465 0.793 0 0 0
-0.170903 0.0813753 0.406 255 255 255
0.300632 0.0979936 0.683 255 255 255
-0.0205373 -0.0079737 0.717 0 0 0
0.171004 0.17703 0.481 255 255 255
0.0417592 0.066491 0.668 255 255 255
-0.164167 -0.0682369 0.362 255 255 255
0.00387287 -0.149961 0.699 0 0 0
-0.127171 0.0680749 0.435 255 255 255
-0.0815465 -0.00849258 0.441 255 255 255
0.306151 0.116946 0.624 255 255 255
0.226844 -0.0215083 0.891 255 255 255
-0.177073 0.101615 0.524 255 255 255
0.163997 0.11456 0.581 255 255 255
-0.156023 -0.0688567 0.375 255 255 255
0.103705 0.0682433 0.697 0 0 0
0.173645 0.0664221 0.714 255 255 255
0.1252 0.167954 0.508 255 255 255
0.325007 -0.139022 0.707 255 255 255
0.34313 0.092423 0.736 255 255 255
0.234976 0.0999326 0.632 255 255 255
0.172183 0.153676 0.51 255 255 255
0.346909 -0.106048 0.68 255 255 255
-0.0514759 0.160667 0.461 255 255 255
0.29596 -0.208596 0.729 255 255 255
-0.0761537 -0.273163 0.785 255 255 255
0.0261308 -0.214605 0.75 255 255 255
-0.0957943 -0.0154204 0.434 0 0 0
-0.0395002 -0.293493 0.768 255 255 255
-0.0841927 -0.275872 0.754 255 255 255
0.123788 0.153338 0.523 0 0 0
0.244249 0.106943 0.619 255 255 255
0.261521 0.142061 0.559 255 255 255
-0.120242 -0.0743752 0.398 255 255 255
-0.0895931 -0.0465496 0.428 0 0 0
-0.145511 -0.0926251 0.37 255 255 255
-0.127298 -0.0916054 0.386 255 255 255
-0.0597999 -0.0102354 0.712 255 255 255
0.113565 0.146409 0.535 0 0 0
-0.124026 -0.020148 0.415 255 255 255
0.303364 -0.0136105 0.772 255 255 255
-0.12431 0.00851328 0.43 255 255 255
0.261072 -0.0615341 0.825 255 255 255
-0.0854284 0.158966 0.454 255 255 255
0.0441981 0.169468 0.473 255 255 255
0.170563 0.163133 0.491 255 255 255
0.149318 0.145689 0.52 0 0 0
0.00649415 0.0833022 0.623 255 255 255
0.264563 -0.0868851 0.811 255 255 255
0.1516 0.135707 0.534 255 255 255
-0.117849 0.102328 0.546 255 255 255
-0.111384 -0.13878 0.381 255 255 255
-0.0138334 -0.268637 0.802 255 255 255
-0.0976412 -0.144487 0.388 255 255 255
-0.153787 -0.0594078 0.377 255 255 255
0.277126 -0.0328556 0.813 255 255 255
-0.112887 -0.12425 0.384 255 255 255
0.341474 -0.139939 0.678 255 255 255
-0.184102 -0.00783183 0.375 255 255 255
0.148216 0.0441407 0.75 255 255 255
0.0576076 -0.106137 0.797 255 255 255
0.329014 -0.152716 0.696 255 255 255
0.0971677 0.100574 0.561 0 0 0
-0.134183 -0.0440448 0.399 255 255 255
-0.183377 0.108665 0.513 255 255 255
0.186902 0.0866168 0.64 255 255 255
0.0101776 -0.0106954 0.744 0 0 0
0.0814661 0.0964735 0.586 255 255 255
0.29071 0.00152386 0.803 255 255 255
0.278107 -0.0367794 0.812 255 255 255
-0.148891 -0.0990951 0.365 0 0 0
0.225364 0.159278 0.512 255 255 255
-0.144871 -0.126324 0.358 255 255 255
0.217664 -0.0405389 0.895 255 255 255
0.0798787 0.0603036 0.697 255 255 255
0.0999097 0.17826 0.478 255 255 255
0.248091 -0.139063 0.831 255 255 255
0.34166 0.103483 0.738 0 0 0
0.269341 -0.181069 0.779 255 255 255
-0.196921 0.0202396 0.375 255 255 255
-0.141983 -0.0877744 0.375 255 255 255
-0.132471 -0.0922788 0.381 255 255 255
-0.140531 -0.109491 0.368 255 255 255
0.317231 -0.190045 0.7 255 255 255
-0.139124 -0.0763021 0.825 255 255 255
-0.130004 0.0602881 0.435 255 255 255
-0.0975551 0.12226 0.514 255 255 255
0.108909 -0.180145 0.964 255 255 255
-0.0267424 0.140386 0.504 255 255 255
0.112191 0.182939 0.474 255 255 255
0.0523167 0.167895 0.484 0 0 0
-0.0728346 0.149455 0.473 255 255 255
0.342442 0.0211962 0.717 255 255 255
-0.139202 -0.00918498 0.408 255 255 255
-0.0871156 0.117019 0.532 255 255 255
-0.118904 -0.0471454 0.409 255 255 255
0.339854 -0.102732 0.695 255 255 255
-0.0968023 -0.0428658 0.426 0 0 0
-0.153157 -0.0185812 0.396 255 255 255
0.00788332 0.141774 0.515 255 255 255
0.000460021 -0.133089 0.7 255 255 255
0.167339 0.070373 0.707 255 255 255
0.27513 -0.274363 0.74 255 255 255
-0.126729 0.128758 0.494 255 255 255
0.230747 0.16063 0.511 255 255 255
0.19902 0.151831 0.515 255 255 255
0.273821 0.0231022 0.827 255 255 255
0.109104 0.182168 0.474 255 255 255
0.305244 -0.10818 0.74 255 255 255
-0.132195 -0.228911 0.741 255 255 255
-0.130389 -0.0948801 0.384 255 255 255
0.263456 0.119879 0.603 255 255 255
-0.0664241 -0.0220978 0.721 0 0 0
0.217041 0.155718 0.514 255 255 255
-0.0405822 0.154399 0.474 255 255 255
0.109603 0.0758178 0.664 255 255 255
0.17391 -0.227808 0.91 255 255 255
0.0986412 0.119319 0.559 255 255 255
-0.0367112 0.148992 0.484 255 255 255
-0.0557084 0.147923 0.478 255 255 255
-0.123073 -0.26663 0.716 255 255 255
0.321565 -0.0357324 0.736 255 255 255
-0.107204 -0.0227618 0.426 255 255 255
0.00620132 -0.127156 0.705 0 0 0
0.35562 0.0837333 0.713 255 255 255
0.0281666 0.124784 0.551 255 255 255
-0.151535 0.0474987 0.422 255 255 255
-0.087209 -0.0176604 0.437 255 255 255
0.132559 -0.173512 0.58 0 0 0
0.337766 0.0878437 0.748 255 255 255
0.113496 0.129158 0.543 0 0 0
0.0426334 -0.0323471 0.834 255 255 255
-0.160543 -0.0152039 0.392 255 255 255
-0.0940203 -0.12428 0.394 0 0 0
0.107096 0.122094 0.551 0 0 0
-0.151747 -0.118333 0.355 255 255 255
0.221376 -0.224728 0.864 255 255 255
-0.113546 -0.0117521 0.429 255 255 255
-0.0789446 0.0450615 0.707 255 255 255
-0.117825 -0.102709 0.39 255 255 255
-0.158184 0.122644 0.416 255 255 255
0.176016 0.125446 0.562 255 255 255
-0.113512 -0.119251 0.384 255 255 255
0.261621 -0.167305 0.798 255 255 255
0.165994 0.140728 0.53 255 255 255
0.237636 0.123493 0.583 255 255 255
-0.0822643 -0.0127985 0.441 255 255 255
0.0117467 0.150149 0.501 255 255 255
0.347125 -0.0601849 0.687 255 255 255
0.139886 -0.254002 0.93 255 255 255
-0.170837 -0.0055346 0.385 255 255 255
-0.0136666 0.00726487 0.724 255 255 255
-0.0660103 -0.285856 0.771 255 255 255
-0.159705 0.0534249 0.42 0 0 0
-0.0457103 0.109433 0.555 0 0 0
-0.060433 -0.0728507 0.68 0 0 0
-0.00982314 -0.112906 0.702 255 255 255
0.138967 -0.294254 0.914 255 255 255
0.258959 0.0902606 0.659 255 255 255
0.113808 0.0882294 0.622 255 255 255
0.197857 -0.0524347 0.925 255 255 255
0.112326 0.172517 0.495 255 255 255
0.0129424 0.122316 0.552 255 255 255
0.0479102 0.133965 0.541 255 255 255
0.287517 -0.193516 0.744 255 255 255
-0.148903 0.147337 0.385 255 255 255
-0.0553485 -0.191783 0.659 0 0 0
0.225458 0.148427 0.536 255 255 255
-0.0985934 0.0323428 0.45 0 0 0
0.305874 -0.217565 0.708 255 255 255
0.297041 0.0285687 0.792 255 255 255
0.229829 0.127902 0.573 255 255 255
-0.0227816 0.106638 0.569 255 255 255
-0.0960492 0.160884 0.445 255 255 255
0.0998764 0.0977863 0.566 0 0 0
0.0350016 0.0835696 0.625 255 255 255
-0.105989 -0.104168 0.398 255 255 255
-0.186848 0.132523 0.395 255 255 255
0.00433688 0.0927098 0.605 255 255 255
0.122608 0.174319 0.491 255 255 255
-0.117336 -0.00103399 0.762 255 255 255
-0.010131 -0.00451698 0.724 255 255 255
-0.159117 -0.0411115 0.378 255 255 255
-0.120495 -0.0638423 0.401 255 255 255
-0.0702361 -0.0210116 0.724 0 0 0
0.0294328 0.12183 0.558 255 255 255
0.314869 -0.156374 0.718 255 255 255
-0.132123 -0.104404 0.38 255 255 255
0.236364 0.158003 0.516 255 255 255
-0.158042 -0.055892 0.374 255 255 255
0.0686628 0.140226 0.538 255 255 255
-0.0545229 0.0540436 0.662 255 255 255
-0.136643 -0.0529756 0.393 255 255 255
-0.116 -0.177038 0.778 255 255 255
-0.215619 0.113713 0.495 255 255 255
-0.154836 0.139008 0.397 255 255 255
-0.011398 0.138422 0.515 255 255 255
0.259326 -0.0604104 0.828 255 255 255
0.0656609 0.15638 0.508 255 255 255
-0.0780133 0.118941 0.529 255 255 255
-0.0377317 -0.120843 0.67 0 0 0
-0.098243 0.144067 0.473 255 255 255
0.303358 -0.184779 0.724 255 255 255
0.247557 -0.0834542 0.843 255 255 255
0.133222 0.0336867 0.762 255 255 255
0.153786 -0.176044 0.561 255 255 255
-0.0647357 -0.26072 0.786 255 255 255
-0.0809585 0.168914 0.434 255 255 255
0.313095 -0.0952284 0.733 255 255 255
-0.159538 0.0732251 0.416 255 255 255
0.107162 0.117774 0.556 255 255 255
0.15196 -0.168741 0.561 0 0 0
-0.117639 0.153904 0.45 255 255 255
0.0110531 -0.261443 0.808 0 0 0
-0.0530005 -0.115392 0.67 0 0 0
0.0584635 -0.281142 0.742 255 255 255
0.168305 0.179006 0.48 255 255 255
0.0774819 -0.275644 0.815 255 255 255
0.27787 -0.152861 0.771 255 255 255
0.340734 0.0636778 0.736 255 255 255
0.322578 0.0856552 0.761 0 0 0
-0.170549 0.0122575 0.393 255 255 255
-0.110333 0.104609 0.544 255 255 255
-0.023031 0.0295685 0.722 255 255 255
-0.179134 -0.00669949 0.38 255 255 255
0.00691111 0.0616776 0.663 255 255 255
0.356272 0.110179 0.719 255 255 255
-0.117772 -0.184706 0.773 255 255 255
-0.150517 0.0634435 0.423 255 255 255
0.22084 -0.106313 0.873 255 255 255
0.0757553 -0.174501 0.942 255 255 255
-0.115098 0.132229 0.489 255 255 255
0.234869 0.0246666 0.883 255 255 255
0.340346 0.0908838 0.743 255 255 255
0.34491 -0.0249782 0.703 255 255 255
-0.0635887 0.132098 0.51 255 255 255
0.166292 -0.260898 0.917 255 255 255
-0.145457 0.118711 0.506 255 255 255
0.0359101 0.129872 0.546 255 255 255
0.175843 -0.207835 0.589 0 0 0
0.317367 -0.0421178 0.743 255 255 255
-0.111033 0.0663157 0.447 255 255 255
0.0854424 0.0717361 0.687 255 255 255
-0.0330965 -0.0217913 0.711 255 255 255
-0.117706 0.0332064 0.442 255 255 255
0.31333 -0.128935 0.728 255 255 255
0.207812 -0.178562 0.872 255 255 255
0.188046 0.1539 0.508 255 255 255
-0.107946 -0.140387 0.382 255 255 255
0.291041 0.0721898 0.776 0 0 0
0.156811 0.180401 0.488 0 0 0
0.0852738 0.149365 0.527 255 255 255
0.221629 0.158754 0.513 255 255 255
0.236574 0.00311614 0.884 255 255 255
-0.162924 0.0644245 0.416 255 255 255
-0.104017 0.0283626 0.445 255 255 255
0.00212073 0.126274 0.542 255 255 255
0.250584 -0.268639 0.772 255 255 255
0.26874 -0.130616 0.796 255 255 255
0.207837 0.179477 0.467 255 255 255
-0.00218074 0.13953 0.516 255 255 255
-0.0608364 0.125862 0.522 255 255 255
-0.136057 0.140259 0.468 255 255 255
-0.15154 -0.105939 0.36 255 255 255
-0.00544679 0.0286295 0.728 255 255 255
0.132974 0.170394 0.503 255 255 255
0.315973 0.0349726 0.763 255 255 255
0.103999 -0.211017 0.934 255 255 255
-0.108336 -0.0240916 0.425 255 255 255
0.0655532 0.120232 0.572 255 255 255
0.154825 0.0863759 0.616 0 0 0
-0.0381724 -0.0463822 0.698 0 0 0
0.176679 -0.205369 0.909 255 255 255
0.143608 0.123663 0.55 255 255 255
-0.0401468 -0.171695 0.656 255 255 255
0.0314662 0.128983 0.546 255 255 255
0.238223 0.129767 0.573 255 255 255
0.0670356 0.138732 0.539 255 255 255
-0.00907611 0.0216987 0.734 255 255 255
0.0457473 -0.235975 0.772 0 0 0
-0.0638929 0.0415511 0.706 255 255 255
-0.177536 -0.11528 0.336 255 255 255
-0.181658 -0.0614848 0.357 255 255 255
-0.090402 -0.23757 0.765 255 255 255
-0.193835 0.120171 0.479 255 255 255
0.0389767 0.146248 0.516 255 255 255
0.184069 0.13899 0.54 255 255 255
0.199794 -0.0253944 0.927 255 255 255
-0.141195 -0.00254548 0.408 255 255 255
-0.0997829 0.144836 0.473 255 255 255
0.0420921 -0.0660133 0.798 255 255 255
-0.0927106 0.133583 0.497 255 255 255
-0.113894 0.119377 0.516 255 255 255
-0.136107 -0.0854921 0.823 255 255 255
-0.0896107 -0.0971771 0.748 255 255 255
-0.182091 -0.0524819 0.359 0 0 0
0.144385 -0.215783 0.582 255 255 255
0.038243 -0.0712969 0.799 255 255 255
0.253097 -0.284971 0.772 255 255 255
-0.0987757 -0.106685 0.782 255 255 255
-0.0790695 0.157324 0.46 255 255 255
0.067703 0.168936 0.487 255 255 255
0.119273 -0.0606601 1.012 255 255 255
0.143102 0.131471 0.538 255 255 255
0.323155 -0.00101499 0.748 255 255 255
0.0135651 -0.260481 0.801 0 0 0
-0.175354 -0.0671059 0.356 255 255 255
0.250599 -0.0354819 0.844 255 255 255
-0.0478904 0.15692 0.47 255 255 255
-0.143699 -0.0149376 0.402 255 255 255
0.340333 0.0489033 0.73 255 255 255
0.268772 -0.236006 0.756 255 255 255
-0.132884 -0.144691 0.788 255 255 255
0.32016 -0.201969 0.694 255 255 255
0.208272 -0.186218 0.868 255 255 255
0.210323 -0.062804 0.901 255 255 255
-0.175935 -0.124378 0.334 0 0 0
0.0030307 0.123879 0.547 255 255 255
-0.101136 0.0803912 0.594 255 255 255
-0.0943269 -0.118417 0.398 0 0 0
0.257915 0.0223615 0.85 255 255 255
-0.0295895 0.170081 0.437 255 255 255
-0.159441 -0.0527076 0.373 255 255 255
-0.114393 -0.106661 0.821 255 255 255
-0.156779 -0.0905308 0.364 255 255 255
-0.101545 0.00146883 0.774 255 255 255
0.0125829 -0.0433269 0.743 0 0 0
0.0840338 0.147628 0.53 255 255 255
0.335007 0.0954015 0.75 255 255 255
0.262197 0.0682466 0.721 255 255 255
0.0119393 -0.152396 0.705 255 255 255
-0.158959 -0.00247062 0.396 255 255 255
-0.175321 -0.119462 0.337 255 255 255
-0.00659539 -0.0598917 0.724 0 0 0
-0.0580227 0.141559 0.491 255 255 255
-0.0988807 -0.0354883 0.429 255 255 255
-0.0267121 0.162918 0.461 0 0 0
0.342484 0.0380547 0.727 255 255 255
-0.0182496 0.164056 0.438 0 0 0
-0.0884056 0.0677669 0.62 255 255 255
0.181619 0.181385 0.468 255 255 255
-0.200813 0.0880452 0.386 255 255 255
-0.0569498 0.15506 0.469 255 255 255
-0.156379 0.13709 0.465 255 255 255
0.187592 0.067584 0.714 255 255 255
-0.197388 0.11086 0.504 255 255 255
0.309436 -0.226324 0.703 255 255 255
0.311979 -0.219977 0.701 255 255 255
0.10274 -0.146455 0.98 255 255 255
0.268534 0.122983 0.599 255 255 255
0.147685 0.176275 0.492 255 255 255
0.105752 0.0107375 0.808 255 255 255
-0.0233177 0.151355 0.484 255 255 255
-0.110517 0.0566471 0.631 255 255 255
-0.00069012 -0.100469 0.711 0 0 0
0.0227079 -0.038034 0.758 0 0 0
-0.121567 -0.27518 0.714 255 255 255
-0.0953343 0.0813578 0.594 255 255 255
0.0746541 0.140839 0.537 255 255 255
0.118611 0.0107109 0.806 0 0 0
-0.0835102 -0.0163496 0.44 255 255 255
0.216329 -0.202686 0.872 255 255 255
-0.0648882 0.168385 0.44 255 255 255
-0.175757 0.0541531 0.405 0 0 0
-0.193396 0.121742 0.476 255 255 255
-0.1356 -0.0608217 0.39 255 255 255
-0.185493 0.0630904 0.399 255 255 255
-0.0411035 0.0770953 0.622 255 255 255
0.326177 -0.191822 0.69 255 255 255
0.299769 0.0721152 0.789 0 0 0
-0.109277 -0.145684 0.378 255 255 255
-0.110671 -0.0220686 0.426 255 255 255
-0.127527 -0.215537 0.749 255 255 255
-0.0900526 -0.110614 0.405 0 0 0
0.058104 0.154422 0.507 255 255 255
-0.112788 0.0379189 0.682 255 255 255
-0.141956 -0.0440335 0.85 255 255 255
0.0854066 -0.15077 0.947 0 0 0
-0.0584767 0.155823 0.469 255 255 255
-0.166741 -0.0533433 0.369 255 255 255
0.344386 -0.103635 0.686 255 255 255
0.109932 0.17703 0.481 255 255 255
-0.0394344 0.167093 0.452 255 255 255
0.302016 -0.158328 0.738 255 255 255
0.00336914 0.169158 0.47 255 255 255
0.142042 0.12674 0.544 255 255 255
0.0400088 0.0803678 0.64 255 255 255
0.329135 0.0135374 0.745 255 255 255
-0.00188127 -0.0704954 0.724 0 0 0
0.26886 -0.170966 0.785 255 255 255
0.0597435 0.160427 0.5 255 255 255
0.0877219 0.128416 0.559 0 0 0
0.128112 0.0679496 0.694 255 255 255
-0.189888 -0.0189085 0.365 255 255 255
-0.167239 -0.0674609 0.361 255 255 255
-0.0683009 0.130753 0.508 255 255 255
-0.108098 -0.266996 0.733 255 255 255
-0.138931 -0.0963178 0.375 255 255 255
0.0800425 0.136193 0.55 0 0 0
-0.00251039 0.0968239 0.594 255 255 255
0.031048 0.116305 0.571 255 255 255
-0.118157 0.0403077 0.441 255 255 255
0.157717 -0.182723 0.937 255 255 255
0.0522112 -0.201126 0.814 255 255 255
-0.128554 -0.122559 0.375 255 255 255
0.14485 -0.175257 0.963 255 255 255
-0.175221 -0.110566 0.34 255 255 255
0.070414 -0.230455 0.81 255 255 255
0.158097 0.166667 0.492 255 255 255
-0.02091 -0.28193 0.774 255 255 255
0.332248 -0.185702 0.684 255 255 255
0.283809 0.0201638 0.817 255 255 255
0.0618084 -0.118401 0.801 255 255 255
0.196902 0.147944 0.525 255 255 255
0.11312 0.0401553 0.744 255 255 255
-0.177861 -0.0145833 0.376 255 255 255
-0.0846757 0.013303 0.45 255 255 255
-0.200989 0.128941 0.39 255 255 255
-0.119784 -0.0635049 0.403 255 255 255
-0.15966 0.135188 0.401 255 255 255
0.122224 0.141858 0.531 255 255 255
-0.130927 0.0179692 0.422 255 255 255
-0.0890117 -0.113455 0.743 255 255 255
0.272354 -0.0999021 0.799 255 255 255
-0.14414 0.146954 0.384 255 255 255
0.0854822 0.1751 0.48 255 255 255
0.235052 0.146899 0.54 255 255 255
-0.163928 0.138599 0.394 255 255 255
-0.0314 -0.0623737 0.699 0 0 0
0.112713 -0.228315 0.6 0 0 0
0.0560226 -0.260067 0.758 0 0 0
0.209943 -0.0849232 0.887 255 255 255
-0.0880811 0.00446529 0.445 255 255 255
-0.144118 -0.0492712 0.389 255 255 255
-0.106488 0.0861956 0.581 255 255 255
0.158575 0.168726 0.491 255 255 255
-0.150063 0.145328 0.388 255 255 255
0.028918 0.160547 0.488 255 255 255
-0.107734 0.137893 0.481 255 255 255
0.312916 -0.241753 0.698 255 255 255
-0.116217 -0.102973 0.391 255 255 255
-0.0240655 -0.254649 0.795 255 255 255
-0.130947 0.00617076 0.734 255 255 255
-0.197029 0.112646 0.501 255 255 255
-0.104918 0.067793 0.452 255 255 255
0.21874 0.0523578 0.843 255 255 255
-0.154054 0.0331239 0.414 255 255 255
-0.0852285 -0.149923 0.389 0 0 0
0.229616 -0.118449 0.858 255 255 255
0.230788 -0.0608522 0.873 255 255 255
-0.189222 0.106996 0.513 255 255 255
-0.128402 0.00141759 0.747 255 255 255
0.284106 -0.277442 0.726 255 255 255
-0.154986 -0.123928 0.348 255 255 255
-0.072293 0.131321 0.507 255 255 255
-0.147917 -0.0347115 0.389 255 255 255
0.135685 0.0395204 0.755 255 255 255
-0.160642 0.132139 0.48 255 255 255
-0.0661447 0.126339 0.517 255 255 255
0.340538 0.0562613 0.733 255 255 255
-0.101615 0.0160158 0.444 255 255 255
0.0536865 -0.041998 0.837 0 0 0
0.0468781 0.172614 0.469 255 255 255
0.264553 0.0628066 0.836 0 0 0
0.169485 0.108 0.597 255 255 255
-0.0584767 0.15506 0.469 255 255 255
0.316365 0.0741377 0.77 255 255 255
0.309732 -0.0604166 0.745 255 255 255
0.236862 0.174916 0.486 255 255 255
-0.0702917 -0.16114 0.679 0 0 0
-0.103957 -0.133753 0.388 255 255 255
-0.0604723 0.0579039 0.645 255 255 255
0.176534 0.129303 0.555 255 255 255
-0.0905264 -0.143327 0.39 0 0 0
-0.13838 -0.19392 0.755 255 255 255
0.269158 -0.0810023 0.805 255 255 255
0.234641 0.0737025 0.695 255 255 255
-0.171994 -0.0135728 0.382 255 255 255
0.172297 0.129737 0.553 255 255 255
0.260971 -0.150245 0.804 255 255 255
0.243358 0.140646 0.557 255 255 255
-0.0280411 -0.163002 0.673 0 0 0
-0.0549152 0.0166904 0.724 255 255 255
0.06258 -0.129118 0.811 255 255 255
0.355101 0.0937984 0.719 255 255 255
-0.115663 0.162259 0.437 255 255 255
-0.142504 -0.0829404 0.378 255 255 255
0.0999124 0.00286938 0.814 0 0 0
0.0176272 -0.181708 0.703 0 0 0
0.055049 -0.0351876 0.837 255 255 255
0.136083 0.0800119 0.672 0 0 0
0.230151 -0.159311 0.86 255 255 255
0.353931 0.113689 0.719 255 255 255
0.134679 -0.215412 0.581 255 255 255
0.161152 0.163325 0.494 0 0 0
0.304907 0.0605596 0.789 255 255 255
-0.136476 -0.123935 0.37 255 255 255
-0.10953 -0.238111 0.751 255 255 255
-0.0591597 0.0628081 0.631 255 255 255
0.236054 -0.113328 0.851 255 255 255
-0.196222 0.142669 0.376 255 255 255
-0.171956 0.103321 0.524 255 255 255
0.122403 -0.209331 0.947 255 255 255
-0.101588 -0.112667 0.396 255 255 255
0.302807 -0.143722 0.737 255 255 255
0.0423266 -0.0415464 0.828 0 0 0
0.120761 0.0775091 0.66 255 255 255
-0.0841352 0.0334426 0.455 255 255 255
-0.148012 0.13697 0.438 255 255 255
-0.0893899 -0.0147705 0.767 0 0 0
-0.170356 -0.103808 0.347 255 255 255
0.318512 -0.247246 0.688 255 255 255
0.0885999 0.168611 0.493 255 255 255
0.0167713 0.102278 0.592 255 255 255
-0.141683 -0.136823 0.787 255 255 255
-0.0825178 -0.0851845 0.739 255 255 255
0.277158 0.114444 0.616 255 255 255
-0.0136666 -0.049288 0.724 0 0 0
-0.0803474 -0.140593 0.393 0 0 0
0.166775 0.0848573 0.627 0 0 0
0.0653504 0.0167334 0.781 0 0 0
0.273606 0.0985329 0.643 255 255 255
0.0368036 -0.117662 0.796 255 255 255
-0.0794157 -0.200584 0.701 0 0 0
0.152108 0.163351 0.504 255 255 255
-0.162026 -0.0978103 0.356 0 0 0
0.0206808 0.0370238 0.73 255 255 255
-0.142266 0.0176711 0.415 255 255 255
0.119993 0.0732184 0.68 255 255 255
0.148546 -0.157136 0.977 255 255 255
0.333008 -0.181562 0.681 255 255 255
0.271289 0.0508045 0.84 255 255 255
0.123877 0.148508 0.527 255 255 255
0.109114 -0.322488 0.866 255 255 255
-0.0493314 0.161767 0.462 255 255 255
0.279697 -0.0540535 0.794 255 255 255
0.114129 -0.316208 0.872 255 255 255
-0.172565 0.119915 0.494 255 255 255
0.221243 -0.118554 0.869 255 255 255
-0.0339669 0.0501271 0.682 255 255 255
-0.0769699 -0.0772304 0.732 255 255 255
0.0149804 -0.293951 0.807 0 0 0
-0.187017 0.0725585 0.394 255 255 255
-0.138952 0.0556543 0.432 255 255 255
-0.0953267 -0.105341 0.405 0 0 0
0.223519 0.182147 0.468 255 255 255
-0.0646169 -0.0311786 0.714 0 0 0
0.299804 -0.260929 0.71 255 255 255
0.00724041 0.165619 0.473 255 255 255
0.196064 0.145588 0.532 255 255 255
0.0877461 0.0967917 0.571 255 255 255
0.0528445 0.0420808 0.715 255 255 255
0.331312 -0.154543 0.689 255 255 255
-0.189277 0.137846 0.383 255 255 255
-0.178825 0.0571647 0.403 0 0 0
-0.129874 -0.0199053 0.41 255 255 255
0.246618 0.132564 0.573 255 255 255
0.110536 -0.197834 0.951 255 255 255
0.0950014 0.122958 0.559 255 255 255
-0.0616003 0.170792 0.437 255 255 255
0.280539 -0.21525 0.748 255 255 255
-0.0900487 -0.0901812 0.411 0 0 0
0.229017 -0.142682 0.861 255 255 255
0.164567 0.154422 0.507 255 255 255
0.21481 0.15108 0.527 255 255 255
0.294241 -0.247856 0.719 255 255 255
0.173997 0.0919815 0.62 0 0 0
0.205069 0.127935 0.569 255 255 255
-0.139326 -0.0573528 0.388 255 255 255
0.266982 -0.172683 0.787 255 255 255
0.046204 0.163844 0.486 255 255 255
0.342578 -0.135526 0.678 255 255 255
0.222283 -0.0143386 0.896 255 255 255
0.0598084 0.0595249 0.688 255 255 255
-0.0755283 0.0700099 0.622 255 255 255
0.339041 0.120295 0.671 255 255 255
0.152018 0.16564 0.501 255 255 255
-0.0421623 0.138195 0.502 255 255 255
0.091246 -0.205131 0.928 255 255 255
-0.0756324 0.144155 0.481 255 255 255
-0.152752 -0.0584895 0.379 255 255 255
0.275505 -0.20413 0.761 255 255 255
0.319259 0.0434352 0.759 255 255 255
0.289671 -0.0243045 0.793 255 255 255
0.290042 -0.0471734 0.787 255 255 255
0.115504 0.175636 0.488 255 255 255
-0.0236363 -0.0801181 0.705 255 255 255
-0.029899 0.133652 0.516 255 255 255
-0.0519047 0.0362631 0.715 255 255 255
-0.0278474 0.0214327 0.725 255 255 255
-0.0834608 0.166854 0.436 255 255 255
-0.143657 -0.134509 0.355 255 255 255
0.355181 0.0103519 0.694 255 255 255
0.103366 0.179063 0.476 255 255 255
-0.147266 -0.0573864 0.384 255 255 255
