ply
format ascii 1.0
comment Created by Open3D
element vertex 1304
property double x
property double y
property double z
property uchar red
property uchar green
property uchar blue
end_header
0.0282253 0.154329 0.504 255 255 255
0.347874 -0.0154757 0.741 255 255 255
-0.137109 -0.00263283 0.422 255 255 255
0.0956164 0.0255644 0.779 0 0 0
-0.158465 0.0449638 0.424 255 255 255
-0.0713119 -0.0943868 0.427 0 0 0
0.211952 -0.127122 0.86 255 255 255
0.0621682 0.0595938 0.702 255 255 255
0.0519158 0.146212 0.528 255 255 255
0.304861 -0.266652 0.742 255 255 255
0.290953 -0.206998 0.786 255 255 255
-0.126596 0.156136 0.448 255 255 255
-0.0939465 -0.0540147 0.432 255 255 255
0.128872 -0.257709 0.927 255 255 255
0.33334 -0.187137 0.715 255 255 255
-0.104858 -0.146125 0.389 255 255 255
0.0430214 -0.125036 0.726 0 0 0
-0.149494 0.113131 0.526 255 255 255
0.00173728 0.163413 0.444 255 255 255
0.0210003 -0.188035 0.701 255 255 255
-0.150852 -0.0800882 0.382 255 255 255
-0.188087 0.06684 0.406 255 255 255
0.0353828 0.122655 0.566 255 255 255
0.183657 -0.167073 0.961 255 255 255
0.280876 -0.208961 0.824 255 255 255
-0.108902 -0.109683 0.404 255 255 255
0.319987 -0.133186 0.752 255 255 255
0.151328 0.148508 0.527 0 0 0
0.0964852 -0.282756 0.756 255 255 255
-0.10519 -0.138094 0.395 255 255 255
0.213358 0.120582 0.592 255 255 255
-0.0131758 -0.109991 0.698 255 255 255
-0.128896 -0.133899 0.376 255 255 255
0.0247372 0.0498743 0.71 255 255 255
0.224044 0.162486 0.509 255 255 255
-0.0902212 0.0207557 0.743 255 255 255
-0.0516775 0.0566226 0.667 0 0 0
-0.0973442 0.0148004 0.451 255 255 255
0.218623 0.137091 0.561 255 255 255
-0.0815182 0.170792 0.437 255 255 255
0.166527 -0.123283 0.999 255 255 255
0.0137903 0.0613153 0.683 255 255 255
-0.175952 -0.0859097 0.362 255 255 255
-0.122025 0.111127 0.537 255 255 255
0.323465 -0.053603 0.769 255 255 255
-0.102705 0.090923 0.581 255 255 255
-0.140679 -0.0798615 0.39 255 255 255
-0.0810131 -0.0262411 0.45 0 0 0
0.135558 -0.21589 0.942 255 255 255
-0.112464 -0.0435535 0.868 255 255 255
0.0709752 0.111323 0.594 255 255 255
0.091957 -0.17342 0.92 255 255 255
0.322583 0.0536597 0.801 255 255 255
-0.19241 0.121839 0.411 255 255 255
-0.0533741 0.154924 0.478 255 255 255
0.0231164 -0.191225 0.696 255 255 255
0.366475 0.0679105 0.73 255 255 255
-0.174038 -0.0483648 0.377 255 255 255
-0.134545 -0.0405886 0.41 255 255 255
-0.22539 0.119834 0.497 255 255 255
0.234317 0.101121 0.633 255 255 255
0.20152 -0.227783 0.928 255 255 255
0.029248 -0.293435 0.802 0 0 0
-0.099895 -0.0136694 0.446 255 255 255
-0.183268 -0.107246 0.349 0 0 0
-0.180197 -0.0992839 0.353 255 255 255
-0.130268 -0.062502 0.405 0 0 0
-0.0930937 0.158476 0.459 255 255 255
0.208139 0.0846056 0.701 255 255 255
0.164329 0.152372 0.514 255 255 255
0.153659 -0.0635793 0.784 0 0 0
0.183086 0.0899316 0.634 0 0 0
-0.133402 -0.0851565 0.391 255 255 255
-0.173425 -0.0989424 0.358 255 255 255
0.0562526 0.0452774 0.729 255 255 255
-0.169396 -0.0325594 0.386 255 255 255
0.0616152 -0.00487884 0.782 255 255 255
-0.0757545 -0.106287 0.808 255 255 255
-0.160892 0.130767 0.416 255 255 255
0.0928534 0.166301 0.503 255 255 255
0.25905 -0.121948 0.863 255 255 255
-0.13411 0.0943515 0.562 255 255 255
0.112816 0.0448773 0.742 255 255 255
-0.0233658 0.155614 0.485 255 255 255
-0.0695412 0.070107 0.632 255 255 255
0.0701461 -0.262125 0.764 255 255 255
0.373093 0.111711 0.729 0 0 0
-0.119304 0.0387604 0.448 255 255 255
0.278394 0.075982 0.862 0 0 0
-0.11786 -0.0726145 0.41 255 255 255
0.155058 0.186395 0.485 255 255 255
0.149827 -0.23222 0.6 255 255 255
-0.127917 0.155496 0.44 255 255 255
-0.0416156 -0.16359 0.68 0 0 0
0.217665 0.0170626 0.939 255 255 255
0.0482986 -0.0929252 0.753 255 255 255
-0.155679 -0.0469794 0.391 255 255 255
0.146028 -0.260537 0.921 255 255 255
0.311476 -0.25472 0.732 255 255 255
0.351962 -0.0847451 0.715 255 255 255
-0.113016 -0.0381024 0.427 255 255 255
0.0797627 -0.225742 0.798 255 255 255
-0.065704 0.112345 0.556 255 255 255
0.134878 -0.245034 0.948 255 255 255
0.0684762 0.118342 0.581 255 255 255
0.251518 0.142459 0.557 255 255 255
0.119551 -0.283332 0.85 255 255 255
-0.173798 0.122213 0.484 255 255 255
-0.0362791 0.0893586 0.609 255 255 255
0.170287 -0.180429 0.974 255 255 255
-0.00290343 -0.158567 0.687 0 0 0
0.09448 0.156991 0.521 255 255 255
0.195267 -0.2562 0.927 255 255 255
0.0261219 0.152315 0.511 255 255 255
-0.073323 -0.129642 0.411 0 0 0
0.215483 -0.223302 0.892 255 255 255
0.219797 0.125906 0.581 255 255 255
-0.157754 -0.0369871 0.393 255 255 255
-0.122172 -0.0199419 0.425 255 255 255
-0.109356 -0.0438658 0.429 255 255 255
-0.0201831 0.095189 0.602 255 255 255
0.104778 -0.172784 0.941 255 255 255
0.271003 -0.09821 0.852 255 255 255
-0.121821 0.14876 0.466 255 255 255
0.308519 -0.231359 0.745 255 255 255
-0.191339 0.133215 0.399 255 255 255
0.065141 0.154944 0.517 255 255 255
-0.062561 0.168176 0.449 255 255 255
-0.0867413 0.0652026 0.465 0 0 0
-0.174875 -0.0131207 0.387 255 255 255
0.0208206 -0.193212 0.695 255 255 255
0.19912 0.138335 0.555 255 255 255
-0.172169 -0.0270454 0.388 255 255 255
-0.110542 0.0432575 0.457 255 255 255
-0.128666 0.127447 0.508 255 255 255
0.0319775 0.119093 0.571 255 255 255
0.0777125 0.133874 0.559 255 255 255
0.277231 -0.25849 0.787 255 255 255
-0.0739128 -0.0894519 0.43 0 0 0
0.118195 0.178871 0.486 255 255 255
-0.163237 -0.0153978 0.397 255 255 255
0.0745123 0.158445 0.512 255 255 255
0.127628 0.0524672 0.73 255 255 255
-0.0759219 -0.149575 0.407 0 0 0
-0.0394454 -0.244666 0.792 255 255 255
-0.0734258 -0.0192392 0.797 0 0 0
0.165426 0.187199 0.483 255 255 255
0.334201 -0.125209 0.727 255 255 255
-0.182799 0.043055 0.406 255 255 255
-0.172504 -0.0578722 0.375 255 255 255
-0.053314 0.135069 0.515 255 255 255
-0.141314 -0.0817655 0.39 255 255 255
-0.18489 -0.097579 0.351 255 255 255
0.166106 0.181079 0.492 0 0 0
-0.0906121 -0.0893724 0.423 255 255 255
-0.103329 0.165859 0.439 255 255 255
-0.11238 -0.0500174 0.422 255 255 255
-0.100306 -0.148785 0.391 255 255 255
0.0742262 0.178704 0.473 255 255 255
-0.193574 0.145888 0.378 255 255 255
0.343238 -0.14403 0.709 255 255 255
0.0372922 -0.263701 0.836 0 0 0
0.266189 0.0188974 0.882 255 255 255
0.346505 -0.191499 0.697 255 255 255
-0.146322 0.0593063 0.433 255 255 255
-0.0679358 0.123712 0.531 255 255 255
-0.132129 -0.0915194 0.391 255 255 255
0.00405017 0.00376638 0.731 255 255 255
0.299461 -0.11622 0.795 255 255 255
0.147454 -0.123653 1.002 255 255 255
0.28598 -0.025837 0.843 255 255 255
-0.140746 -0.142639 0.367 255 255 255
-0.170104 0.00663401 0.401 255 255 255
-0.127982 -0.0976319 0.39 255 255 255
-0.121675 0.040039 0.446 255 255 255
0.343748 0.0536676 0.764 255 255 255
-0.155745 0.0805313 0.426 255 255 255
0.120723 -0.260455 0.9 255 255 255
0.0245416 0.117234 0.571 255 255 255
0.138075 0.178677 0.492 255 255 255
-0.0219008 0.122098 0.547 0 0 0
0.112124 0.184097 0.477 255 255 255
-0.0333998 0.172212 0.45 255 255 255
0.130934 -0.0821503 1.013 255 255 255
-0.104435 0.117884 0.532 255 255 255
0.0417621 0.155032 0.509 255 255 255
0.317072 0.111961 0.642 255 255 255
0.0607168 -0.125116 0.755 255 255 255
0.120509 -0.0580219 0.995 0 0 0
-0.00746868 0.166411 0.433 255 255 255
0.339366 0.0100598 0.757 255 255 255
-0.115805 0.129415 0.506 255 255 255
0.0890165 0.17826 0.478 255 255 255
0.168334 -0.293191 0.92 255 255 255
-0.214872 0.122261 0.497 255 255 255
-0.146626 0.0724884 0.436 255 255 255
0.131625 0.165882 0.517 255 255 255
-0.0945014 -0.109978 0.41 255 255 255
-0.0603549 -0.246989 0.779 255 255 255
-0.0117464 -0.141667 0.681 255 255 255
-0.105462 -0.0211676 0.436 255 255 255
-0.18716 0.0408706 0.404 255 255 255
-0.189133 0.0481024 0.404 255 255 255
0.346382 -0.133081 0.706 255 255 255
-0.112877 0.0918554 0.575 255 255 255
-0.0842241 -0.105028 0.84 255 255 255
0.366153 0.0581669 0.727 255 255 255
-0.119637 -0.0972007 0.396 255 255 255
-0.0806163 -0.126892 0.831 255 255 255
-0.18445 -0.0594613 0.366 0 0 0
0.0984386 0.148981 0.538 255 255 255
0.0579829 0.072904 0.667 255 255 255
0.12894 0.0982129 0.585 0 0 0
0.123605 0.153947 0.537 255 255 255
-0.163958 -0.0780104 0.375 255 255 255
0.00117219 0.147067 0.513 255 255 255
-0.154324 0.127072 0.424 255 255 255
-0.0389962 -0.180525 0.673 0 0 0
-0.155439 -0.04391 0.392 0 0 0
-0.0740306 -0.0534611 0.439 0 0 0
0.117102 0.0845338 0.64 0 0 0
0.250371 -0.143677 0.867 255 255 255
-0.0982141 -0.141734 0.398 255 255 255
-0.0719474 -0.0127223 0.795 0 0 0
-0.0233819 0.030019 0.733 0 0 0
-0.0150163 0.0793632 0.632 255 255 255
-0.177324 -0.0912934 0.36 255 255 255
0.166279 0.133915 0.548 255 255 255
-0.165667 -0.0982313 0.364 0 0 0
-0.0706469 -0.123623 0.411 0 0 0
-0.0250652 -0.0450583 0.713 0 0 0
-0.206138 0.135737 0.395 255 255 255
0.220495 -0.0974726 0.883 255 255 255
0.152801 -0.181379 0.578 0 0 0
0.143075 0.056031 0.73 255 255 255
0.348138 -0.00340797 0.739 255 255 255
-0.139456 0.0492996 0.438 0 0 0
0.0509404 -0.170338 0.738 255 255 255
0.306014 -0.053293 0.802 255 255 255
0.154664 0.171749 0.507 0 0 0
0.0917153 0.160211 0.515 255 255 255
-0.165234 0.03523 0.415 255 255 255
0.29529 -0.0790639 0.812 255 255 255
0.136987 -0.0851099 1.009 255 255 255
-0.111551 0.0943333 0.573 255 255 255
0.349321 -0.068139 0.724 255 255 255
0.354394 0.0121927 0.737 255 255 255
-0.0937637 0.160797 0.455 255 255 255
-0.17795 0.0789265 0.407 255 255 255
-0.135079 0.132584 0.44 255 255 255
-0.14953 -0.0191912 0.409 255 255 255
0.0144146 0.161145 0.434 255 255 255
-0.17318 -0.133171 0.347 255 255 255
0.158664 -0.168326 0.572 255 255 255
-0.0895411 -0.102601 0.418 255 255 255
-0.193287 0.133865 0.399 255 255 255
0.186203 -0.177465 0.958 255 255 255
0.0719311 0.107924 0.602 255 255 255
-0.151255 0.0776078 0.429 255 255 255
0.357176 -0.0152042 0.728 255 255 255
-0.122358 -0.00129219 0.433 255 255 255
0.100376 0.177347 0.484 255 255 255
-0.111784 0.0520676 0.456 255 255 255
-0.132096 0.060539 0.442 255 255 255
0.265765 -0.068502 0.862 255 255 255
-0.132667 -0.105068 0.387 0 0 0
0.123349 -0.272352 0.877 255 255 255
0.151793 0.0909726 0.62 255 255 255
0.083715 -0.287998 0.741 255 255 255
0.247418 0.117711 0.607 255 255 255
-0.12193 0.116359 0.529 255 255 255
-0.073323 -0.12496 0.411 0 0 0
0.0556561 -0.0862518 0.77 255 255 255
-0.0857059 -0.0675277 0.433 255 255 255
-0.0428209 -0.273741 0.783 255 255 255
0.264669 -0.204807 0.863 255 255 255
0.183101 -0.230092 0.95 255 255 255
0.190504 0.112823 0.602 255 255 255
0.318875 -0.111689 0.764 255 255 255
0.239359 -0.125622 0.889 255 255 255
0.13203 -0.221465 0.608 0 0 0
0.140992 -0.0634955 0.799 255 255 255
-0.180755 -0.0792103 0.361 255 255 255
0.331938 -0.189994 0.717 255 255 255
-0.0618415 -0.266551 0.766 255 255 255
0.0953097 -0.202609 0.82 255 255 255
0.322543 -0.173442 0.741 255 255 255
0.124089 -0.0228468 0.834 0 0 0
-0.137546 0.127361 0.432 255 255 255
-0.0181268 -0.0358262 0.714 255 255 255
0.152154 -0.00108963 0.803 255 255 255
0.0489636 0.14681 0.524 255 255 255
-0.15683 0.150232 0.386 255 255 255
-0.0292665 -0.157128 0.676 0 0 0
-0.162809 -0.0675621 0.378 0 0 0
-0.147299 -0.134957 0.364 255 255 255
0.313801 -0.0371623 0.792 255 255 255
0.180559 0.0846561 0.683 255 255 255
0.177511 0.154809 0.511 255 255 255
-0.0352174 -0.0152669 0.731 255 255 255
0.106721 0.0922782 0.622 0 0 0
0.259323 0.0367763 0.898 255 255 255
-0.142836 -0.0336684 0.407 255 255 255
0.178547 0.142659 0.534 255 255 255
0.280271 0.12743 0.597 255 255 255
-0.160737 -0.129457 0.357 0 0 0
0.202389 -0.219665 0.932 255 255 255
-0.228512 0.120157 0.495 255 255 255
0.248687 0.130408 0.58 255 255 255
-0.175979 0.0183801 0.401 255 255 255
-0.176319 -0.116428 0.351 255 255 255
-0.172503 0.0117954 0.399 255 255 255
-0.232912 0.115907 0.501 255 255 255
-0.098443 -0.0158468 0.446 255 255 255
0.294264 0.0654727 0.802 0 0 0
0.3331 -0.214159 0.712 255 255 255
-0.153436 -0.0104871 0.407 255 255 255
-0.177058 0.0817762 0.408 255 255 255
-0.0343648 -0.228856 0.765 255 255 255
-0.130513 0.124284 0.512 255 255 255
-0.0270256 -0.156895 0.675 0 0 0
-0.0529573 0.0851139 0.607 255 255 255
0.31123 0.118977 0.624 255 255 255
0.309268 0.0253884 0.814 255 255 255
-0.0233011 -0.0812436 0.695 0 0 0
0.15454 -0.0672348 0.782 0 0 0
-0.116217 -0.12397 0.391 255 255 255
-0.175363 -0.0574092 0.372 255 255 255
-0.0254133 0.10428 0.587 255 255 255
-0.00994908 -0.0669155 0.711 0 0 0
0.0548972 0.0077967 0.777 0 0 0
-0.114253 -0.117569 0.393 255 255 255
-0.0977472 0.123786 0.524 255 255 255
-0.184954 -0.0566376 0.367 255 255 255
0.132822 0.0759645 0.695 255 255 255
-0.0366107 0.129886 0.528 255 255 255
-0.193497 0.110148 0.52 255 255 255
0.148781 -0.0603615 0.792 255 255 255
0.332612 0.0151853 0.767 255 255 255
-0.152639 0.00480461 0.412 255 255 255
-0.163533 -0.0354354 0.39 255 255 255
-0.13851 -0.133208 0.369 255 255 255
0.314717 -0.220777 0.734 255 255 255
0.0233299 0.145678 0.523 255 255 255
-0.119747 -0.128701 0.388 255 255 255
0.193649 0.122334 0.582 255 255 255
0.32708 -0.266331 0.709 255 255 255
0.0742327 0.176704 0.478 255 255 255
-0.0837844 -0.0514397 0.434 255 255 255
0.245106 0.13983 0.561 255 255 255
-0.173859 -0.0409249 0.382 255 255 255
-0.0670036 -0.258499 0.768 255 255 255
0.164509 0.0986007 0.611 0 0 0
0.265883 0.0740415 0.769 255 255 255
0.0545245 0.069693 0.678 255 255 255
0.0357503 0.155765 0.506 255 255 255
-0.169129 -0.0575673 0.377 255 255 255
-0.175257 0.130216 0.41 255 255 255
0.32177 -0.26453 0.723 255 255 255
0.16214 -0.230418 0.945 255 255 255
-0.117704 -0.0997784 0.396 255 255 255
0.136303 -0.219387 0.605 0 0 0
-0.140411 0.074755 0.441 255 255 255
-0.109812 0.0189485 0.445 255 255 255
0.217076 0.169295 0.495 255 255 255
-0.00538693 -0.0349556 0.72 0 0 0
-0.117527 0.00366546 0.436 255 255 255
-0.17385 0.0397648 0.413 255 255 255
0.0406723 -0.0703978 0.748 255 255 255
-0.00697935 0.0710459 0.65 255 255 255
-0.174013 -0.0599915 0.373 255 255 255
0.12588 -0.26629 0.895 255 255 255
-0.133752 0.0364697 0.438 255 255 255
-0.0149613 -0.149427 0.676 255 255 255
0.363284 0.0950761 0.738 255 255 255
-0.175867 0.0538786 0.413 0 0 0
0.325159 -0.163888 0.736 255 255 255
0.177922 0.145935 0.527 255 255 255
-0.133933 -0.00195993 0.425 255 255 255
0.0514316 -0.0443285 0.782 255 255 255
-0.145617 0.0487368 0.433 0 0 0
0.0170246 0.134347 0.539 255 255 255
0.0165992 0.070203 0.662 255 255 255
0.205257 -0.173512 0.58 0 0 0
0.28466 -0.297629 0.769 255 255 255
0.071918 0.180623 0.468 255 255 255
0.243114 -0.00570238 0.914 255 255 255
0.183609 -0.162157 0.969 255 255 255
0.0372702 0.168335 0.483 255 255 255
-0.151605 -0.043178 0.397 255 255 255
-0.142441 -0.0413095 0.404 255 255 255
-0.144541 0.0502619 0.434 0 0 0
0.209522 0.16597 0.502 255 255 255
0.178258 -0.0886426 0.769 255 255 255
0.0474399 0.160918 0.499 255 255 255
0.330826 -0.155424 0.73 255 255 255
0.187056 0.179038 0.478 255 255 255
0.313011 -0.117731 0.771 255 255 255
0.280548 -0.0109635 0.86 255 255 255
0.132034 -0.171765 0.961 255 255 255
0.268388 0.127423 0.588 255 255 255
-0.0192197 -0.195275 0.671 255 255 255
-0.129633 -0.0800028 0.397 255 255 255
-0.185818 -0.0286565 0.376 255 255 255
-0.113445 -0.0373199 0.426 255 255 255
0.126788 0.174373 0.498 255 255 255
-0.0833499 -0.0602756 0.845 255 255 255
-0.0668665 0.0345266 0.781 255 255 255
0.16119 0.155112 0.512 0 0 0
0.00598141 -0.184616 0.68 255 255 255
-0.183912 0.130588 0.407 255 255 255
-0.0712843 -0.149575 0.407 0 0 0
0.333288 -0.0381344 0.76 255 255 255
0.318009 -0.0955167 0.774 255 255 255
0.0992607 0.0582887 0.714 255 255 255
-0.0931455 0.0140977 0.452 255 255 255
-0.0393208 -0.0454375 0.719 0 0 0
0.280717 -0.258162 0.786 255 255 255
-0.160994 -0.0405127 0.39 255 255 255
-0.206015 0.0574606 0.396 0 0 0
0.326967 -0.162997 0.732 255 255 255
0.31763 -0.112127 0.767 255 255 255
-0.182372 0.0638495 0.408 255 255 255
-0.15881 -0.136434 0.354 255 255 255
-0.0881339 -0.162511 0.813 255 255 255
-0.167547 -0.0347115 0.389 255 255 255
-0.0928894 -0.262881 0.745 255 255 255
-0.0447179 0.0813638 0.616 255 255 255
0.0687771 0.16963 0.489 255 255 255
-0.00979329 -0.242089 0.792 255 255 255
-0.179495 0.0780718 0.406 255 255 255
-0.107284 -0.11777 0.398 255 255 255
0.0419768 0.172911 0.474 255 255 255
0.290777 -0.0161956 0.841 255 255 255
-0.0997474 -0.0869556 0.418 255 255 255
0.0532873 -0.00104756 0.772 0 0 0
0.12995 0.103214 0.581 0 0 0
0.20033 0.0726363 0.718 255 255 255
-0.187469 -0.0789135 0.357 255 255 255
0.33379 -0.212701 0.711 255 255 255
0.00335481 0.16463 0.468 255 255 255
-0.081865 -0.274635 0.744 255 255 255
0.293036 0.108827 0.642 255 255 255
-0.129475 -0.113923 0.385 255 255 255
0.155527 0.123139 0.564 255 255 255
-0.20405 0.0739148 0.391 255 255 255
-0.0948819 -0.178935 0.792 255 255 255
-0.191468 0.0877696 0.402 255 255 255
0.150142 0.139444 0.535 255 255 255
0.26224 0.0336652 0.893 255 255 255
-0.164962 -0.0466415 0.383 255 255 255
-0.045716 0.130608 0.524 255 255 255
-0.178594 0.0654969 0.41 255 255 255
-0.120097 -0.0227084 0.425 255 255 255
0.235259 -0.0209364 0.93 255 255 255
-0.163985 -0.00577898 0.402 255 255 255
-0.0173922 0.0395077 0.732 255 255 255
-0.188521 0.14258 0.384 255 255 255
-0.0205844 -0.135926 0.68 0 0 0
0.0789057 -0.192602 0.891 255 255 255
-0.0967736 -0.019432 0.445 255 255 255
0.0453788 0.176698 0.454 0 0 0
0.304543 -0.133475 0.775 255 255 255
-0.0574465 0.12184 0.538 255 255 255
-0.163985 -0.00643317 0.402 255 255 255
-0.141833 -0.118263 0.373 255 255 255
0.269617 -0.127326 0.852 255 255 255
-0.0554956 -0.241577 0.782 255 255 255
-0.116876 -0.0594608 0.416 255 255 255
-0.0213404 -0.169654 0.669 255 255 255
0.196266 -0.173945 0.939 255 255 255
0.184698 0.175045 0.482 0 0 0
0.153836 0.134068 0.545 255 255 255
0.0263399 0.0174281 0.756 255 255 255
0.0113297 0.0655019 0.669 255 255 255
0.239534 0.129185 0.583 255 255 255
0.031207 0.0776306 0.652 255 255 255
-0.149818 -0.0550339 0.394 255 255 255
0.190964 0.174319 0.48 255 255 255
0.311356 0.0586482 0.816 255 255 255
-0.0476859 0.0150269 0.759 255 255 255
-0.0924727 0.148541 0.475 255 255 255
0.163151 -0.155042 0.578 0 0 0
0.107526 -0.27431 0.792 255 255 255
-0.0564215 0.104408 0.572 255 255 255
-0.18157 -0.0664265 0.365 255 255 255
-0.191945 0.0538857 0.403 255 255 255
0.0270234 -0.00221135 0.741 255 255 255
-0.078379 -0.15185 0.406 0 0 0
0.0117875 0.08284 0.635 255 255 255
-0.101533 0.0270729 0.46 255 255 255
0.232035 0.109432 0.616 255 255 255
-0.156453 -0.0739084 0.379 255 255 255
-0.173962 -0.0863843 0.364 255 255 255
-0.102801 -0.0607472 0.425 255 255 255
0.0296496 -0.142155 0.717 255 255 255
0.218018 0.166603 0.499 255 255 255
0.255506 0.00756633 0.9 255 255 255
-0.0278036 0.134019 0.524 255 255 255
0.148546 -0.168265 0.977 255 255 255
0.169195 -0.0293921 0.791 255 255 255
-0.0416738 -0.0154548 0.74 0 0 0
-0.197591 0.00134304 0.381 255 255 255
0.182074 -0.124121 0.764 255 255 255
0.0830612 -0.0484585 0.831 0 0 0
-0.090077 -0.282118 0.732 255 255 255
0.309357 -0.138677 0.762 255 255 255
-0.106811 -0.0313725 0.43 255 255 255
-0.0870938 0.051481 0.471 255 255 255
-0.0737236 -0.0773926 0.433 0 0 0
0.117486 0.153947 0.537 255 255 255
0.174503 -0.0736256 0.769 255 255 255
0.0585406 -0.192751 0.775 255 255 255
-0.0788391 -0.0606211 0.434 0 0 0
0.241146 0.141692 0.554 255 255 255
-0.107119 -0.130381 0.395 255 255 255
-0.110999 0.153497 0.462 255 255 255
-0.0389982 0.173973 0.447 255 255 255
-0.150862 -0.01786 0.409 255 255 255
0.263657 0.113534 0.622 255 255 255
-0.0323806 0.152434 0.49 255 255 255
-0.117813 0.119123 0.526 255 255 255
-0.139524 -0.0402916 0.407 255 255 255
0.0210902 -0.180821 0.704 0 0 0
0.148178 0.149649 0.528 255 255 255
-0.099541 0.119802 0.529 255 255 255
-0.0320341 0.148142 0.497 255 255 255
-0.0431298 -0.0752081 0.724 0 0 0
0.188333 0.0858614 0.675 255 255 255
-0.154798 -0.0786385 0.381 255 255 255
0.00511819 0.157539 0.491 255 255 255
-0.0363575 -0.0188098 0.73 255 255 255
-0.0799234 -0.123851 0.414 0 0 0
-0.00773097 -0.0314406 0.72 0 0 0
0.292158 -0.165252 0.807 255 255 255
-0.0963737 0.0544913 0.464 255 255 255
0.326764 -0.0583038 0.765 255 255 255
-0.0613874 0.148026 0.486 255 255 255
0.285199 -0.126702 0.821 255 255 255
0.298574 0.0600857 0.836 0 0 0
0.326403 -0.00993088 0.779 255 255 255
0.180596 -0.255914 0.937 255 255 255
0.134447 0.110587 0.58 0 0 0
0.24401 0.172287 0.499 255 255 255
0.275577 -0.0647057 0.849 255 255 255
0.0567768 0.0632493 0.692 255 255 255
-0.0924852 0.0179328 0.456 255 255 255
-0.213575 0.124738 0.494 255 255 255
0.327251 0.00274248 0.778 255 255 255
-0.104881 0.127031 0.513 255 255 255
0.278394 -0.00818347 0.862 255 255 255
0.195262 0.0955155 0.63 0 0 0
-0.133534 -0.0719649 0.399 255 255 255
-0.0906397 -0.0506165 0.433 255 255 255
-0.062561 0.168906 0.449 255 255 255
0.227562 -0.219547 0.877 255 255 255
-0.135575 0.0175281 0.428 255 255 255
0.22818 -0.0255314 0.932 255 255 255
-0.132467 0.151291 0.392 255 255 255
-0.181925 0.0663423 0.407 255 255 255
-0.0061633 0.112246 0.574 255 255 255
0.33868 -0.0517209 0.742 255 255 255
-0.0960328 -0.109441 0.408 255 255 255
0.313949 -0.230646 0.735 255 255 255
-0.117355 -0.0980922 0.397 255 255 255
-0.141624 0.122022 0.513 255 255 255
0.124544 -0.0172927 0.828 255 255 255
-0.000658089 0.0597631 0.678 255 255 255
-0.156371 0.0135534 0.413 255 255 255
0.244976 0.0227306 0.921 255 255 255
-0.00527209 0.155142 0.491 255 255 255
-0.121926 0.159986 0.429 255 255 255
0.252383 -0.0258001 0.889 255 255 255
0.0900793 -0.25581 0.775 255 255 255
-0.0838721 -0.138978 0.407 255 255 255
0.139323 0.0690266 0.705 0 0 0
-0.0996948 -0.119545 0.404 255 255 255
0.143232 0.128604 0.552 255 255 255
0.161963 -0.121476 0.763 0 0 0
-0.166643 0.144454 0.384 255 255 255
-0.0249769 -0.273741 0.783 255 255 255
0.0857492 0.058951 0.708 255 255 255
-0.161215 -0.10294 0.366 255 255 255
-0.0145979 0.11057 0.575 255 255 255
0.292852 0.0402011 0.847 255 255 255
0.227972 -0.0494241 0.925 255 255 255
-0.0997564 -0.0291716 0.439 255 255 255
0.108748 0.0184654 0.801 0 0 0
0.214698 0.126633 0.58 255 255 255
-0.143597 -0.0187068 0.413 255 255 255
0.145929 0.00154094 0.812 255 255 255
0.30085 -0.181954 0.772 255 255 255
-0.190379 0.134486 0.397 255 255 255
-0.068787 -0.225251 0.774 255 255 255
0.264237 -0.176421 0.835 255 255 255
-0.129686 0.140919 0.418 255 255 255
-0.119946 0.089671 0.573 255 255 255
0.0631534 0.132964 0.559 0 0 0
0.263302 0.0760738 0.696 255 255 255
0.233095 0.0470098 0.871 255 255 255
0.297469 -0.241245 0.757 255 255 255
-0.16511 0.0303556 0.413 255 255 255
-0.134882 -0.0519569 0.405 255 255 255
0.00047645 -0.0635139 0.725 255 255 255
0.286311 -0.0742416 0.832 255 255 255
-0.0714964 -0.05514 0.441 255 255 255
0.0325789 0.0125401 0.758 255 255 255
-0.122248 -0.136036 0.382 255 255 255
-0.0728307 -0.135321 0.412 0 0 0
0.322204 -0.194465 0.743 255 255 255
-0.124808 -0.107786 0.39 0 0 0
-0.156452 0.131804 0.415 255 255 255
0.104843 0.10832 0.573 0 0 0
0.0966193 0.0691785 0.695 0 0 0
0.31638 -0.00751892 0.792 255 255 255
0.211431 0.152216 0.525 255 255 255
0.0227437 0.102171 0.597 255 255 255
-0.140708 0.134027 0.484 255 255 255
-0.175958 0.0117658 0.398 255 255 255
0.320741 -0.227822 0.726 255 255 255
0.332612 -0.00104078 0.767 255 255 255
0.140214 0.140839 0.537 0 0 0
0.155678 0.0789007 0.691 0 0 0
0.184151 -0.152631 0.576 0 0 0
-0.152485 -0.00785708 0.408 255 255 255
0.0750165 0.141423 0.546 0 0 0
-0.160329 0.00275256 0.406 255 255 255
0.297146 0.0124104 0.832 255 255 255
0.00875495 0.0793263 0.64 255 255 255
0.35671 0.0785234 0.752 255 255 255
-0.109837 0.117239 0.533 255 255 255
0.0238786 0.0223491 0.756 255 255 255
0.245786 0.168116 0.506 255 255 255
-0.167563 -0.0209451 0.392 255 255 255
0.290441 0.00984246 0.844 255 255 255
0.348301 0.0333772 0.755 255 255 255
-0.112527 0.0698771 0.456 255 255 255
-0.122923 0.00932016 0.435 255 255 255
0.212424 -0.207076 0.91 255 255 255
-0.150124 0.137211 0.407 255 255 255
0.191377 -0.154101 0.578 0 0 0
0.149652 0.0713212 0.705 255 255 255
-0.112214 0.132213 0.501 255 255 255
-0.172863 -0.0100748 0.391 255 255 255
0.00142354 0.0863436 0.623 255 255 255
0.0640507 0.156021 0.515 255 255 255
-0.0236239 -0.164947 0.672 0 0 0
0.342134 -0.215721 0.702 255 255 255
0.259333 -0.0113842 0.893 255 255 255
-0.0788968 0.0890909 0.594 255 255 255
-0.13981 -0.0459116 0.404 255 255 255
0.275167 -0.170693 0.827 255 255 255
-0.0816694 0.0144096 0.462 0 0 0
0.282479 -0.207185 0.817 255 255 255
0.2485 0.129407 0.584 255 255 255
-0.133769 -0.00804966 0.418 255 255 255
-0.171353 -0.0950718 0.361 255 255 255
0.137061 -0.216076 0.604 0 0 0
0.229585 0.178135 0.484 255 255 255
-0.156378 -0.132519 0.359 255 255 255
-0.117744 -0.0343847 0.424 255 255 255
0.047004 0.0152843 0.772 0 0 0
-0.0265036 0.101933 0.59 255 255 255
0.35559 0.0412549 0.742 255 255 255
0.254992 -0.0443061 0.883 255 255 255
-0.188847 -0.0619275 0.363 255 255 255
0.0611088 -0.0550746 0.809 255 255 255
-0.107985 -0.133405 0.813 255 255 255
-0.00950402 0.124784 0.551 255 255 255
0.108175 0.0974271 0.586 255 255 255
0.00481589 0.163271 0.462 0 0 0
0.152154 -0.0141571 0.803 255 255 255
-0.236256 0.121584 0.491 255 255 255
0.0633406 -0.279946 0.772 255 255 255
0.0448799 0.135451 0.547 255 255 255
0.205456 0.0877146 0.656 255 255 255
-0.0813445 0.0499066 0.679 255 255 255
0.0771967 -0.19931 0.812 255 255 255
-0.0615467 -0.11045 0.422 255 255 255
-0.201441 0.0227177 0.386 255 255 255
-0.134127 -0.0195665 0.417 255 255 255
0.31732 -0.245372 0.729 255 255 255
-0.142122 0.146293 0.394 255 255 255
-0.12892 -0.104345 0.389 0 0 0
0.166172 -0.0713077 0.771 255 255 255
-0.0818987 -0.240688 0.767 255 255 255
0.200624 0.106252 0.615 255 255 255
-0.125336 0.152602 0.424 255 255 255
0.310575 -0.170345 0.765 255 255 255
0.309268 0.0108173 0.814 255 255 255
-0.0330494 -0.0991694 0.686 0 0 0
0.000381817 0.108887 0.581 255 255 255
0.132203 0.177796 0.494 255 255 255
-0.134764 -0.107378 0.384 255 255 255
0.136161 0.0764299 0.689 255 255 255
0.133834 -0.0835506 1.01 255 255 255
0.0131983 -0.115511 0.711 0 0 0
-0.0292077 -0.0693967 0.701 0 0 0
-0.135511 0.137882 0.415 255 255 255
0.0945957 0.0837391 0.65 255 255 255
0.173865 -0.155566 0.573 0 0 0
0.183034 -0.214645 0.6 0 0 0
-0.0956024 -0.109044 0.409 255 255 255
0.249729 0.168285 0.509 255 255 255
0.182553 -0.160598 0.571 0 0 0
0.163246 0.099432 0.61 0 0 0
0.2306 -0.141822 0.9 255 255 255
0.197857 -0.248121 0.925 255 255 255
-0.0785548 0.0791012 0.614 255 255 255
0.331475 -0.19672 0.716 255 255 255
0.315053 -0.163126 0.749 255 255 255
-0.0499586 -0.290137 0.756 255 255 255
-0.101204 -0.0445816 0.436 255 255 255
0.0424499 -0.038034 0.758 0 0 0
-0.083197 -0.0397978 0.446 0 0 0
-0.0878022 -0.270639 0.743 255 255 255
0.199846 0.150794 0.526 255 255 255
-0.187966 0.138013 0.396 255 255 255
0.275176 -0.161832 0.823 255 255 255
-0.0558254 -0.083641 0.736 255 255 255
-0.0358158 -0.16788 0.675 0 0 0
0.140192 0.179912 0.491 255 255 255
-0.157837 -0.128557 0.361 255 255 255
-0.17199 0.0683217 0.415 255 255 255
0.340054 -0.157385 0.712 255 255 255
0.333534 -0.246368 0.708 255 255 255
0.0923216 0.178633 0.479 255 255 255
-0.0906695 -0.187245 0.789 255 255 255
0.0331253 0.128416 0.559 255 255 255
0.00460921 0.139135 0.524 255 255 255
0.0740448 0.180997 0.467 255 255 255
0.318856 -0.101683 0.773 255 255 255
-0.064997 -0.287128 0.745 255 255 255
-0.210823 0.12867 0.399 255 255 255
0.194349 0.0562705 0.749 255 255 255
0.225948 0.153091 0.531 255 255 255
0.211068 0.177514 0.476 255 255 255
-0.0808127 0.113926 0.542 255 255 255
0.0321577 0.127278 0.558 255 255 255
-0.145617 0.0473275 0.433 0 0 0
0.322368 -0.136311 0.749 255 255 255
0.301464 -0.199961 0.764 255 255 255
0.0549224 0.178335 0.466 255 255 255
-0.0726292 0.101213 0.575 255 255 255
0.247159 0.0902606 0.659 255 255 255
-0.0366528 0.170787 0.454 255 255 255
-0.195225 0.0565089 0.403 0 0 0
0.246167 -0.028984 0.898 255 255 255
-0.126626 0.0354442 0.443 255 255 255
0.113748 0.152171 0.54 255 255 255
-0.0952062 0.0317016 0.462 255 255 255
-0.0389867 0.138153 0.514 255 255 255
-0.165852 -0.0204108 0.394 255 255 255
-0.16619 -0.105939 0.36 255 255 255
0.27335 0.145699 0.559 255 255 255
0.248456 -0.0158848 0.901 255 255 255
-0.0388185 0.120318 0.547 255 255 255
-0.130728 -0.11267 0.385 255 255 255
-0.178928 0.120903 0.417 255 255 255
0.0723775 0.136936 0.553 255 255 255
-0.0235388 0.133166 0.524 255 255 255
-0.0980015 -0.181417 0.786 255 255 255
-0.110262 -0.0690127 0.851 255 255 255
-0.162695 -0.0951188 0.368 255 255 255
0.356236 0.0674199 0.751 255 255 255
0.14532 -0.0210258 0.816 255 255 255
0.258578 0.150583 0.547 255 255 255
-0.145347 0.132025 0.42 255 255 255
0.0231837 -0.0726636 0.734 0 0 0
-0.025582 0.12976 0.531 255 255 255
0.127967 0.116618 0.568 255 255 255
0.111176 0.180911 0.483 255 255 255
-0.175174 -0.0948643 0.358 0 0 0
0.0767554 0.180979 0.465 255 255 255
-0.178907 -0.0952248 0.355 255 255 255
-0.181462 -0.102149 0.351 255 255 255
-0.151339 -0.106761 0.371 255 255 255
0.349909 -0.140458 0.697 255 255 255
0.097284 0.132099 0.567 255 255 255
-0.143126 -0.0654583 0.395 255 255 255
0.317633 -0.245882 0.727 255 255 255
-0.189687 0.0399145 0.401 255 255 255
0.202667 -0.169151 0.578 0 0 0
0.184735 0.126748 0.572 255 255 255
-0.123413 -0.0810104 0.402 255 255 255
-0.0134212 -0.0437749 0.711 0 0 0
-0.0351285 -0.089844 0.683 0 0 0
-0.0239445 -0.24307 0.791 255 255 255
-0.097408 -0.106902 0.411 255 255 255
0.334524 -0.268565 0.691 255 255 255
0.307719 -0.245024 0.746 255 255 255
0.333236 -0.267087 0.693 255 255 255
-0.0519827 0.128783 0.527 255 255 255
0.285937 -0.104749 0.827 255 255 255
0.279723 -0.0840482 0.849 255 255 255
0.302693 0.13024 0.601 255 255 255
-0.120051 -0.0415786 0.42 255 255 255
-0.173216 -0.113391 0.354 255 255 255
-0.166833 -0.0453949 0.383 255 255 255
-0.154602 0.0240925 0.421 255 255 255
0.11428 0.175831 0.493 255 255 255
-0.0730998 0.0853925 0.602 255 255 255
-0.119802 0.149079 0.467 255 255 255
0.0806388 0.0876582 0.64 0 0 0
0.307168 0.0108837 0.819 255 255 255
0.260204 0.00315844 0.896 255 255 255
-0.187048 -0.0141573 0.381 255 255 255
0.0859364 0.145679 0.542 0 0 0
-0.156077 -0.0426342 0.392 255 255 255
-0.17097 -0.0544998 0.377 0 0 0
0.297986 -0.0757623 0.805 255 255 255
-0.0123717 -0.265288 0.792 255 255 255
0.194654 -0.0166385 0.864 255 255 255
0.2252 -0.120779 0.896 255 255 255
-0.0794777 0.0294052 0.78 255 255 255
0.308293 0.0604171 0.822 0 0 0
0.257104 0.0942633 0.657 255 255 255
0.0252249 -0.105841 0.724 255 255 255
-0.17308 0.124061 0.482 255 255 255
-0.0606305 -0.107344 0.751 255 255 255
-0.0927121 -0.124048 0.408 255 255 255
0.120761 0.0807312 0.66 255 255 255
-0.129164 -0.136594 0.375 255 255 255
0.0911982 0.136358 0.558 255 255 255
-0.196022 0.00760256 0.384 255 255 255
0.243264 -0.0204636 0.909 255 255 255
0.00285242 -0.0199704 0.729 255 255 255
-0.071169 0.127805 0.523 255 255 255
0.194855 -0.220118 0.947 255 255 255
0.265325 0.154521 0.539 255 255 255
-0.174494 -0.0939609 0.359 0 0 0
-0.0126605 0.027671 0.734 255 255 255
-0.173649 0.119482 0.424 255 255 255
0.0616152 -0.231396 0.782 255 255 255
-0.157271 -0.0780193 0.378 255 255 255
0.038214 0.166664 0.485 255 255 255
-0.176513 -0.0966517 0.356 0 0 0
0.259209 -0.0722175 0.873 255 255 255
-0.183848 -0.00554897 0.386 255 255 255
-0.167186 0.0106546 0.405 255 255 255
-0.00987911 -0.0779339 0.706 0 0 0
0.287094 -0.131081 0.815 255 255 255
0.236472 0.164143 0.509 255 255 255
-0.00113032 0.164348 0.435 255 255 255
0.33101 0.0228221 0.772 255 255 255
-0.00741633 0.135553 0.53 255 255 255
0.114154 0.18331 0.479 255 255 255
-0.0673598 0.13955 0.501 255 255 255
0.244693 -0.176885 0.857 255 255 255
0.251782 -0.166251 0.867 255 255 255
0.177953 0.182449 0.485 255 255 255
0.114314 0.134113 0.56 255 255 255
0.10138 0.162929 0.513 255 255 255
-0.12016 0.128021 0.507 255 255 255
-0.162666 -0.0514928 0.382 255 255 255
-0.0475662 -0.170616 0.686 0 0 0
0.01313 0.123177 0.56 255 255 255
0.29293 -0.260763 0.771 255 255 255
0.303678 0.00960923 0.824 255 255 255
-0.150736 -0.103364 0.374 0 0 0
-0.00417487 0.12183 0.558 255 255 255
0.0784218 -0.206984 0.811 255 255 255
-0.136447 -0.101919 0.387 0 0 0
-0.187873 -0.0370248 0.374 255 255 255
-0.063982 0.102725 0.573 255 255 255
-0.0112158 -0.0325217 0.718 0 0 0
0.0612797 -0.117596 0.762 255 255 255
-0.180297 0.0286773 0.399 255 255 255
0.0873587 0.156388 0.519 255 255 255
0.280158 -0.109389 0.842 255 255 255
-0.158716 -0.130766 0.359 0 0 0
-0.127922 0.0464666 0.445 0 0 0
-0.091909 0.164875 0.446 255 255 255
-0.117355 -0.109075 0.397 255 255 255
-0.135016 0.127196 0.507 255 255 255
0.224919 0.14629 0.541 255 255 255
-0.0591062 0.170298 0.445 255 255 255
-0.0746576 0.0570159 0.659 0 0 0
0.0194658 -0.0899634 0.729 0 0 0
0.249158 -0.0520739 0.893 255 255 255
0.123673 0.149146 0.545 0 0 0
0.203679 0.0667226 0.73 255 255 255
0.26662 0.0628169 0.874 255 255 255
-0.0215833 -0.0404172 0.713 0 0 0
0.250371 -0.0892535 0.887 255 255 255
-0.085506 -0.0884118 0.425 255 255 255
0.321783 -0.0832019 0.765 255 255 255
-0.170555 0.000757188 0.399 255 255 255
0.00397129 0.125464 0.554 255 255 255
0.254251 0.154533 0.536 255 255 255
0.163789 0.125893 0.564 255 255 255
0.0155085 0.159936 0.491 255 255 255
0.201821 0.0734963 0.715 255 255 255
0.0783251 -0.209365 0.81 255 255 255
-0.146984 -0.0583875 0.395 255 255 255
-0.10533 0.1399 0.488 255 255 255
-0.160581 -0.0423079 0.389 255 255 255
0.0416104 0.126586 0.563 255 255 255
-0.0370786 -0.159799 0.678 0 0 0
-0.0200449 0.168145 0.463 255 255 255
-0.157886 -0.0749437 0.378 255 255 255
0.351904 -0.203639 0.692 255 255 255
-0.10981 -0.0910327 0.837 255 255 255
-0.0798696 0.0964296 0.58 255 255 255
-0.184498 -0.0814649 0.358 255 255 255
-0.0817657 0.121119 0.531 255 255 255
-0.173884 -0.0472628 0.378 255 255 255
0.282714 0.119262 0.615 255 255 255
-0.116509 0.152833 0.46 255 255 255
0.0972045 0.162929 0.513 255 255 255
0.165503 0.100589 0.611 0 0 0
0.081362 -0.0117017 0.814 255 255 255
-0.010033 -0.0359768 0.717 0 0 0
0.016124 -0.0250547 0.739 0 0 0
0.34384 0.0285004 0.756 255 255 255
-0.0481209 -0.14663 0.694 255 255 255
-0.165386 -0.123647 0.357 255 255 255
-0.162924 0.0380227 0.416 255 255 255
0.192064 0.165126 0.497 255 255 255
0.200438 -0.169797 0.577 0 0 0
-0.0733894 -0.155704 0.404 0 0 0
0.140832 -0.189738 0.957 255 255 255
-0.118152 -0.0542217 0.858 255 255 255
-0.0717308 0.0831384 0.607 255 255 255
-0.0577998 0.153501 0.476 255 255 255
0.349932 -0.0862691 0.718 255 255 255
0.140114 0.0682645 0.709 0 0 0
0.310593 0.0702525 0.797 0 0 0
-0.142518 -0.101489 0.383 0 0 0
0.307977 -0.0715068 0.787 255 255 255
-0.169807 0.116275 0.43 255 255 255
0.27234 0.0696125 0.723 255 255 255
0.209404 0.114401 0.6 255 255 255
-0.10315 -0.0774324 0.418 255 255 255
-0.0936375 -0.247888 0.751 255 255 255
-0.174676 -0.0723622 0.368 255 255 255
0.347603 0.00745553 0.743 255 255 255
-0.159292 0.107698 0.533 255 255 255
-0.10901 -0.143224 0.388 255 255 255
0.00829662 0.131566 0.542 255 255 255
0.339893 -0.141187 0.724 255 255 255
-0.180419 -0.0832127 0.358 255 255 255
-0.144208 0.044509 0.433 255 255 255
-0.0953267 -0.126432 0.405 255 255 255
-0.0326633 0.105868 0.58 255 255 255
-0.152288 -0.13544 0.359 255 255 255
-0.173233 0.0626936 0.418 255 255 255
0.230774 0.172517 0.495 255 255 255
-0.124844 -0.0485233 0.856 255 255 255
0.299004 -0.180604 0.777 255 255 255
-0.0748462 0.048929 0.476 0 0 0
-0.194805 -0.0122004 0.378 255 255 255
0.251492 -0.199882 0.866 255 255 255
0.132582 -0.29918 0.872 255 255 255
0.220245 -0.136115 0.882 255 255 255
0.13713 -0.204881 0.6 0 0 0
-0.0895719 0.111417 0.547 255 255 255
-0.0859329 -0.110498 0.417 255 255 255
0.0830832 -0.223792 0.805 255 255 255
-0.150457 -0.0873187 0.381 255 255 255
-0.101319 -0.151578 0.39 255 255 255
-0.16684 0.137798 0.401 255 255 255
-0.109645 0.139327 0.486 255 255 255
-0.166709 0.0693296 0.417 255 255 255
0.240328 0.0907786 0.655 0 0 0
0.0887904 0.135024 0.56 255 255 255
-0.173913 0.0592925 0.418 255 255 255
-0.0320767 0.17077 0.452 255 255 255
-0.106775 0.0532729 0.46 255 255 255
0.21179 -0.0320133 0.901 255 255 255
0.152902 -0.151935 0.995 255 255 255
-0.133806 -0.0168117 0.416 255 255 255
-0.0259268 -0.1536 0.675 0 0 0
-0.134331 -0.0887467 0.39 255 255 255
0.104437 0.0885611 0.639 0 0 0
0.198889 0.171753 0.486 255 255 255
0.14469 -0.317583 0.868 255 255 255
0.0334559 -0.0181047 0.75 255 255 255
0.0066526 0.125909 0.552 255 255 255
-0.0225505 0.14473 0.502 255 255 255
-0.117825 -0.127461 0.39 255 255 255
0.138355 -0.0254386 0.83 255 255 255
0.0822901 -0.275629 0.75 255 255 255
-0.167015 -0.112342 0.358 255 255 255
0.271279 0.139726 0.568 255 255 255
0.200963 0.165935 0.497 255 255 255
-0.134062 -0.110549 0.382 255 255 255
0.10672 -0.243738 0.847 255 255 255
0.147355 0.133822 0.544 0 0 0
0.362791 0.0685617 0.737 255 255 255
-0.00836448 -0.298964 0.779 255 255 255
-0.206068 0.134653 0.39 255 255 255
-0.150333 -0.105516 0.373 255 255 255
0.351904 -0.193504 0.692 255 255 255
0.347181 -0.0797001 0.722 255 255 255
-0.17795 0.0749525 0.407 255 255 255
-0.145129 -0.133912 0.366 255 255 255
0.241513 -0.0742029 0.897 255 255 255
-0.188665 0.0427368 0.403 255 255 255
0.00879782 0.000197381 0.73 255 255 255
0.235526 0.0846056 0.701 255 255 255
0.334259 -0.20489 0.712 255 255 255
0.297954 -0.154252 0.791 255 255 255
-0.100495 -0.217936 0.766 255 255 255
-0.0785837 0.0213594 0.466 0 0 0
-0.132472 -0.14049 0.374 255 255 255
0.0280852 -0.170086 0.707 0 0 0
-0.197358 0.0648731 0.402 255 255 255
-0.0410556 0.134429 0.519 255 255 255
0.14124 -0.247292 0.939 255 255 255
-0.181043 0.0592019 0.408 255 255 255
-0.0797249 0.163053 0.451 255 255 255
0.338817 -0.20115 0.707 255 255 255
0.132742 0.12433 0.557 255 255 255
-0.151719 -0.0265136 0.399 255 255 255
-0.105569 0.119802 0.529 255 255 255
-0.176412 0.143803 0.389 255 255 255
-0.0708109 -0.101314 0.424 0 0 0
0.248288 0.126466 0.588 255 255 255
-0.0726539 -0.138337 0.411 0 0 0
-0.141231 0.000114103 0.422 255 255 255
0.253259 -0.0401765 0.887 255 255 255
-0.127514 -0.0487136 0.411 0 0 0
0.314729 0.0371727 0.811 255 255 255
-0.163944 -0.0450055 0.385 255 255 255
-0.0981892 -0.0671293 0.426 255 255 255
0.225394 -0.185353 0.891 255 255 255
-0.0738582 -0.119809 0.414 0 0 0
0.241513 -0.099018 0.897 255 255 255
0.0637508 -0.108531 0.777 0 0 0
-0.0956538 -0.100514 0.415 255 255 255
0.113605 0.134353 0.561 255 255 255
0.199948 0.0329947 0.839 0 0 0
0.154289 0.164919 0.514 255 255 255
0.00699298 -0.267586 0.795 255 255 255
0.095042 0.180216 0.477 255 255 255
-0.0724772 -0.142671 0.41 0 0 0
-0.0834141 -0.135999 0.408 255 255 255
-0.104954 -0.0370565 0.431 255 255 255
0.239173 -0.0399994 0.916 255 255 255
0.356969 0.0108889 0.73 255 255 255
-0.04259 0.0748921 0.629 255 255 255
-0.12875 -0.126999 0.381 255 255 255
-0.0881796 0.121294 0.528 255 255 255
-0.130366 -0.0155321 0.418 255 255 255
0.280359 0.0861158 0.677 255 255 255
-0.17077 -0.127124 0.349 255 255 255
0.0454645 0.0892224 0.629 0 0 0
-0.0338989 -0.286483 0.783 255 255 255
0.0690231 -0.223318 0.794 255 255 255
0.185341 -0.165244 0.571 0 0 0
-0.0240894 0.170787 0.454 255 255 255
0.337536 -0.147077 0.724 255 255 255
0.364467 0.0238251 0.726 255 255 255
-0.135761 -0.127975 0.373 255 255 255
-0.191002 -0.01655 0.379 255 255 255
-0.0787523 0.0274849 0.467 0 0 0
-0.178365 -0.0308976 0.381 255 255 255
-0.116423 -0.0689459 0.412 255 255 255
0.0218571 -0.199135 0.692 0 0 0
0.0880996 -0.199516 0.896 255 255 255
-0.110761 0.000119781 0.443 255 255 255
0.147264 0.122222 0.564 255 255 255
0.165518 -0.283018 0.921 255 255 255
0.232475 -0.183238 0.874 255 255 255
0.27924 0.0652858 0.869 255 255 255
-0.0837439 0.0143784 0.461 0 0 0
0.353134 -0.158136 0.69 255 255 255
0.102311 -0.00903018 0.812 255 255 255
-0.197338 0.047388 0.398 255 255 255
0.310974 0.037356 0.815 255 255 255
-0.0968243 0.161208 0.452 255 255 255
0.136444 -0.104398 1.005 255 255 255
-0.212937 0.123402 0.403 255 255 255
0.00484583 0.0617869 0.676 255 255 255
0.103349 0.0940889 0.614 255 255 255
-0.0767883 -0.0351065 0.451 0 0 0
-0.0658292 0.158198 0.467 255 255 255
-0.153232 0.0186117 0.421 255 255 255
0.0992082 -0.283504 0.758 255 255 255
0.332795 -0.25185 0.704 255 255 255
-0.104106 0.00512545 0.756 255 255 255
0.00367895 0.0671734 0.664 255 255 255
-0.0569974 0.13417 0.518 255 255 255
-0.184476 -0.00680527 0.386 255 255 255
0.199721 0.153855 0.519 255 255 255
0.0712473 0.000213605 0.79 0 0 0
-0.131004 0.135552 0.429 255 255 255
0.151114 0.133023 0.548 255 255 255
-0.0420552 -0.287618 0.769 255 255 255
0.199323 -0.18617 0.939 255 255 255
0.299218 0.123466 0.616 255 255 255
0.281297 -0.281759 0.777 255 255 255
-0.094617 0.0155688 0.452 255 255 255
0.360418 0.0792169 0.747 255 255 255
-0.0329358 0.160136 0.475 255 255 255
-0.174934 -0.132788 0.346 255 255 255
0.123883 0.169763 0.506 255 255 255
0.0555594 0.154045 0.514 255 255 255
-0.176925 -0.0763144 0.364 255 255 255
-0.203951 0.0576057 0.397 0 0 0
0.254247 -0.18447 0.847 255 255 255
-0.122588 -0.0378886 0.417 255 255 255
0.160357 -0.214673 0.592 255 255 255
-0.0468829 -0.255929 0.787 255 255 255
0.354157 -0.138325 0.692 255 255 255
-0.0779072 -0.21095 0.777 255 255 255
-0.0206705 0.0687183 0.648 255 255 255
0.159309 0.153209 0.514 0 0 0
0.120789 0.149757 0.544 255 255 255
-0.0181004 -0.165546 0.67 255 255 255
0.225809 0.0955421 0.644 255 255 255
-0.0234939 0.134614 0.523 255 255 255
0.230813 0.180568 0.48 255 255 255
0.170498 -0.169922 0.568 255 255 255
-0.178679 0.0103652 0.394 255 255 255
-0.101108 -0.06995 0.418 255 255 255
0.304714 -0.0170421 0.816 255 255 255
0.332006 -0.0847774 0.746 255 255 255
0.0446592 0.0801939 0.647 0 0 0
-0.0405786 0.0110679 0.742 255 255 255
0.190406 0.0882408 0.652 255 255 255
0.350036 -0.211308 0.695 255 255 255
0.0866645 0.130943 0.57 255 255 255
0.150807 -0.251515 0.932 255 255 255
-0.0319793 -0.103786 0.687 0 0 0
-0.144117 0.0747881 0.437 255 255 255
-0.159538 0.03193 0.416 255 255 255
0.24333 0.129185 0.583 255 255 255
0.0550129 -0.0490698 0.797 255 255 255
0.00493467 0.120659 0.561 255 255 255
-0.136819 0.141021 0.468 255 255 255
-0.142664 -0.119157 0.372 255 255 255
-0.161389 -0.0689744 0.379 0 0 0
0.110884 -0.19607 0.928 255 255 255
-0.133836 -0.0335738 0.414 255 255 255
0.145817 0.126594 0.555 255 255 255
-0.172654 -0.0484931 0.378 255 255 255
0.28804 -0.282245 0.768 255 255 255
-0.123185 0.117634 0.527 255 255 255
-0.141977 -0.0557323 0.399 255 255 255
-0.0998233 0.151793 0.466 255 255 255
-0.106197 -0.0630653 0.422 255 255 255
-0.193937 0.133865 0.399 255 255 255
0.245405 0.00770925 0.917 255 255 255
0.153804 0.0722628 0.703 255 255 255
-0.23395 0.117644 0.498 255 255 255
-0.0851578 -0.130661 0.41 255 255 255
-0.0744392 -0.104972 0.808 255 255 255
-0.10001 -0.133984 0.4 255 255 255
-0.153624 -0.137586 0.354 255 255 255
-0.0272778 0.103149 0.586 255 255 255
0.220096 -0.182374 0.905 255 255 255
-0.0821817 -0.0618907 0.433 0 0 0
0.32597 -0.00995638 0.781 255 255 255
-0.0062219 -0.19321 0.683 0 0 0
-0.110375 -0.0125663 0.433 255 255 255
0.1116 0.0479768 0.734 255 255 255
0.289404 -0.264638 0.775 255 255 255
0.290103 -0.121946 0.816 255 255 255
-0.0727809 -0.0332117 0.79 255 255 255
-0.102416 0.0469404 0.464 255 255 255
0.175947 0.184407 0.486 255 255 255
-0.175145 -0.0100233 0.389 255 255 255
-0.157403 0.0421043 0.423 255 255 255
0.205373 0.15108 0.527 255 255 255
-0.133235 -0.107658 0.385 255 255 255
-0.184121 0.0787325 0.406 255 255 255
0.186076 -0.192143 0.585 255 255 255
0.276801 -0.202481 0.836 255 255 255
0.201415 0.097566 0.63 255 255 255
-0.192448 0.0205192 0.392 255 255 255
0.212159 0.0881 0.667 255 255 255
0.300087 0.135033 0.592 255 255 255
-0.0638802 -0.0740096 0.438 255 255 255
-0.0958113 0.113044 0.542 255 255 255
-0.0371953 -0.0568483 0.701 0 0 0
-0.0602506 0.153047 0.477 255 255 255
0.301224 -0.264998 0.751 255 255 255
-0.170474 0.106229 0.53 255 255 255
0.325989 -0.0199693 0.775 255 255 255
0.33247 -0.112812 0.731 255 255 255
0.0102226 0.162597 0.436 0 0 0
-0.142421 0.0439055 0.434 255 255 255
-0.0750022 0.125115 0.526 255 255 255
-0.0178222 -0.0603566 0.702 0 0 0
0.100925 0.0158585 0.801 0 0 0
0.0465728 -0.105274 0.745 0 0 0
0.157443 -0.295603 0.909 255 255 255
-0.0679633 -0.188675 0.779 255 255 255
0.180899 0.114996 0.593 255 255 255
-0.0977061 -0.0910369 0.418 255 255 255
-0.133211 -0.0405886 0.41 255 255 255
-0.0861861 0.116371 0.537 255 255 255
0.0292361 -0.17929 0.707 0 0 0
-0.00652886 0.135901 0.528 255 255 255
-0.201637 0.137022 0.395 255 255 255
-0.0363077 0.0405321 0.729 255 255 255
0.350778 -0.205891 0.692 255 255 255
-0.176765 -0.0106016 0.387 255 255 255
0.24553 -0.122918 0.88 255 255 255
-0.113491 -0.0628456 0.416 255 255 255
-0.0655085 0.0751916 0.623 255 255 255
0.162022 -0.177321 0.574 255 255 255
0.177335 -0.248609 0.944 255 255 255
0.00509734 0.158489 0.489 255 255 255
0.0655559 -0.211722 0.799 255 255 255
0.304349 -0.180305 0.765 255 255 255
-0.210413 0.120653 0.407 255 255 255
0.316133 -0.256049 0.729 255 255 255
-0.16187 -0.0903412 0.373 255 255 255
-0.103316 0.163396 0.442 255 255 255
0.165511 -0.198127 0.583 255 255 255
0.0861496 -0.0957611 0.797 255 255 255
0.00874961 -0.0789602 0.726 255 255 255
-0.119936 -0.0307889 0.422 255 255 255
0.0849906 0.120854 0.584 255 255 255
0.286329 -0.0394146 0.84 255 255 255
0.108599 0.154245 0.532 255 255 255
0.031125 -0.276321 0.817 0 0 0
0.328107 -0.180067 0.724 255 255 255
-0.0789577 -0.0888278 0.427 0 0 0
-0.0446191 0.0197044 0.749 0 0 0
-0.112527 0.0483573 0.456 255 255 255
0.0911159 0.165148 0.507 255 255 255
-0.153008 0.0511981 0.43 0 0 0
0.185128 0.133751 0.551 255 255 255
0.0309887 -0.118309 0.721 0 0 0
0.196893 -0.197495 0.942 255 255 255
0.350295 0.0517381 0.754 255 255 255
0.220812 0.172813 0.489 255 255 255
0.359453 0.0705183 0.745 255 255 255
0.0384927 -0.00347254 0.753 0 0 0
-0.117231 0.155417 0.401 255 255 255
0.0586916 -0.0819781 0.777 255 255 255
-0.0981658 -0.0504996 0.432 255 255 255
-0.0884591 -0.15116 0.816 255 255 255
0.152154 -0.0167706 0.803 255 255 255
-0.145921 0.130607 0.483 255 255 255
0.3636 0.0286689 0.729 255 255 255
0.246421 -0.215881 0.868 255 255 255
-0.194072 0.0328061 0.394 255 255 255
-0.135708 0.150781 0.394 255 255 255
0.0519632 0.0315752 0.771 0 0 0
0.207859 0.125175 0.582 255 255 255
-0.188475 0.0783447 0.404 255 255 255
-0.15538 0.0637435 0.425 255 255 255
-0.0785837 0.0221177 0.466 0 0 0
-0.0434649 0.112442 0.561 255 255 255
0.142487 -0.232994 0.602 255 255 255
0.0814581 0.0254988 0.777 255 255 255
-0.133806 -0.0229045 0.416 0 0 0
0.199499 -0.160408 0.577 0 0 0
0.146641 -0.218666 0.595 255 255 255
-0.0150296 0.0216692 0.733 255 255 255
-0.128789 0.0613968 0.443 255 255 255
0.215756 0.156143 0.521 255 255 255
-0.11766 -0.0787064 0.407 255 255 255
-0.220995 0.112037 0.517 255 255 255
0.122567 0.0953732 0.591 0 0 0
-0.0891673 -0.03841 0.848 255 255 255
0.331733 -0.118923 0.732 255 255 255
-0.0303327 -0.00454194 0.728 255 255 255
0.181785 0.0770575 0.705 0 0 0
0.104279 0.0838679 0.651 255 255 255
0.0968471 0.0518922 0.722 255 255 255
0.026698 0.161534 0.491 255 255 255
-0.197136 0.0367461 0.395 255 255 255
0.221295 0.00488445 0.948 255 255 255
-0.0782746 0.0423976 0.701 255 255 255
0.0645084 0.134722 0.555 255 255 255
-0.0641122 -0.13331 0.412 0 0 0
-0.0377831 0.163107 0.468 255 255 255
-0.150203 0.0577633 0.432 255 255 255
0.225451 -0.0975583 0.897 255 255 255
0.0875222 0.0357396 0.753 255 255 255
-0.168575 -0.0364224 0.387 255 255 255
0.332044 -0.265228 0.7 255 255 255
0.347922 -0.0588757 0.726 255 255 255
-0.0300751 -0.28266 0.783 255 255 255
0.317883 -0.0545788 0.783 255 255 255
-0.103889 -0.263656 0.737 255 255 255
0.289258 -0.259332 0.778 255 255 255
-0.0758206 -0.0960195 0.425 0 0 0
-0.0189379 -0.0682559 0.701 0 0 0
-0.14995 -0.0603414 0.391 255 255 255
0.145392 0.183201 0.487 255 255 255
0.27468 0.0270726 0.868 255 255 255
-0.19385 0.126614 0.407 255 255 255
0.281852 0.0747522 0.864 0 0 0
0.0783412 0.135207 0.557 255 255 255
-0.169854 -0.121687 0.353 255 255 255
0.362911 0.0417756 0.73 255 255 255
-0.102302 -0.000606554 0.447 255 255 255
0.081468 -0.00891897 0.802 255 255 255
-0.103266 -0.125522 0.4 255 255 255
-0.175174 -0.0966121 0.358 255 255 255
-0.0870959 -0.209226 0.78 255 255 255
0.151994 -0.0735977 0.782 0 0 0
-0.212168 0.11182 0.516 255 255 255
0.304873 0.0255755 0.82 255 255 255
0.30012 0.106351 0.646 255 255 255
0.0833617 -0.12466 0.783 255 255 255
0.29136 0.135078 0.588 255 255 255
