ply
format ascii 1.0
comment Created by Open3D
element vertex 1304
property double x
property double y
property double z
property uchar red
property uchar green
property uchar blue
end_header
-0.0558435 -0.123326 0.431 0 0 0
-0.0656263 0.000893823 0.471 0 0 0
0.154575 0.0955345 0.592 0 0 0
0.209033 -0.154635 0.58 0 0 0
0.0707648 0.0693847 0.675 0 0 0
-0.11482 -0.114943 0.404 255 255 255
0.298038 -0.182125 0.862 255 255 255
0.346807 -0.0253368 0.785 255 255 255
0.268955 -0.157231 0.896 255 255 255
0.28354 -0.0435003 0.896 255 255 255
0.167839 0.0915598 0.631 255 255 255
0.304905 -0.145825 0.831 255 255 255
-0.0915065 0.0410099 0.474 255 255 255
-0.111819 -0.141734 0.398 255 255 255
-0.122279 0.109516 0.542 255 255 255
-0.101911 0.01197 0.455 255 255 255
-0.205574 0.0461301 0.404 255 255 255
0.146279 0.100551 0.582 0 0 0
-0.115261 0.0458868 0.461 255 255 255
0.240081 -0.222368 0.937 255 255 255
-0.168191 0.0253418 0.419 255 255 255
-0.167077 0.146084 0.385 255 255 255
-0.193607 0.0534642 0.415 0 0 0
0.13014 0.0823011 0.664 255 255 255
-0.170753 -0.0388067 0.392 255 255 255
-0.0299983 -0.0341043 0.781 255 255 255
0.307865 -0.263332 0.79 255 255 255
-0.0986494 0.128199 0.511 255 255 255
0.103885 0.0809759 0.662 0 0 0
-0.126255 0.0516109 0.452 255 255 255
0.356482 0.00910778 0.781 255 255 255
0.081382 0.126748 0.572 0 0 0
-0.118156 -0.146758 0.389 255 255 255
0.354623 -0.0322028 0.766 255 255 255
-0.0473618 -0.117471 0.841 255 255 255
0.0635932 -0.0158725 0.76 0 0 0
-0.112467 -0.131371 0.398 255 255 255
0.0367721 0.00382821 0.743 255 255 255
-0.0945596 0.0368396 0.47 255 255 255
0.00370606 0.142324 0.517 255 255 255
0.363835 0.045612 0.775 255 255 255
-0.155616 -0.0453434 0.399 255 255 255
-0.104811 -0.151977 0.396 255 255 255
0.0150761 0.0786518 0.643 255 255 255
-0.200968 0.0645135 0.408 255 255 255
0.245277 0.178446 0.487 255 255 255
0.0636737 -0.185843 0.719 255 255 255
0.344834 -0.112858 0.772 255 255 255
0.189824 -0.0141394 0.802 255 255 255
-0.072378 -0.073247 0.442 255 255 255
-0.207547 0.0645384 0.404 255 255 255
-0.206374 0.0135366 0.393 255 255 255
-0.00271325 0.07644 0.642 255 255 255
0.273143 -0.0268449 0.925 255 255 255
0.277297 -0.00419195 0.909 255 255 255
-0.16524 -0.118749 0.367 255 255 255
0.11637 0.0943552 0.636 255 255 255
0.20924 0.173254 0.488 255 255 255
0.274959 -0.0399994 0.916 255 255 255
0.248652 0.0828971 0.726 255 255 255
0.199277 0.114608 0.596 255 255 255
0.18288 0.149368 0.524 255 255 255
0.1634 0.0821771 0.663 255 255 255
0.133056 0.0991684 0.574 0 0 0
-0.132024 0.0164744 0.437 255 255 255
0.209995 -0.241747 0.622 0 0 0
0.350707 -0.250065 0.722 255 255 255
-0.0165769 -0.111933 0.749 0 0 0
-0.180285 0.0401499 0.417 255 255 255
-0.11591 -0.0390698 0.43 255 255 255
-0.169816 0.0108651 0.413 255 255 255
-0.0886107 -0.00211672 0.459 255 255 255
-0.12053 -0.0792865 0.41 255 255 255
-0.139564 -0.0390576 0.415 255 255 255
0.00401693 -0.0316589 0.725 255 255 255
-0.063302 -0.0409161 0.872 255 255 255
-0.144082 0.111207 0.525 255 255 255
-0.203394 0.124095 0.401 255 255 255
0.214269 0.174556 0.485 255 255 255
0.171978 0.0919815 0.62 255 255 255
0.11518 0.177153 0.49 255 255 255
-0.177319 -0.0387077 0.391 255 255 255
0.064411 0.107478 0.605 255 255 255
0.0184797 -0.0165915 0.737 255 255 255
0.333175 -0.153277 0.786 255 255 255
-0.0720042 -0.242251 0.768 255 255 255
0.110261 -0.102778 0.822 255 255 255
0.15321 0.16808 0.516 255 255 255
-0.159975 -0.0765583 0.383 255 255 255
0.11383 0.132321 0.576 255 255 255
-0.130231 0.0260724 0.443 255 255 255
-0.121568 -0.0830866 0.409 255 255 255
0.354915 -0.268492 0.721 255 255 255
0.0121934 -0.0619042 0.72 255 255 255
-0.0496226 0.0231144 0.487 255 255 255
-0.167096 -0.0105129 0.408 255 255 255
0.163856 -0.18468 0.955 255 255 255
0.0993911 0.0939072 0.64 255 255 255
0.174727 0.129303 0.555 255 255 255
-0.188562 0.00857026 0.4 255 255 255
0.320725 -0.125671 0.823 255 255 255
0.175271 0.183854 0.493 255 255 255
0.117582 -0.0160993 0.836 255 255 255
0.217001 0.17182 0.493 255 255 255
0.364598 0.0400962 0.766 255 255 255
-0.150627 -0.0253661 0.412 255 255 255
0.138626 0.166202 0.518 255 255 255
0.321709 -0.00521574 0.836 255 255 255
-0.185054 0.0721994 0.414 255 255 255
0.0283633 -0.105541 0.714 255 255 255
-0.0843203 -0.103871 0.426 255 255 255
0.244311 0.142336 0.553 255 255 255
0.143537 -0.00378612 0.821 0 0 0
0.216393 0.168227 0.499 255 255 255
-0.0374721 0.00938766 0.805 255 255 255
-0.0632991 -0.156663 0.817 255 255 255
-0.12679 -0.0576878 0.413 255 255 255
-0.205889 0.0227191 0.397 255 255 255
0.0814581 -0.0680694 0.777 255 255 255
-0.115576 -0.101723 0.409 255 255 255
0.269573 0.11463 0.617 255 255 255
-0.183878 0.12421 0.419 255 255 255
-0.133513 -0.0482786 0.413 255 255 255
0.0393698 -0.175988 0.703 0 0 0
0.0195436 0.147902 0.513 255 255 255
-0.129764 -0.140497 0.384 255 255 255
-0.11995 0.0394526 0.456 0 0 0
0.152749 -0.188697 0.944 255 255 255
-0.0970404 0.0106044 0.46 255 255 255
-0.124784 0.0567598 0.452 255 255 255
0.308439 0.100678 0.657 255 255 255
-0.164339 -0.129388 0.365 255 255 255
-0.137344 -0.0103076 0.427 255 255 255
-0.135776 0.134075 0.42 255 255 255
0.206674 -0.0541606 0.777 0 0 0
0.318432 -0.085596 0.824 255 255 255
0.0107666 0.112475 0.58 255 255 255
-0.111164 -0.0709682 0.42 255 255 255
0.101218 0.0904423 0.645 255 255 255
-0.190745 -0.0891972 0.361 0 0 0
0.114777 -0.178948 0.888 255 255 255
0.368436 -0.0228641 0.746 255 255 255
-0.10351 -0.100945 0.414 255 255 255
0.148695 0.0853263 0.646 0 0 0
0.0401684 -0.185828 0.697 0 0 0
-0.0670888 -0.035807 0.46 255 255 255
0.172687 0.155544 0.519 255 255 255
0.00713002 -0.196832 0.684 0 0 0
-0.172923 0.130812 0.414 255 255 255
-0.0928213 -0.0600271 0.44 255 255 255
-0.0576883 0.141463 0.502 255 255 255
-0.0444785 -0.149948 0.423 255 255 255
-0.0674102 0.0341258 0.719 255 255 255
-0.155826 -0.0950076 0.382 255 255 255
-0.18808 -0.0646736 0.372 0 0 0
-0.173367 0.136767 0.398 255 255 255
-0.0451654 0.00804755 0.802 0 0 0
-0.200577 0.0195379 0.398 255 255 255
0.177365 0.138367 0.541 255 255 255
0.231785 0.180625 0.474 255 255 255
-0.0812007 0.165972 0.447 255 255 255
0.354806 -0.220156 0.728 255 255 255
-0.157956 -0.0302076 0.405 255 255 255
0.367571 0.0913231 0.767 0 0 0
0.340004 -0.0830332 0.787 255 255 255
-0.08559 0.170402 0.436 255 255 255
-0.168364 -0.11783 0.366 255 255 255
0.264833 0.155109 0.538 255 255 255
-0.138976 -0.0920453 0.396 255 255 255
-0.240629 0.108877 0.514 255 255 255
0.0534135 0.0272701 0.756 255 255 255
0.0602343 -0.0778051 0.749 0 0 0
-0.0615305 -0.0204801 0.469 0 0 0
-0.168128 0.0642835 0.424 255 255 255
0.245342 0.17971 0.484 255 255 255
-0.117285 0.146179 0.408 255 255 255
-0.200139 0.114854 0.47 255 255 255
0.326406 -0.190996 0.773 255 255 255
0.0456688 -0.137688 0.712 255 255 255
0.33128 -0.0303211 0.816 255 255 255
-0.115293 -0.103466 0.408 255 255 255
0.204925 0.132527 0.561 255 255 255
-0.0215004 0.128605 0.537 255 255 255
-0.174522 0.018258 0.413 255 255 255
0.168504 0.118466 0.577 255 255 255
-0.154235 0.00421443 0.42 255 255 255
0.243391 -0.192077 0.938 255 255 255
0.0550778 0.0113663 0.762 255 255 255
0.326795 -0.263498 0.768 255 255 255
-0.0560998 -0.0472401 0.462 255 255 255
0.0783376 -0.293438 0.824 0 0 0
0.312667 0.115177 0.631 255 255 255
0.0967318 0.0465274 0.73 255 255 255
0.318766 -0.00933045 0.839 255 255 255
0.0841174 0.123374 0.578 255 255 255
-0.131248 0.119338 0.444 255 255 255
0.0145576 -0.0655101 0.721 255 255 255
-0.0292301 -0.290818 0.761 255 255 255
-0.215083 0.114938 0.42 255 255 255
0.305094 0.116302 0.626 255 255 255
0.0308687 -0.177739 0.692 0 0 0
0.303862 0.0390359 0.883 255 255 255
-0.0701811 -0.0512528 0.451 255 255 255
0.0508391 0.169282 0.45 255 255 255
-0.111026 0.0539041 0.459 255 255 255
0.21572 -0.156979 0.986 255 255 255
-0.0262179 0.0269354 0.782 255 255 255
0.0812254 0.0207041 0.787 255 255 255
0.199251 -0.291034 0.904 255 255 255
0.0168362 0.121788 0.562 255 255 255
-0.162275 0.0953675 0.552 255 255 255
0.116362 0.123705 0.584 0 0 0
0.0201515 0.0821931 0.638 255 255 255
-0.0983062 0.0342511 0.466 255 255 255
-0.00404515 -0.198847 0.691 0 0 0
0.368986 -0.0823312 0.735 255 255 255
0.0805663 0.0562467 0.703 255 255 255
-0.0682737 0.062329 0.49 255 255 255
-0.171161 0.0155697 0.413 255 255 255
-0.0639643 -0.129735 0.429 255 255 255
-0.18527 0.0637475 0.416 255 255 255
-0.0535322 0.167462 0.453 255 255 255
-0.0738929 0.0419616 0.485 255 255 255
-0.0621751 -0.161393 0.417 255 255 255
-0.192148 0.132828 0.394 255 255 255
0.0216896 0.132537 0.546 255 255 255
-0.102175 0.0942159 0.578 255 255 255
0.0276224 0.152247 0.508 255 255 255
-0.0533688 -0.145298 0.828 255 255 255
-0.166307 0.0504984 0.43 0 0 0
0.359532 -0.260977 0.707 255 255 255
0.156522 0.158872 0.533 0 0 0
0.160899 -0.218154 0.624 255 255 255
0.159922 -0.22638 0.941 255 255 255
0.327717 -0.13847 0.804 255 255 255
-0.113978 -0.0458531 0.428 255 255 255
0.135859 0.115982 0.574 255 255 255
0.339533 -0.0323707 0.801 255 255 255
0.269304 -0.0680231 0.912 255 255 255
-0.188288 -0.0414378 0.381 255 255 255
-0.0490304 0.147349 0.489 255 255 255
-0.103397 -0.149506 0.398 255 255 255
-0.170988 -0.131935 0.359 255 255 255
0.0804097 -0.0909084 0.767 255 255 255
-0.0576574 -0.0853307 0.445 0 0 0
0.181809 0.186341 0.489 255 255 255
-0.194958 0.0568409 0.415 255 255 255
0.203776 -0.299332 0.898 255 255 255
-0.121118 0.142919 0.412 255 255 255
-0.152305 0.134227 0.404 255 255 255
-0.0938578 0.104412 0.562 255 255 255
-0.154908 -0.137039 0.368 255 255 255
-0.0666221 -0.0897904 0.442 255 255 255
0.240592 -0.176594 0.945 255 255 255
-0.137204 0.0969634 0.556 255 255 255
-0.18101 0.0796102 0.414 255 255 255
0.193277 -0.0753639 0.774 255 255 255
0.296086 -0.199566 0.877 255 255 255
-0.151436 0.115625 0.518 255 255 255
0.00311935 0.119256 0.563 255 255 255
-0.120141 0.0864923 0.583 255 255 255
0.364304 -0.0919379 0.745 255 255 255
0.203963 0.138234 0.551 255 255 255
-0.0883515 0.128952 0.514 255 255 255
0.350319 -0.218983 0.736 255 255 255
0.0440595 0.139965 0.537 255 255 255
0.112936 0.161306 0.524 255 255 255
-0.133581 -0.123641 0.386 255 255 255
-0.0472455 0.0395616 0.733 255 255 255
-0.235237 0.117064 0.506 255 255 255
0.147046 0.0530422 0.738 255 255 255
0.342397 -0.272051 0.737 255 255 255
-0.211768 0.11647 0.507 255 255 255
0.242637 -0.171253 0.941 255 255 255
0.152479 -0.00649753 0.826 0 0 0
0.1849 0.132437 0.553 255 255 255
-0.130549 -0.0336153 0.423 255 255 255
-0.132877 0.111926 0.452 255 255 255
-0.133199 -0.0989869 0.398 255 255 255
-0.172654 -0.0767891 0.378 0 0 0
0.366415 0.0398868 0.762 255 255 255
0.0534129 0.0817491 0.651 255 255 255
0.0952493 0.151078 0.53 255 255 255
0.234137 0.104244 0.627 255 255 255
0.162463 -0.0291777 0.904 0 0 0
0.110459 -0.273996 0.759 255 255 255
-0.199959 -0.00620913 0.388 255 255 255
0.0865692 0.0156209 0.789 0 0 0
0.126372 0.137149 0.565 0 0 0
0.00469717 0.134838 0.534 255 255 255
0.165953 -0.218856 0.609 0 0 0
-0.185841 -0.110823 0.355 0 0 0
-0.149486 0.0333116 0.434 255 255 255
-0.0758359 -0.114376 0.429 255 255 255
0.0134396 -0.049288 0.724 0 0 0
-0.114432 0.132762 0.5 255 255 255
0.341732 -0.0615725 0.791 255 255 255
0.18891 -0.0595994 0.782 0 0 0
-0.0839393 0.141333 0.493 255 255 255
0.108737 -0.160602 0.852 0 0 0
0.34866 0.0653911 0.801 255 255 255
-0.0452753 0.16744 0.459 255 255 255
0.354153 -0.0847956 0.757 255 255 255
-0.162809 -0.0897068 0.378 255 255 255
0.301889 -0.0708939 0.857 255 255 255
-0.0319103 0.0300461 0.797 255 255 255
-0.11043 -0.0311008 0.436 0 0 0
-0.246424 0.114173 0.497 255 255 255
0.107784 -0.285013 0.749 255 255 255
0.196881 0.0174619 0.815 0 0 0
-0.165833 -0.106158 0.371 255 255 255
-0.177134 -0.0356171 0.392 255 255 255
0.0947702 0.0349267 0.762 255 255 255
-0.189631 -0.0930509 0.36 0 0 0
-0.182499 -0.066947 0.378 255 255 255
-0.147112 -0.142382 0.371 0 0 0
-0.0317763 0.150961 0.493 255 255 255
-0.018978 0.161341 0.474 255 255 255
0.19532 0.169295 0.495 0 0 0
0.209553 -0.101157 0.769 0 0 0
-0.201256 0.132491 0.393 255 255 255
-0.0872348 -0.11266 0.42 255 255 255
0.0949921 -0.230068 0.795 255 255 255
0.0552989 0.15925 0.504 255 255 255
0.127668 -0.260431 0.789 255 255 255
0.0586094 -0.306918 0.793 255 255 255
-0.0509507 -0.0220534 0.47 255 255 255
0.31863 0.0574112 0.857 255 255 255
-0.0157291 0.05943 0.662 0 0 0
0.135833 0.165882 0.517 255 255 255
0.319398 0.106115 0.651 255 255 255
0.297578 -0.0082879 0.873 255 255 255
0.180459 -0.0941991 0.784 255 255 255
0.358254 -0.183348 0.723 255 255 255
0.285599 0.131757 0.586 255 255 255
0.232467 0.0517381 0.754 0 0 0
-0.00124205 0.161925 0.478 255 255 255
-0.0745284 0.037937 0.484 0 0 0
0.177739 -0.1478 0.989 255 255 255
-0.0739225 -0.250279 0.762 255 255 255
0.106789 0.182939 0.474 255 255 255
0.263638 -0.028626 0.934 255 255 255
-0.0561841 -0.145818 0.423 0 0 0
-0.0795162 -0.0301683 0.454 255 255 255
-0.00784815 0.169683 0.455 255 255 255
0.322377 -0.0981641 0.817 255 255 255
-0.0779204 -0.0852361 0.861 255 255 255
0.190694 0.0758026 0.704 255 255 255
-0.0494051 -0.076599 0.449 0 0 0
0.111186 -0.270828 0.764 255 255 255
0.112421 0.103233 0.609 0 0 0
-0.13243 0.0562575 0.448 255 255 255
0.236007 -0.204506 0.939 255 255 255
0.364467 -0.149847 0.726 255 255 255
0.278548 0.0211626 0.918 255 255 255
0.204629 -0.232021 0.615 0 0 0
0.364278 -0.0403408 0.755 255 255 255
-0.106925 0.121848 0.523 255 255 255
-0.0931184 -0.145843 0.404 255 255 255
-0.0710169 -0.162711 0.814 255 255 255
0.317605 0.0644594 0.858 255 255 255
0.357507 -0.139407 0.746 255 255 255
-0.136721 0.0650014 0.443 255 255 255
0.0727732 0.0880068 0.635 0 0 0
-0.095307 -0.0664239 0.435 255 255 255
0.230242 0.181396 0.474 255 255 255
0.161226 0.137111 0.543 255 255 255
0.360403 0.0627274 0.784 255 255 255
-0.143971 -0.00471527 0.424 255 255 255
0.279592 -0.204313 0.879 255 255 255
-0.0401925 -0.145553 0.807 255 255 255
-0.11775 -0.134539 0.394 255 255 255
0.161252 -0.177465 0.958 255 255 255
0.128277 -0.201403 0.826 255 255 255
0.0331216 -0.184495 0.692 255 255 255
0.298636 0.0781436 0.84 255 255 255
-0.206591 0.058251 0.406 255 255 255
0.277789 -0.089196 0.901 255 255 255
-0.0679639 -0.020349 0.466 255 255 255
-0.181477 -0.0353445 0.389 255 255 255
-0.0175918 0.170801 0.458 255 255 255
0.344756 -0.0101731 0.798 255 255 255
-0.0880471 0.0254749 0.472 255 255 255
0.31875 -0.2034 0.782 255 255 255
-0.0511632 -0.107755 0.439 0 0 0
-0.196041 -0.0131885 0.389 255 255 255
-0.195394 0.0111181 0.398 255 255 255
-0.0818962 0.0517912 0.481 255 255 255
-0.134743 0.0610868 0.446 255 255 255
-0.176557 0.10779 0.525 255 255 255
-0.187255 -0.0789496 0.368 0 0 0
-0.0753877 -0.145086 0.415 255 255 255
0.00401139 -0.114088 0.724 0 0 0
0.0485728 0.163325 0.494 255 255 255
-0.211273 0.110148 0.52 255 255 255
0.0253677 0.140728 0.53 255 255 255
-0.108666 0.109144 0.549 255 255 255
0.196593 -0.165178 0.574 0 0 0
-0.190685 -0.00625713 0.391 255 255 255
-0.183243 -0.0679969 0.377 255 255 255
-0.21164 0.109932 0.523 255 255 255
0.0902089 0.103911 0.613 255 255 255
0.0738228 0.157085 0.513 255 255 255
-0.0992012 -0.145775 0.402 255 255 255
-0.238206 0.11014 0.516 255 255 255
-0.154802 -0.120728 0.375 255 255 255
0.341064 -0.131703 0.772 255 255 255
-0.165176 -0.0380096 0.397 255 255 255
-0.222153 0.113009 0.51 255 255 255
-0.194274 -0.0207314 0.388 255 255 255
0.364973 0.00391065 0.759 255 255 255
0.085472 -0.225438 0.779 0 0 0
-0.142102 0.111848 0.524 255 255 255
-0.0231574 -0.293591 0.765 255 255 255
0.191023 0.0789018 0.701 255 255 255
-0.162353 -0.0329239 0.398 255 255 255
0.198648 0.121914 0.58 255 255 255
-0.102072 0.107944 0.552 255 255 255
-0.107321 0.133028 0.501 255 255 255
0.0267058 -0.156094 0.701 0 0 0
-0.049445 -0.223911 0.787 255 255 255
0.0575354 -0.232948 0.796 255 255 255
-0.127982 -0.124288 0.39 255 255 255
0.190842 -0.0383541 0.79 255 255 255
-0.0832886 0.0430913 0.48 0 0 0
-0.0931597 0.121922 0.527 255 255 255
0.16998 0.0912836 0.651 255 255 255
-0.0965911 0.121064 0.527 255 255 255
-0.115496 0.0580041 0.456 255 255 255
0.30775 0.10953 0.64 255 255 255
0.247516 0.164598 0.513 255 255 255
0.0354256 -0.181379 0.693 255 255 255
0.355101 -0.264237 0.719 255 255 255
-0.0656679 -0.248177 0.767 255 255 255
0.23459 0.145064 0.543 255 255 255
-0.187658 -0.00886981 0.394 255 255 255
0.292643 -0.0862261 0.871 255 255 255
0.247546 -0.21651 0.925 255 255 255
-0.0457849 -0.0090413 0.813 0 0 0
-0.0487157 -0.154978 0.418 0 0 0
-0.13638 0.0483457 0.449 255 255 255
0.165341 0.135976 0.542 0 0 0
-0.139842 -0.0958248 0.393 255 255 255
0.344321 0.0751564 0.794 0 0 0
0.294122 -0.105583 0.867 255 255 255
-0.169905 -0.0232671 0.399 255 255 255
-0.0960897 0.0444881 0.47 255 255 255
0.0525657 0.0365231 0.744 0 0 0
-0.114845 -0.0709692 0.416 255 255 255
-0.115191 -0.0846241 0.41 255 255 255
0.165504 0.070572 0.709 0 0 0
0.0336891 0.159068 0.446 0 0 0
-0.043085 -0.0182799 0.812 0 0 0
-0.174423 -0.0539164 0.386 255 255 255
-0.080792 -0.139683 0.415 255 255 255
-0.129296 -0.0119165 0.435 255 255 255
0.37335 0.0332004 0.751 255 255 255
-0.200166 -0.0271062 0.38 255 255 255
-0.198933 0.117545 0.422 255 255 255
0.200878 0.0397626 0.784 255 255 255
0.0842356 0.178704 0.473 255 255 255
-0.161635 -0.00925252 0.411 255 255 255
0.0156088 0.158324 0.448 255 255 255
0.118089 -0.0119317 0.83 255 255 255
0.285983 -0.150905 0.868 255 255 255
0.199735 0.165309 0.5 255 255 255
-0.0975447 -0.128065 0.406 255 255 255
0.0729058 0.144335 0.537 255 255 255
-0.150329 -0.13116 0.37 255 255 255
0.233283 0.0334667 0.851 0 0 0
-0.0704104 -0.262554 0.751 255 255 255
0.323445 -0.141343 0.813 255 255 255
-0.0338123 -0.040459 0.781 0 0 0
0.00218333 0.120013 0.558 255 255 255
-0.16449 0.0219849 0.42 255 255 255
0.13455 -0.170161 0.935 255 255 255
0.317417 -0.255278 0.785 255 255 255
-0.102473 -0.130729 0.402 255 255 255
0.325865 -0.283015 0.76 255 255 255
0.355214 -0.200096 0.724 255 255 255
0.25391 0.0894209 0.677 255 255 255
0.145386 0.0488919 0.748 255 255 255
0.353742 -0.240332 0.721 255 255 255
0.36987 -0.0276457 0.744 255 255 255
-0.111727 -0.0752114 0.417 255 255 255
0.296307 -0.305942 0.804 255 255 255
0.228842 -0.0615341 0.825 255 255 255
-0.18726 0.00401374 0.4 255 255 255
-0.138362 0.131057 0.428 255 255 255
-0.190904 0.116033 0.424 255 255 255
-0.200819 0.11242 0.426 255 255 255
0.163248 0.106132 0.592 0 0 0
0.0151421 -0.138724 0.694 255 255 255
-0.148512 -0.134045 0.373 255 255 255
-0.052483 0.12252 0.541 255 255 255
-0.144661 -0.00540526 0.424 255 255 255
0.120777 -0.282007 0.754 255 255 255
0.191166 -0.220871 0.601 255 255 255
-0.152184 0.002164 0.42 255 255 255
0.329724 -0.206276 0.769 255 255 255
0.0353741 -0.277237 0.793 255 255 255
-0.128055 0.117497 0.448 255 255 255
0.324308 -0.220212 0.774 255 255 255
0.136617 0.182073 0.484 255 255 255
-0.135511 -0.0431096 0.415 255 255 255
-0.0631672 -0.0921563 0.443 0 0 0
-0.117003 0.041206 0.459 0 0 0
0.328326 0.0521093 0.839 255 255 255
0.296157 -0.190132 0.873 255 255 255
-0.0358096 0.0458263 0.719 255 255 255
-0.00152268 0.10601 0.586 255 255 255
-0.0481358 0.14943 0.488 255 255 255
0.176598 0.17141 0.506 255 255 255
0.0421918 -0.168972 0.712 0 0 0
-0.00522914 0.157048 0.487 255 255 255
0.193757 -0.206617 0.591 255 255 255
0.217746 -0.108371 0.785 0 0 0
0.33914 0.0768594 0.785 0 0 0
0.203133 -0.160508 0.574 0 0 0
-0.0463712 -0.102505 0.441 255 255 255
-0.17214 0.0272566 0.417 255 255 255
-0.185307 0.00141002 0.4 255 255 255
0.0101092 0.0338725 0.739 255 255 255
0.188499 -0.228248 0.605 255 255 255
0.0774695 0.175997 0.474 255 255 255
-0.212327 0.120124 0.412 255 255 255
0.0728659 -0.155211 0.729 0 0 0
-0.0758273 -0.10442 0.437 255 255 255
0.30998 0.0903455 0.684 255 255 255
-0.059897 -0.187577 0.807 255 255 255
-0.078675 -0.0737989 0.441 255 255 255
-0.19272 -0.065596 0.367 0 0 0
0.17563 0.129303 0.555 255 255 255
-0.006421 0.0984491 0.598 255 255 255
0.169293 -0.32435 0.871 255 255 255
-0.185084 -0.0618619 0.377 255 255 255
-0.1576 0.122019 0.433 255 255 255
-0.0805145 0.118778 0.54 255 255 255
0.0185299 0.0338725 0.739 255 255 255
0.303916 0.0345678 0.879 255 255 255
-0.158959 -0.0132655 0.411 255 255 255
-0.0426606 0.0342351 0.804 255 255 255
-0.00617027 0.14955 0.499 255 255 255
-0.140952 -0.103079 0.389 255 255 255
-0.120282 -0.115245 0.396 255 255 255
0.172578 0.101877 0.601 0 0 0
0.111356 -0.231805 0.801 0 0 0
0.253021 -0.170981 0.923 255 255 255
-0.165842 0.125192 0.427 255 255 255
0.0900087 0.182517 0.467 255 255 255
-0.178473 -0.0763828 0.376 255 255 255
0.0850441 -0.274666 0.824 255 255 255
0.194317 -0.016687 0.799 255 255 255
0.267698 -0.203285 0.887 255 255 255
-0.0103129 -0.113738 0.737 0 0 0
-0.0673526 -0.234719 0.772 255 255 255
-0.0505054 0.166693 0.459 255 255 255
0.358282 0.107389 0.716 255 255 255
-0.123538 -0.135077 0.39 255 255 255
-0.0940784 -0.109141 0.417 255 255 255
-0.0894042 -0.0326858 0.448 255 255 255
0.159525 -0.178837 0.957 255 255 255
-0.0581214 -0.15838 0.819 255 255 255
0.367479 -0.0253937 0.749 255 255 255
-0.0952065 -0.0932816 0.422 255 255 255
0.0409175 -0.161564 0.71 255 255 255
-0.0706396 0.150571 0.479 255 255 255
-0.0501753 0.167829 0.456 255 255 255
0.000449506 -0.182362 0.684 0 0 0
-0.133326 -0.00269522 0.432 255 255 255
0.038214 0.165085 0.485 255 255 255
-0.210934 0.112839 0.513 255 255 255
-0.155215 -0.116155 0.376 255 255 255
-0.0593261 0.0499801 0.68 255 255 255
-0.162861 0.0528423 0.432 255 255 255
-0.0873754 -0.102003 0.424 255 255 255
0.272029 -0.164312 0.887 255 255 255
0.103249 -0.20384 0.809 0 0 0
0.185676 -0.0323707 0.801 255 255 255
0.188154 -0.205956 0.96 255 255 255
-0.141621 0.147778 0.398 255 255 255
0.372927 -0.0640395 0.731 255 255 255
-0.1664 -0.0950973 0.375 255 255 255
-0.068985 -0.0582023 0.448 255 255 255
0.0988003 0.177347 0.484 255 255 255
0.183177 0.151612 0.52 0 0 0
-0.010173 -0.100364 0.727 0 0 0
-0.06002 0.142812 0.501 255 255 255
-0.000681384 -0.1289 0.702 0 0 0
-0.0244665 -0.104638 0.767 255 255 255
-0.211022 0.104504 0.53 255 255 255
-0.170128 0.149297 0.382 255 255 255
0.0306007 0.0351226 0.74 0 0 0
-0.0345629 0.0762778 0.632 255 255 255
-0.0450361 -0.285216 0.756 255 255 255
-0.0440184 -0.127127 0.432 255 255 255
0.0489982 -0.0640536 0.745 0 0 0
0.219997 0.156991 0.521 255 255 255
0.114488 -0.279183 0.753 255 255 255
-0.122777 0.00225159 0.437 255 255 255
-0.184609 0.114769 0.427 255 255 255
0.163605 0.166723 0.517 0 0 0
-0.0745718 -0.138653 0.418 255 255 255
0.140707 0.066236 0.712 0 0 0
0.264263 0.165359 0.518 255 255 255
-0.0874156 -0.150158 0.405 255 255 255
0.360613 -0.23284 0.716 255 255 255
0.198932 -0.270115 0.923 255 255 255
0.173988 0.169607 0.508 255 255 255
-0.109048 -0.147736 0.395 255 255 255
-0.0406905 -0.104812 0.817 255 255 255
0.187667 -0.133037 0.999 255 255 255
0.0397058 -0.165952 0.709 255 255 255
-0.0773881 0.113611 0.549 255 255 255
-0.184933 -0.118944 0.35 0 0 0
-0.102859 -0.057796 0.434 255 255 255
-0.164162 0.00550165 0.414 255 255 255
-0.0815557 0.0344271 0.479 0 0 0
-0.164388 0.0171186 0.418 255 255 255
-0.15306 -0.0897209 0.386 255 255 255
0.241864 -0.205815 0.938 255 255 255
-0.029691 -0.0777823 0.773 255 255 255
0.3725 -0.00704424 0.742 255 255 255
0.185369 -0.234817 0.938 255 255 255
0.18289 -0.193755 0.587 255 255 255
0.110907 -0.148251 0.869 0 0 0
-0.0556267 -0.143403 0.424 0 0 0
-0.0534941 -0.0558967 0.459 255 255 255
0.0503842 0.163179 0.496 255 255 255
-0.173246 0.141904 0.389 255 255 255
-0.0247855 -0.277965 0.777 255 255 255
-0.0962942 0.0583792 0.471 255 255 255
-0.0374255 -0.0141747 0.804 0 0 0
0.0408898 0.0185596 0.752 255 255 255
-0.0789066 -0.12379 0.423 255 255 255
0.122282 0.064529 0.706 255 255 255
0.169689 -0.139753 0.989 255 255 255
0.329026 -0.0223811 0.817 255 255 255
0.304355 -0.0152325 0.864 255 255 255
0.214151 -0.258964 0.937 255 255 255
0.347404 -0.217764 0.74 255 255 255
0.205002 -0.164244 0.574 0 0 0
-0.116869 -0.107832 0.402 0 0 0
0.280847 -0.15906 0.874 255 255 255
-0.0581027 0.159376 0.466 255 255 255
0.307526 0.0329112 0.873 255 255 255
0.0134583 0.115048 0.574 255 255 255
-0.0732877 -0.0986711 0.856 255 255 255
-0.164907 0.0567961 0.43 255 255 255
-0.227897 0.11422 0.508 255 255 255
-0.079172 0.00769281 0.465 255 255 255
-0.0954543 0.158925 0.456 255 255 255
0.0955087 0.105251 0.615 255 255 255
-0.0716493 -0.0490511 0.451 255 255 255
-0.0800873 0.139805 0.499 255 255 255
-0.167307 -0.025215 0.399 255 255 255
0.105164 -0.0936415 0.824 255 255 255
-0.15638 0.14188 0.396 255 255 255
-0.0606136 -0.126539 0.43 0 0 0
0.102369 -0.238222 0.792 255 255 255
-0.172959 0.0787732 0.424 255 255 255
-0.0775193 0.0378586 0.483 255 255 255
0.217333 -0.156115 0.582 0 0 0
0.351117 -0.0261735 0.772 255 255 255
-0.17958 -0.113283 0.361 255 255 255
-0.0792952 0.0846832 0.597 255 255 255
0.178754 -0.0524776 1.013 0 0 0
-0.143756 0.142116 0.404 255 255 255
0.285983 -0.146668 0.868 255 255 255
-0.000538701 0.122078 0.555 255 255 255
0.150889 0.180278 0.492 255 255 255
0.08251 -0.0956401 0.775 255 255 255
-0.113782 0.1291 0.508 255 255 255
0.0388745 -0.0777579 0.737 255 255 255
0.0406405 0.103197 0.603 255 255 255
-0.146687 0.023316 0.432 255 255 255
-0.142174 -0.0535381 0.407 255 255 255
-0.116687 0.142657 0.476 255 255 255
-0.115293 -0.0928427 0.408 255 255 255
-0.193079 0.0703385 0.411 255 255 255
0.135039 0.140241 0.559 0 0 0
-0.05403 -0.0703349 0.451 255 255 255
-0.0630886 -0.113195 0.85 255 255 255
-0.0721939 -0.134532 0.42 255 255 255
0.314812 0.0267607 0.858 255 255 255
-0.16008 -0.0588809 0.394 255 255 255
0.37683 0.0951856 0.758 255 255 255
0.0443251 -0.0399667 0.748 0 0 0
0.0669045 0.0479655 0.716 255 255 255
-0.0950338 -0.0631735 0.437 255 255 255
0.273839 0.143226 0.56 255 255 255
0.376796 0.100685 0.753 0 0 0
-0.0285208 0.0955345 0.592 255 255 255
-0.039317 0.151501 0.487 255 255 255
0.273982 0.0839682 0.715 255 255 255
-0.175566 -0.121757 0.36 255 255 255
0.287564 0.127756 0.594 255 255 255
0.106185 -0.0742416 0.832 255 255 255
-0.169508 0.0622135 0.424 255 255 255
0.192482 -0.208281 0.593 255 255 255
-0.0292893 0.117825 0.552 255 255 255
-0.189709 0.137473 0.389 255 255 255
-0.114411 -0.083696 0.412 255 255 255
0.0453809 0.0585751 0.69 255 255 255
-0.0735855 0.0790567 0.606 255 255 255
0.0894587 0.0556513 0.71 255 255 255
0.17849 -0.176004 0.582 0 0 0
0.0896351 -0.284052 0.805 255 255 255
-0.16391 -0.0720069 0.382 255 255 255
-0.139913 -0.121419 0.381 255 255 255
0.284462 -0.172886 0.872 255 255 255
0.270716 -0.145729 0.897 255 255 255
0.0519697 0.0469964 0.719 255 255 255
-0.136184 -0.0825235 0.403 255 255 255
-0.108364 -0.0158112 0.445 255 255 255
0.0954476 0.122754 0.584 255 255 255
-0.185882 0.119606 0.422 255 255 255
0.0957885 0.149331 0.533 255 255 255
-0.187979 0.0515621 0.416 0 0 0
-0.174423 -0.0589416 0.386 255 255 255
0.0431651 -0.0192994 0.749 255 255 255
0.0724174 0.085709 0.641 0 0 0
0.119013 0.152788 0.536 255 255 255
-0.0206262 0.128605 0.537 255 255 255
-0.00474596 0.169869 0.442 0 0 0
0.156569 0.0647267 0.721 255 255 255
0.192023 -0.124121 0.764 0 0 0
-0.04082 0.0555372 0.667 255 255 255
-0.223552 0.107816 0.521 255 255 255
0.182502 0.158967 0.511 0 0 0
-0.148117 0.0070476 0.426 255 255 255
0.358254 -0.185701 0.723 255 255 255
0.335042 -0.187529 0.764 255 255 255
-0.145391 -0.111127 0.384 255 255 255
-0.196406 0.117952 0.421 255 255 255
0.343898 -0.255212 0.73 255 255 255
0.320432 -0.194741 0.783 255 255 255
0.0678562 0.0751875 0.668 0 0 0
0.237466 0.0675452 0.739 0 0 0
-0.0164884 -0.114973 0.745 0 0 0
-0.0954543 -0.00358701 0.456 255 255 255
-0.00668869 0.162703 0.478 255 255 255
0.0981029 -0.0973231 0.81 255 255 255
-0.138683 0.0503126 0.447 255 255 255
-0.18864 0.0390927 0.413 255 255 255
-0.182591 -0.0400972 0.386 255 255 255
0.240029 0.15619 0.524 255 255 255
-0.200643 0.0443764 0.406 255 255 255
-0.0958833 -0.0856453 0.425 255 255 255
0.0355789 0.0556866 0.696 255 255 255
-0.164162 0.132834 0.414 255 255 255
-0.107958 0.142102 0.482 255 255 255
0.157412 0.177514 0.5 255 255 255
0.0111215 -0.263061 0.813 255 255 255
-0.0929424 -0.033839 0.444 255 255 255
-0.145898 0.106081 0.538 255 255 255
0.0828425 0.0691967 0.684 255 255 255
-0.0305089 -0.28872 0.762 255 255 255
0.359122 0.00272486 0.773 255 255 255
-0.190686 0.120833 0.508 255 255 255
-0.153495 0.0933442 0.556 255 255 255
-0.183706 0.0809576 0.414 255 255 255
0.326717 -0.132585 0.808 255 255 255
-0.125631 -0.0365407 0.425 255 255 255
0.194801 0.135136 0.553 255 255 255
0.166887 0.126596 0.559 255 255 255
0.199748 -0.234037 0.941 255 255 255
0.172759 0.182183 0.495 255 255 255
0.0981526 -0.29009 0.779 255 255 255
-0.1848 0.0606529 0.418 255 255 255
0.31806 0.110214 0.644 255 255 255
0.361546 -0.0330563 0.757 255 255 255
0.172673 -0.175905 0.588 0 0 0
0.06143 0.119405 0.577 255 255 255
0.351382 -0.106017 0.759 255 255 255
-0.123927 0.147507 0.408 255 255 255
-0.130356 0.11984 0.518 255 255 255
0.220202 0.166632 0.504 255 255 255
0.313983 -0.268394 0.786 255 255 255
-0.104512 0.149565 0.41 255 255 255
0.104493 0.162202 0.516 255 255 255
0.104853 0.088754 0.648 0 0 0
-0.131603 0.122857 0.513 255 255 255
-0.174773 -0.0387077 0.391 255 255 255
-0.205574 0.0757149 0.404 255 255 255
-0.16631 0.132121 0.416 255 255 255
-0.128761 0.124853 0.438 255 255 255
-0.13293 0.12836 0.433 255 255 255
-0.0179033 0.131362 0.534 255 255 255
-0.181774 -0.0272546 0.391 255 255 255
-0.170827 -0.0954524 0.374 0 0 0
0.177982 -0.0807785 0.79 255 255 255
0.0455997 0.166901 0.488 255 255 255
-0.16842 0.0661969 0.423 255 255 255
0.00891911 0.0744476 0.652 255 255 255
0.301109 -0.21335 0.875 255 255 255
-0.0893933 -0.147522 0.405 255 255 255
-0.059239 -0.0739098 0.446 0 0 0
0.027966 -0.148743 0.704 255 255 255
-0.153133 0.135841 0.401 255 255 255
0.20827 0.167415 0.499 255 255 255
-0.0867563 -0.150817 0.405 255 255 255
-0.124169 -0.0727916 0.411 255 255 255
-0.192853 -0.0350527 0.379 0 0 0
-0.165757 0.0692764 0.425 255 255 255
-0.208902 0.106889 0.529 255 255 255
-0.137343 0.110093 0.532 255 255 255
0.0171276 -0.291047 0.785 255 255 255
-0.11101 -0.0502658 0.43 0 0 0
0.315167 -0.143719 0.819 255 255 255
0.0566412 0.0768983 0.664 255 255 255
0.0251143 0.121089 0.563 255 255 255
0.32262 -0.280133 0.776 255 255 255
-0.187941 -0.0757489 0.367 0 0 0
0.187641 -0.186102 0.581 0 0 0
-0.0876852 -0.0539482 0.443 255 255 255
0.247546 -0.227047 0.925 255 255 255
0.255674 0.152766 0.539 255 255 255
0.0509986 0.171022 0.445 255 255 255
-0.0988807 -0.0759795 0.429 255 255 255
0.335649 -0.277801 0.746 255 255 255
-0.17105 0.0364244 0.421 255 255 255
0.357279 -0.143683 0.743 255 255 255
0.24241 -0.159221 0.59 255 255 255
0.249496 0.0699504 0.739 0 0 0
-0.191537 0.040339 0.412 255 255 255
-0.0789939 0.131205 0.513 255 255 255
0.028409 0.0583204 0.687 255 255 255
-0.118817 -0.0788111 0.411 255 255 255
-0.180096 0.0777765 0.415 255 255 255
0.191245 -0.00241129 0.808 255 255 255
0.1569 -0.170024 0.96 255 255 255
0.323654 0.011083 0.834 255 255 255
0.29873 -0.0489768 0.864 255 255 255
0.347603 -0.217438 0.743 255 255 255
-0.093735 0.126934 0.516 255 255 255
0.243632 0.0903889 0.676 255 255 255
-0.209539 0.111893 0.424 255 255 255
0.0415914 0.138732 0.539 255 255 255
-0.019293 -0.253487 0.812 255 255 255
-0.0780008 0.0610293 0.486 0 0 0
-0.165393 -0.0673847 0.384 255 255 255
-0.0597695 0.0014954 0.788 255 255 255
-0.133116 0.0354442 0.443 255 255 255
-0.0387858 -0.158146 0.421 255 255 255
-0.146523 -0.0628746 0.399 0 0 0
0.337442 -0.116332 0.787 255 255 255
-0.022552 -0.136795 0.745 255 255 255
-0.0271393 -0.0399928 0.772 0 0 0
0.103289 0.156226 0.527 255 255 255
-0.201409 0.117672 0.42 255 255 255
-0.0806557 -0.0533475 0.444 255 255 255
-0.00151749 0.106598 0.584 255 255 255
0.0606668 0.099569 0.617 255 255 255
0.227775 -0.134194 0.826 255 255 255
0.0169283 -0.0573764 0.722 255 255 255
-0.0126177 0.151377 0.497 255 255 255
-0.160461 -0.128902 0.367 255 255 255
-0.005155 -0.185938 0.689 0 0 0
-0.162809 -0.0767891 0.378 255 255 255
0.306006 -0.138208 0.834 255 255 255
-0.157798 0.107546 0.528 255 255 255
-0.0170851 0.155144 0.486 255 255 255
-0.13814 -0.103978 0.39 255 255 255
-0.208784 0.121246 0.409 255 255 255
0.36494 0.085637 0.772 0 0 0
-0.0531587 0.0526728 0.672 0 0 0
0.297801 0.126328 0.601 255 255 255
-0.0746824 0.0466971 0.485 255 255 255
-0.0362791 0.0863854 0.609 255 255 255
0.210959 0.119768 0.588 0 0 0
-0.126389 -0.101833 0.399 255 255 255
0.303613 -0.0775945 0.854 255 255 255
-0.0861723 0.130694 0.511 255 255 255
0.189524 -0.223198 0.602 255 255 255
0.255228 0.129911 0.582 255 255 255
-0.183176 -0.123283 0.351 255 255 255
-0.160994 0.147346 0.39 255 255 255
0.0230574 0.0417756 0.73 0 0 0
-0.0695776 0.119866 0.537 255 255 255
-0.0754823 -0.117317 0.427 255 255 255
0.199975 0.180944 0.481 255 255 255
-0.0892041 0.0223076 0.47 255 255 255
0.175387 0.154103 0.517 0 0 0
-0.0659795 -0.135123 0.424 255 255 255
-0.118237 -0.0183295 0.436 255 255 255
0.31638 -0.189246 0.792 255 255 255
0.353263 0.0322714 0.788 255 255 255
0.107993 0.142718 0.551 255 255 255
0.028409 0.0594384 0.687 255 255 255
0.00945261 -0.158365 0.691 0 0 0
0.222427 0.062565 0.737 255 255 255
0.0529443 -0.284052 0.805 255 255 255
-0.0758297 -0.00625368 0.795 255 255 255
-0.135037 -0.133899 0.383 255 255 255
-0.0812676 0.00465594 0.464 255 255 255
-0.157415 -0.0688952 0.389 255 255 255
0.178225 -0.113135 1.01 255 255 255
0.165426 0.187985 0.483 255 255 255
0.0643049 0.0821259 0.654 255 255 255
0.195338 -0.0635114 1.005 255 255 255
-0.0284328 -0.149484 0.773 255 255 255
0.193773 0.0475754 0.766 255 255 255
0.316867 -0.188768 0.79 255 255 255
-0.0428789 -0.0984218 0.442 255 255 255
-0.0898033 0.162692 0.45 255 255 255
0.1941 0.16883 0.496 0 0 0
0.174812 -0.171321 0.592 255 255 255
-0.104635 0.136543 0.496 255 255 255
-0.15214 -0.00532877 0.418 255 255 255
0.148794 0.0341288 0.772 255 255 255
0.2488 0.145773 0.549 255 255 255
-0.241826 0.11377 0.506 255 255 255
-0.0320826 -0.186495 0.77 255 255 255
-0.150786 -0.0356554 0.407 255 255 255
-0.0853338 0.0271255 0.474 255 255 255
0.189637 0.174831 0.497 255 255 255
0.245019 0.153668 0.533 255 255 255
-0.110801 -0.136246 0.399 255 255 255
0.334165 -0.231679 0.762 255 255 255
0.359346 -0.160176 0.73 255 255 255
0.33299 -0.196488 0.765 255 255 255
-0.0624217 0.167801 0.448 255 255 255
0.164022 0.145588 0.532 0 0 0
0.197261 0.0772761 0.707 255 255 255
0.0892067 0.0566467 0.708 255 255 255
0.190106 -0.156652 0.577 0 0 0
-0.144447 0.0656933 0.438 255 255 255
-0.149438 -0.075999 0.393 255 255 255
0.110513 -0.124297 0.814 255 255 255
-0.0779995 0.0824535 0.602 255 255 255
0.235228 -0.20516 0.942 255 255 255
0.271478 0.105034 0.638 255 255 255
-0.142308 0.120577 0.438 255 255 255
-0.116842 0.134915 0.493 255 255 255
0.380258 0.0425196 0.743 255 255 255
0.0956703 0.0901619 0.643 255 255 255
-0.124213 0.122974 0.517 255 255 255
0.180725 0.130873 0.554 255 255 255
0.0996207 -0.226591 0.801 255 255 255
0.17765 -0.265994 0.914 255 255 255
0.0917363 -0.146455 0.812 255 255 255
0.35665 -0.0358954 0.765 255 255 255
0.234191 -0.236319 0.944 255 255 255
0.060444 0.171753 0.486 255 255 255
0.274483 -0.123557 0.895 255 255 255
0.0466978 -0.00344487 0.747 255 255 255
-0.0589351 0.0298961 0.73 255 255 255
-0.201963 -0.00241447 0.387 255 255 255
-0.123429 0.143938 0.413 255 255 255
0.361423 -0.205178 0.713 255 255 255
-0.0419645 0.154331 0.481 255 255 255
0.357248 -0.116653 0.748 255 255 255
-0.161077 0.132513 0.413 255 255 255
-0.0781243 -0.107409 0.848 255 255 255
0.316139 -0.259111 0.785 255 255 255
0.363643 0.0611381 0.78 255 255 255
-0.161086 -0.108842 0.374 255 255 255
0.134254 -0.113279 0.883 0 0 0
-0.202069 -0.00554897 0.386 255 255 255
0.203924 -0.0430009 0.781 255 255 255
0.212914 -0.272205 0.925 255 255 255
0.15024 0.17388 0.506 255 255 255
0.219223 0.126917 0.577 255 255 255
-0.120423 0.136723 0.488 255 255 255
0.194609 0.0551251 0.75 255 255 255
0.171516 -0.0550066 0.808 255 255 255
0.254869 0.168114 0.511 255 255 255
-0.0797143 -0.130431 0.42 255 255 255
0.167384 -0.222088 0.607 255 255 255
0.0964162 0.0919677 0.641 255 255 255
0.203171 -0.0405626 0.783 255 255 255
0.364765 -0.173174 0.715 255 255 255
0.291138 -0.117948 0.875 255 255 255
-0.0365476 0.137583 0.515 255 255 255
0.0707113 0.164317 0.497 255 255 255
-0.146393 -0.0906507 0.39 255 255 255
-0.0870271 -0.119892 0.419 255 255 255
-0.128341 0.0702658 0.449 255 255 255
-0.141231 -0.0143073 0.422 255 255 255
-0.198781 0.0123823 0.397 255 255 255
-0.168407 0.119774 0.43 255 255 255
0.0640927 0.0961722 0.621 255 255 255
-0.0671191 -0.160232 0.414 255 255 255
-0.140899 -0.131801 0.377 255 255 255
0.305412 0.00446711 0.867 255 255 255
-0.101814 0.134663 0.498 255 255 255
-0.103384 -0.127119 0.403 255 255 255
-0.155101 -0.0127193 0.415 255 255 255
-0.206377 0.0689694 0.403 255 255 255
-0.18089 -0.124996 0.351 255 255 255
0.202531 0.161848 0.507 255 255 255
-0.0665427 0.115187 0.548 255 255 255
0.0586258 0.077744 0.662 255 255 255
0.285554 -0.172688 0.871 255 255 255
-0.108692 0.151467 0.465 255 255 255
0.112566 -0.179175 0.882 255 255 255
-0.0779571 -0.0709283 0.441 255 255 255
-0.175962 0.00474631 0.407 255 255 255
-0.107861 0.00527108 0.452 255 255 255
-0.160985 0.0116768 0.418 255 255 255
0.136528 0.124231 0.569 255 255 255
0.0923115 0.153086 0.528 255 255 255
0.271884 0.0335827 0.931 255 255 255
-0.117481 0.124656 0.517 255 255 255
-0.0154865 0.0904979 0.61 255 255 255
0.254788 -0.0164843 0.935 255 255 255
-0.148 -0.0740015 0.396 0 0 0
-0.118892 -0.108597 0.4 0 0 0
-0.0603497 -0.0477842 0.46 0 0 0
0.0359734 0.0623353 0.682 255 255 255
-0.160134 -0.0628866 0.391 255 255 255
-0.0666578 0.165622 0.452 255 255 255
-0.177319 -0.0342537 0.391 255 255 255
0.325865 -0.280541 0.76 255 255 255
0.037525 -0.299607 0.784 255 255 255
0.101396 0.0434344 0.738 255 255 255
0.36626 -0.0241749 0.749 255 255 255
-0.113477 -0.135563 0.397 255 255 255
0.12837 0.155986 0.535 255 255 255
0.15251 -0.0175642 0.841 255 255 255
-0.127201 0.00942729 0.44 255 255 255
-0.0940191 0.147768 0.475 255 255 255
-0.0958843 -0.108879 0.416 255 255 255
-0.10276 -0.111584 0.411 255 255 255
-0.146256 -0.131102 0.375 255 255 255
-0.146499 -0.110549 0.382 255 255 255
-0.0418661 -0.171984 0.814 255 255 255
0.0334819 0.147099 0.522 255 255 255
-0.163001 -0.03681 0.398 255 255 255
0.171189 -0.219644 0.603 255 255 255
-0.0639555 -0.272096 0.747 255 255 255
0.319269 -0.225251 0.774 255 255 255
0.137046 0.169941 0.509 255 255 255
-0.139921 0.0579228 0.444 255 255 255
0.167407 0.0968256 0.6 0 0 0
-0.168498 -0.127012 0.365 0 0 0
0.354785 -0.0220854 0.761 255 255 255
-0.143099 0.142774 0.404 255 255 255
0.21736 0.0862356 0.705 255 255 255
-0.0384602 0.101498 0.582 255 255 255
-0.0582792 0.0534463 0.668 0 0 0
0.363457 -0.00970141 0.761 255 255 255
-0.148308 0.0546608 0.441 255 255 255
-0.0911133 0.103497 0.562 255 255 255
0.000486308 0.0327141 0.74 255 255 255
-0.0648133 -0.120241 0.43 255 255 255
-0.198128 0.122486 0.508 255 255 255
-0.159635 0.073419 0.429 255 255 255
-0.0206232 -0.174385 0.72 255 255 255
-0.0938253 -0.0618926 0.438 255 255 255
-0.0524037 -0.217875 0.793 255 255 255
0.18495 0.183907 0.491 0 0 0
-0.236984 0.106147 0.517 255 255 255
-0.184743 -0.0102037 0.396 255 255 255
0.0746541 0.143461 0.537 255 255 255
-0.174637 0.134562 0.407 255 255 255
0.30224 -0.0180863 0.866 255 255 255
-0.0756422 -0.124773 0.424 255 255 255
-0.135581 0.123857 0.437 255 255 255
0.374629 -0.0367294 0.732 255 255 255
-0.112796 -0.0982072 0.411 255 255 255
-0.103255 0.0256314 0.461 255 255 255
-0.152155 -0.120438 0.376 255 255 255
0.357934 -0.0976968 0.752 255 255 255
0.140864 0.0109103 0.821 0 0 0
-0.200741 0.0841225 0.413 255 255 255
0.0570298 -0.00225313 0.755 255 255 255
0.360421 -0.122962 0.742 255 255 255
-0.0494189 0.0206518 0.485 255 255 255
0.198557 0.139645 0.546 255 255 255
0.0757427 0.115546 0.586 0 0 0
-0.199065 0.129309 0.395 255 255 255
0.229645 0.160523 0.516 255 255 255
0.0406179 0.0293767 0.747 255 255 255
-0.0583286 -0.00372861 0.474 255 255 255
0.178763 -0.18675 0.586 255 255 255
0.270716 -0.0344456 0.927 255 255 255
-0.139524 -0.0555251 0.407 255 255 255
-0.0544403 -0.123326 0.431 0 0 0
0.189733 -0.0851942 1.01 255 255 255
0.171473 -0.222956 0.604 255 255 255
0.155636 0.146561 0.542 255 255 255
-0.155798 -0.121298 0.373 255 255 255
0.0246706 0.115982 0.574 255 255 255
-0.187735 0.122456 0.42 255 255 255
-0.174591 -0.125159 0.358 0 0 0
0.0966089 0.153945 0.528 255 255 255
-0.0876852 -0.05539 0.443 255 255 255
0.327609 -0.167773 0.788 255 255 255
0.0495901 0.028425 0.754 255 255 255
-0.087224 0.091549 0.585 255 255 255
-0.133399 0.11861 0.52 255 255 255
0.206511 -0.104638 0.767 0 0 0
0.023501 0.160735 0.491 255 255 255
-0.0586318 -0.242571 0.773 255 255 255
0.0618288 0.123955 0.572 255 255 255
0.148085 0.137983 0.55 255 255 255
-0.0654487 -0.0409578 0.459 0 0 0
0.0665075 -0.0865677 0.751 255 255 255
0.225504 -0.180075 0.586 0 0 0
0.342457 -0.241617 0.732 255 255 255
-0.0457193 -0.131737 0.836 255 255 255
-0.137519 0.141809 0.405 255 255 255
0.307104 -0.171831 0.826 255 255 255
-0.0303311 0.0873765 0.609 255 255 255
-0.0841442 0.031113 0.476 255 255 255
0.333175 -0.162231 0.786 255 255 255
0.130026 0.109253 0.573 0 0 0
-0.137864 0.00645878 0.433 255 255 255
-0.06258 0.00789133 0.477 0 0 0
-0.0974022 0.108645 0.551 255 255 255
0.169761 0.155891 0.523 255 255 255
-0.0579108 -0.108438 0.436 0 0 0
-0.177316 0.0776585 0.418 255 255 255
0.300144 -0.139068 0.856 255 255 255
-0.0638802 0.16853 0.448 255 255 255
-0.0388306 0.00677607 0.806 255 255 255
-0.194998 0.14634 0.376 255 255 255
-0.169508 0.0635935 0.424 255 255 255
0.0944765 0.0900217 0.642 255 255 255
0.210608 0.128125 0.574 255 255 255
-0.0636296 0.0238088 0.485 0 0 0
-0.124948 -0.0873166 0.407 255 255 255
0.108599 0.099142 0.627 255 255 255
-0.0884288 0.170402 0.436 255 255 255
0.161625 -0.221442 0.619 0 0 0
0.327026 -0.022518 0.822 255 255 255
-0.171093 -0.0703931 0.38 255 255 255
0.354152 -0.170569 0.739 255 255 255
0.1574 0.140386 0.542 0 0 0
0.124089 -0.18865 0.914 255 255 255
0.0456645 -0.0425146 0.75 255 255 255
-0.185117 0.136493 0.401 255 255 255
-0.0574792 -0.0403861 0.461 0 0 0
-0.10977 0.0345587 0.46 255 255 255
0.217859 0.110351 0.61 255 255 255
0.0891679 0.0857225 0.649 255 255 255
-0.170198 0.0794632 0.424 255 255 255
0.18535 -0.105229 1.013 255 255 255
0.0788917 0.161341 0.508 255 255 255
0.0117511 0.110969 0.582 255 255 255
-0.0543894 -0.0634147 0.454 255 255 255
0.126894 0.183692 0.48 255 255 255
0.0158902 -0.286666 0.787 255 255 255
-0.156873 -0.0614456 0.394 0 0 0
0.0965107 0.16614 0.505 255 255 255
0.201708 -0.122717 0.763 255 255 255
-0.190958 0.110994 0.52 255 255 255
-0.158675 -0.0112864 0.412 255 255 255
-0.0159226 0.135386 0.526 255 255 255
0.352216 -0.187499 0.73 255 255 255
0.350767 -0.0275009 0.774 255 255 255
-0.154919 0.00694834 0.42 255 255 255
-0.0811132 0.052574 0.481 255 255 255
0.16936 -0.229991 0.607 255 255 255
-0.19047 0.120406 0.42 255 255 255
0.287396 0.0666232 0.868 255 255 255
-0.157128 -0.0100179 0.415 255 255 255
0.101019 0.165148 0.507 255 255 255
0.0696926 -0.289616 0.817 0 0 0
0.049135 -0.272939 0.807 255 255 255
0.0114163 0.0912397 0.615 255 255 255
-0.177641 0.0317765 0.414 255 255 255
-0.0356567 0.0638374 0.652 255 255 255
0.155823 -0.123542 0.963 0 0 0
-0.115134 0.135324 0.435 255 255 255
-0.0281178 0.161428 0.472 255 255 255
0.344754 0.0183271 0.795 255 255 255
-0.067951 0.169229 0.446 255 255 255
0.137327 0.175183 0.498 255 255 255
0.176142 -0.192825 0.59 255 255 255
-0.0791161 0.140336 0.498 255 255 255
0.0998176 0.149299 0.536 255 255 255
0.0658334 0.16139 0.503 255 255 255
-0.127372 0.109206 0.456 255 255 255
-0.239421 0.107413 0.515 255 255 255
0.323297 -0.17077 0.79 255 255 255
0.30357 0.0502452 0.878 255 255 255
0.189964 -0.140459 0.994 255 255 255
-0.124896 -0.0744341 0.409 255 255 255
0.2066 -0.0877321 0.772 0 0 0
0.222057 0.179474 0.473 255 255 255
-0.0358721 0.165131 0.463 255 255 255
-0.0501592 0.125514 0.535 255 255 255
-0.0914993 0.0322505 0.47 255 255 255
-0.188534 0.13949 0.379 255 255 255
-0.0673241 0.124177 0.533 255 255 255
-0.162481 0.147601 0.389 255 255 255
0.078934 0.163845 0.503 255 255 255
-0.117836 -0.0636753 0.417 255 255 255
0.0060078 -0.176538 0.683 255 255 255
0.0817726 -0.0632549 0.78 255 255 255
0.0656014 -0.229437 0.784 255 255 255
-0.012626 -0.0998633 0.732 0 0 0
0.119523 -0.184705 0.902 255 255 255
-0.242908 0.112179 0.51 255 255 255
-0.039545 -0.0359641 0.794 0 0 0
0.172792 -0.192523 0.595 0 0 0
-0.0102932 0.147998 0.502 255 255 255
-0.103181 0.104577 0.558 255 255 255
0.333341 -0.264292 0.749 255 255 255
0.291138 -0.0666873 0.875 255 255 255
-0.148168 -0.0927114 0.388 0 0 0
-0.0121284 0.123213 0.548 255 255 255
0.182859 0.156779 0.512 255 255 255
0.279371 -0.115885 0.892 255 255 255
-0.156086 0.133899 0.407 255 255 255
0.0363071 0.088339 0.63 255 255 255
0.0437173 -0.265382 0.804 255 255 255
-0.172335 -0.096758 0.372 255 255 255
0.204274 0.0950084 0.62 0 0 0
0.114207 -0.211203 0.812 255 255 255
-0.0724876 0.159917 0.461 255 255 255
-0.12193 -0.125883 0.393 255 255 255
0.0218294 0.116712 0.573 255 255 255
0.175246 -0.181337 0.587 0 0 0
-0.056333 -0.237198 0.776 255 255 255
0.0571809 -0.0466071 0.757 0 0 0
-0.116812 -0.141232 0.393 255 255 255
-0.182758 -0.0943433 0.365 255 255 255
-0.0590689 0.126689 0.529 255 255 255
-0.123631 -0.00129816 0.435 255 255 255
0.0306007 0.00862965 0.74 255 255 255
-0.0806633 -0.115385 0.425 255 255 255
-0.163316 0.140725 0.391 255 255 255
0.322918 0.114874 0.635 255 255 255
-0.127598 -0.0740701 0.407 255 255 255
0.0393456 -0.270174 0.795 255 255 255
0.339572 -0.112347 0.786 255 255 255
-0.193768 0.00590687 0.396 255 255 255
-0.179322 0.11866 0.426 255 255 255
0.290963 -0.14492 0.866 255 255 255
-0.146711 -0.0752903 0.396 0 0 0
0.122476 0.137825 0.564 0 0 0
0.111111 0.148656 0.54 255 255 255
0.225545 0.105606 0.623 255 255 255
-0.178556 0.0236347 0.413 255 255 255
-0.0692267 -0.127741 0.427 255 255 255
0.328334 -0.11342 0.812 255 255 255
0.00118362 0.141757 0.518 255 255 255
0.084312 -0.226997 0.78 0 0 0
-0.1309 0.0143738 0.438 255 255 255
0.325002 0.0659194 0.841 0 0 0
0.142721 -0.286734 0.824 255 255 255
-0.184869 -0.100946 0.361 255 255 255
0.111064 0.10487 0.607 0 0 0
0.234785 0.115354 0.605 255 255 255
-0.19514 0.134362 0.391 255 255 255
-0.160848 -0.0158633 0.409 255 255 255
-0.0582591 0.0570947 0.493 0 0 0
0.312108 0.0326473 0.866 255 255 255
-0.124026 -0.0512137 0.415 255 255 255
-0.114761 0.145778 0.459 255 255 255
0.0525329 0.16938 0.486 255 255 255
0.154672 -0.0288226 0.893 255 255 255
-0.179133 -0.0204626 0.395 255 255 255
0.194444 -0.222729 0.945 255 255 255
-0.166741 -0.106786 0.369 255 255 255
-0.0966773 -0.0547649 0.438 255 255 255
-0.209524 0.0371182 0.399 255 255 255
0.175398 0.00155613 0.82 255 255 255
-0.0541877 -0.129037 0.429 0 0 0
0.081049 0.1178 0.583 0 0 0
-0.0558181 -0.0885497 0.866 255 255 255
0.10899 0.103742 0.612 0 0 0
0.0427265 0.0948551 0.619 255 255 255
-0.109531 0.0322427 0.459 255 255 255
-0.000789124 -0.268353 0.813 255 255 255
0.309762 -0.0439299 0.848 255 255 255
0.0746506 0.0316162 0.772 0 0 0
0.000468564 0.0466042 0.713 0 0 0
0.0388611 0.123837 0.563 255 255 255
-0.0110752 -0.156722 0.709 0 0 0
-0.152266 -0.0980046 0.384 0 0 0
-0.0817548 -0.0579445 0.872 255 255 255
-0.145368 -0.0549794 0.403 255 255 255
-0.119414 0.126278 0.443 255 255 255
0.206195 0.159278 0.512 255 255 255
-0.106761 -0.0652023 0.427 255 255 255
0.128106 -0.0207841 0.861 255 255 255
0.273987 -0.173827 0.884 255 255 255
-0.1715 -0.00122057 0.409 255 255 255
0.0326084 -0.0818832 0.731 255 255 255
-0.179048 -0.12973 0.353 255 255 255
-0.117981 0.068543 0.457 255 255 255
0.0470729 -0.0304309 0.753 0 0 0
-0.207033 0.042081 0.403 255 255 255
-0.0138931 -0.0345347 0.736 0 0 0
0.343975 -0.230738 0.743 255 255 255
0.229915 0.163125 0.511 255 255 255
-0.0574718 0.16598 0.455 255 255 255
0.198582 0.137338 0.551 255 255 255
0.320474 -0.204149 0.78 255 255 255
-0.0084938 0.094004 0.607 0 0 0
-0.195158 -0.0212527 0.386 255 255 255
-0.180548 -0.00380693 0.401 255 255 255
0.176858 -0.164348 0.609 255 255 255
-0.169909 0.137607 0.393 255 255 255
0.337171 -0.00505977 0.811 255 255 255
-0.0506403 -0.0886239 0.447 0 0 0
-0.0848603 0.103681 0.563 255 255 255
0.272871 -0.0458616 0.914 255 255 255
-0.0190662 -0.0315722 0.751 0 0 0
