ply
format ascii 1.0
comment Created by Open3D
element vertex 1268
property double x
property double y
property double z
property uchar red
property uchar green
property uchar blue
end_header
0.034614 0.133846 0.377 255 255 255
-0.00094843 0.140871 0.365 255 255 255
0.133277 0.0933269 0.444 255 255 255
-0.169491 -0.0486509 0.625 255 255 255
-0.168592 0.095117 0.42 255 255 255
-0.0335701 0.0431249 0.508 255 255 255
-0.0479984 0.128727 0.38 255 255 255
-0.0789008 -0.219056 0.677 255 255 255
0.115703 0.126417 0.394 255 255 255
-0.147796 -0.0230774 0.595 255 255 255
0.0983913 0.0313693 0.533 255 255 255
-0.24536 -0.274407 0.709 255 255 255
0.11456 0.113022 0.413 255 255 255
0.327444 -0.0828975 0.663 255 255 255
-0.197044 -0.241313 0.773 255 255 255
-0.157975 -0.039072 0.446 255 255 255
-0.0382224 0.118081 0.394 255 255 255
0.070996 0.0715608 0.472 255 255 255
-0.152993 -0.0792849 0.428 255 255 255
-0.169401 -0.0241158 0.438 255 255 255
0.141073 0.132523 0.395 255 255 255
0.333674 -0.0488098 0.669 255 255 255
-0.133747 -0.0493514 0.634 255 255 255
0.101578 -0.00173386 0.581 255 255 255
0.203216 -0.270828 0.764 255 255 255
0.0887852 0.0856354 0.453 255 255 255
-0.0723352 0.0713529 0.413 255 255 255
-0.145327 0.136713 0.365 255 255 255
0.0399378 -0.0787543 0.693 255 255 255
-0.245928 -0.265885 0.714 255 255 255
-0.15464 -0.0261568 0.599 255 255 255
-0.0246233 -0.0318595 0.615 255 255 255
0.124413 0.0589374 0.495 255 255 255
0.110085 0.109209 0.419 255 255 255
-0.104709 0.0135001 0.547 255 255 255
0.194426 -0.00662807 0.596 255 255 255
-0.160966 -0.114928 0.411 255 255 255
-0.158347 -0.0209987 0.591 255 255 255
0.15767 0.122941 0.408 255 255 255
-0.156922 -0.0501164 0.441 255 255 255
0.0682426 0.125134 0.394 255 255 255
-0.149205 -0.0773906 0.681 255 255 255
-0.0168463 0.0761461 0.458 255 255 255
0.162119 -0.203402 0.863 255 255 255
0.0443165 0.11928 0.398 255 255 255
-0.221393 -0.27824 0.725 255 255 255
-0.0379927 0.137462 0.367 255 255 255
0.0677455 -0.220429 0.725 255 255 255
-0.21005 -0.0565229 0.4 255 255 255
0.108448 -0.0532801 0.657 255 255 255
-0.125439 0.113525 0.396 255 255 255
-0.00317979 0.100399 0.425 255 255 255
0.11644 0.00670547 0.575 255 255 255
0.236482 0.0722926 0.482 255 255 255
-0.155486 -0.0515517 0.441 255 255 255
-0.176865 -0.146501 0.39 255 255 255
-0.153559 0.12275 0.335 255 255 255
-0.200819 -0.236281 0.773 255 255 255
0.150038 0.0987405 0.436 255 255 255
0.186101 -0.0432368 0.667 255 255 255
-0.166666 0.0414655 0.498 255 255 255
-0.0359491 0.0178524 0.544 255 255 255
-0.0516144 -0.136337 0.711 255 255 255
-0.159069 -0.0584619 0.439 255 255 255
-0.0759924 -0.144687 0.701 255 255 255
-0.0102849 -0.106253 0.735 255 255 255
0.136194 0.0707664 0.477 255 255 255
-0.0949183 0.133769 0.37 255 255 255
0.00407165 0.00385087 0.568 255 255 255
-0.172803 0.117651 0.344 255 255 255
-0.217629 -0.00620547 0.558 255 255 255
-0.0582831 0.00290079 0.563 255 255 255
-0.229629 -0.224933 0.756 255 255 255
-0.186869 0.0391911 0.5 255 255 255
0.16136 0.101113 0.434 255 255 255
0.299208 -0.0285849 0.737 255 255 255
-0.0951667 0.0648899 0.428 255 255 255
-0.145865 -0.0251821 0.599 255 255 255
-0.0875088 0.128938 0.377 255 255 255
0.000256954 0.122909 0.391 255 255 255
0.0575731 0.000155742 0.576 255 255 255
0.204961 0.121674 0.415 255 255 255
-0.114411 0.103362 0.412 255 255 255
0.293282 -0.0969983 0.711 255 255 255
0.0290689 0.0735264 0.465 255 255 255
0.0316853 0.121928 0.394 255 255 255
-0.152893 0.07778 0.446 255 255 255
0.0779966 0.0968751 0.434 255 255 255
0.336702 -0.0343209 0.684 255 255 255
-0.0674538 0.114021 0.4 255 255 255
-0.11912 -0.168973 0.693 255 255 255
0.104618 -0.0956319 0.727 255 255 255
0.229269 0.0687963 0.485 255 255 255
-0.0608238 0.117095 0.395 255 255 255
-0.121581 -0.105241 0.728 255 255 255
-0.0279127 0.138435 0.368 255 255 255
0.104906 0.126413 0.392 255 255 255
0.00668934 0.0925667 0.437 255 255 255
0.190061 0.0456597 0.518 255 255 255
0.0082507 0.0247054 0.539 255 255 255
0.204014 -0.169959 0.817 255 255 255
-0.101917 0.0698758 0.433 255 255 255
0.269384 -0.17942 0.703 255 255 255
0.120627 0.0590564 0.496 255 255 255
-0.0296481 -0.0599676 0.66 255 255 255
-0.0347356 0.0385404 0.513 255 255 255
-0.00795164 0.0743943 0.461 255 255 255
-0.252902 -0.258913 0.714 255 255 255
-0.175257 0.0922505 0.363 255 255 255
0.214973 -0.205363 0.775 255 255 255
-0.199452 -0.115219 0.381 255 255 255
0.0504784 0.00293685 0.57 255 255 255
-0.00898563 0.111767 0.406 255 255 255
-0.195397 -0.118001 0.384 255 255 255
0.0940767 0.10228 0.43 255 255 255
0.0282312 0.113259 0.409 255 255 255
-0.156129 0.110582 0.397 255 255 255
-0.180772 0.102089 0.415 255 255 255
-0.238479 -0.250638 0.734 255 255 255
-0.100819 0.117142 0.393 255 255 255
-0.204409 -0.0589143 0.403 255 255 255
-0.134469 -0.247972 0.663 255 255 255
0.0170418 0.0992496 0.429 255 255 255
-0.0480962 0.0756148 0.407 255 255 255
-0.0011693 0.0828713 0.45 255 255 255
0.082786 0.128306 0.39 255 255 255
-0.0198285 0.0761461 0.458 255 255 255
-0.0553156 0.0963687 0.397 255 255 255
0.198643 -0.216201 0.806 255 255 255
-0.109944 0.110286 0.403 255 255 255
0.253798 -0.106139 0.778 255 255 255
-0.147862 0.133169 0.354 255 255 255
0.161041 0.0662915 0.484 255 255 255
-0.149763 0.130669 0.34 255 255 255
-0.153371 0.0857721 0.435 255 255 255
-0.111985 0.0776056 0.445 255 255 255
0.172047 0.139014 0.388 255 255 255
0.202581 0.0607931 0.497 255 255 255
0.0442921 0.000155201 0.574 255 255 255
-0.163471 -0.147466 0.396 255 255 255
0.168806 0.0730951 0.477 255 255 255
0.128003 -0.309978 0.851 255 255 255
-0.0746916 -0.207241 0.689 255 255 255
0.270074 -0.107843 0.746 255 255 255
0.297199 -0.0225269 0.735 255 255 255
0.0214273 -0.0268555 0.615 255 255 255
-0.175596 -0.0567875 0.625 255 255 255
-0.0015019 -0.0045467 0.578 255 255 255
-0.173341 -0.0890329 0.415 255 255 255
0.166851 -0.0571054 0.677 255 255 255
0.00903886 -0.126729 0.75 255 255 255
0.0797419 -0.188722 0.749 255 255 255
0.246867 -0.231028 0.714 255 255 255
-0.128912 0.139139 0.359 255 255 255
-0.0367061 -0.120934 0.737 255 255 255
0.0992275 0.0607342 0.49 255 255 255
-0.150936 -0.0292351 0.451 255 255 255
-0.0622993 -0.19488 0.701 255 255 255
0.106292 0.0953503 0.44 255 255 255
-0.100403 -0.216449 0.659 255 255 255
0.102609 0.0726324 0.469 255 255 255
-0.239055 -0.230765 0.747 255 255 255
-0.198409 0.0538507 0.418 255 255 255
-0.225136 -0.128322 0.806 255 255 255
0.0463941 0.0596922 0.488 255 255 255
-0.0797303 0.0753854 0.413 255 255 255
0.153746 -0.0793068 0.708 255 255 255
-0.177093 -0.0487527 0.429 255 255 255
-0.225802 -0.273143 0.724 255 255 255
0.148705 -0.226166 0.875 255 255 255
-0.0318519 0.060527 0.482 255 255 255
-0.175074 -0.132644 0.396 255 255 255
0.129845 -0.186698 0.934 255 255 255
0.175045 -0.228316 0.831 255 255 255
-0.0214724 0.063914 0.478 255 255 255
-0.115436 0.0365114 0.508 255 255 255
0.171507 0.0513917 0.508 255 255 255
0.133884 -0.00560122 0.59 255 255 255
-0.126474 -0.207243 0.678 255 255 255
0.0146594 0.0153363 0.549 255 255 255
0.116509 0.00110067 0.58 255 255 255
-0.0751252 -0.179123 0.693 255 255 255
0.0348121 -0.242514 0.681 255 255 255
-0.222309 -0.274652 0.728 255 255 255
-0.165998 -0.167547 0.793 255 255 255
-0.1991 -0.0493824 0.411 255 255 255
0.0181307 -0.232962 0.679 255 255 255
0.303271 -0.0610444 0.71 255 255 255
0.066676 -0.182024 0.767 255 255 255
0.250212 -0.147871 0.752 255 255 255
-0.200939 0.0115699 0.54 255 255 255
0.165304 0.138655 0.387 255 255 255
0.286179 -0.170981 0.683 255 255 255
0.225882 -0.10571 0.824 255 255 255
0.0342516 0.0270832 0.534 255 255 255
0.0619911 -0.0829672 0.7 255 255 255
0.264767 -0.242229 0.671 255 255 255
-0.0522184 -0.00735574 0.577 255 255 255
-0.193009 0.0876425 0.371 255 255 255
0.0723431 0.0796457 0.461 255 255 255
-0.209657 -0.0503887 0.403 255 255 255
-0.184238 0.0124486 0.54 255 255 255
-0.171554 0.124386 0.335 255 255 255
0.127593 -0.0526083 0.662 255 255 255
-0.135801 -0.163291 0.728 255 255 255
0.170982 0.0835429 0.466 255 255 255
-0.0364073 -0.135414 0.731 255 255 255
-0.175824 -0.250169 0.785 255 255 255
0.248732 -0.112469 0.778 255 255 255
-0.0145604 0.0619669 0.481 255 255 255
-0.192777 -0.0836271 0.402 255 255 255
0.217104 -0.00275313 0.597 255 255 255
-0.188772 0.0518989 0.482 255 255 255
0.166183 -0.215431 0.855 255 255 255
0.0573766 0.0966518 0.433 255 255 255
-0.134663 0.00644891 0.553 255 255 255
-0.111186 0.104862 0.41 255 255 255
0.230044 0.00679876 0.583 255 255 255
-0.162304 0.100436 0.411 255 255 255
-0.123312 0.074413 0.452 255 255 255
-0.165458 -0.0468173 0.437 255 255 255
-0.0834135 -0.222999 0.669 255 255 255
-0.157634 0.0801404 0.443 255 255 255
-0.191474 -0.0671127 0.409 255 255 255
-0.179748 -0.145118 0.388 255 255 255
-0.0222493 -0.105057 0.735 255 255 255
0.183382 0.0435471 0.523 255 255 255
-0.212559 0.00812941 0.545 255 255 255
-0.181705 -0.0794799 0.411 255 255 255
-0.03125 0.140277 0.365 255 255 255
0.295505 -0.136725 0.684 255 255 255
0.0281133 0.0499678 0.502 255 255 255
-0.124964 -0.132307 0.727 255 255 255
-0.0630747 0.119061 0.393 255 255 255
0.0354678 0.113646 0.408 255 255 255
0.331149 -0.0256763 0.691 255 255 255
0.00556642 0.0270832 0.534 255 255 255
-0.0842573 0.00469953 0.559 255 255 255
0.0447889 -0.0707414 0.681 255 255 255
0.323931 -0.0480963 0.69 255 255 255
0.246675 -0.00784017 0.615 255 255 255
0.150648 0.11167 0.418 255 255 255
0.161155 -0.18587 0.873 255 255 255
-0.0567174 -0.00545881 0.575 255 255 255
0.289116 -0.0458682 0.745 255 255 255
-0.0472258 -0.0192689 0.597 255 255 255
-0.0730526 0.0117841 0.55 255 255 255
-0.0128652 0.0941745 0.425 255 255 255
-0.132569 0.126148 0.376 255 255 255
-0.0845712 0.123222 0.386 255 255 255
-0.0704506 -0.24841 0.67 255 255 255
0.064002 0.0645826 0.483 255 255 255
0.195858 0.0218654 0.556 255 255 255
-0.208116 -0.0195665 0.417 255 255 255
0.0253713 0.0643152 0.481 255 255 255
0.146109 -0.121045 0.828 255 255 255
-0.119106 0.103362 0.412 255 255 255
-0.15657 -0.115983 0.41 255 255 255
0.074691 0.0826731 0.457 255 255 255
-0.126724 0.116844 0.392 255 255 255
-0.100948 0.0518393 0.454 255 255 255
0.199093 -0.254303 0.782 255 255 255
0.00981206 -0.0446807 0.641 255 255 255
-0.138171 -0.164476 0.728 255 255 255
-0.100206 0.129737 0.374 255 255 255
0.0077394 0.0782109 0.457 255 255 255
-0.155797 -0.015121 0.446 255 255 255
-0.0163161 0.022074 0.539 255 255 255
-0.163417 -0.0967095 0.419 255 255 255
0.333362 -0.0376602 0.684 255 255 255
-0.0296093 0.0400533 0.511 255 255 255
-0.0514944 0.0639599 0.413 255 255 255
-0.174614 -0.0218269 0.435 255 255 255
-0.209379 -0.0440481 0.405 255 255 255
0.0487362 -0.0124056 0.594 255 255 255
-0.132135 0.0786818 0.447 255 255 255
0.0643413 0.136797 0.375 255 255 255
-0.181558 -0.0451566 0.428 255 255 255
-0.140124 0.114292 0.392 255 255 255
0.0836578 0.0637966 0.483 255 255 255
0.210241 0.0234621 0.551 255 255 255
0.341876 0.00904982 0.681 255 255 255
0.110462 0.00203747 0.578 255 255 255
0.152877 0.0987405 0.436 255 255 255
0.255231 -0.216643 0.705 255 255 255
0.284952 -0.0522786 0.75 255 255 255
-0.135516 0.0509567 0.488 255 255 255
-0.0839438 0.0019846 0.563 255 255 255
0.0310445 0.0615658 0.484 255 255 255
-0.0682311 0.128388 0.379 255 255 255
0.22301 -0.0281655 0.645 255 255 255
-0.0248573 0.0253452 0.534 255 255 255
0.233461 -0.12657 0.795 255 255 255
-0.0267964 0.0332066 0.521 255 255 255
-0.207913 -0.0421747 0.406 255 255 255
-0.0620892 0.113736 0.399 255 255 255
0.285869 -0.161767 0.677 255 255 255
-0.180821 -0.0844177 0.409 255 255 255
-0.155927 -0.057912 0.649 255 255 255
0.23746 -0.0191555 0.625 255 255 255
-0.103421 0.120709 0.386 255 255 255
0.257161 -0.216336 0.704 255 255 255
-0.0676141 0.129005 0.379 255 255 255
0.280164 -0.0824598 0.747 255 255 255
-0.0497856 0.0674985 0.41 255 255 255
0.0233299 0.0341851 0.523 255 255 255
-0.0998393 -0.178293 0.677 255 255 255
0.0659641 0.0718692 0.469 255 255 255
-0.0339041 0.112881 0.396 255 255 255
0.134988 0.0674461 0.481 255 255 255
-0.111746 -0.0553699 0.644 255 255 255
0.00857472 0.122258 0.393 255 255 255
0.00420785 -0.0093937 0.587 255 255 255
0.145672 0.0758467 0.47 255 255 255
-0.0930863 0.00913211 0.552 255 255 255
-0.210662 -0.275649 0.737 255 255 255
0.258307 -0.0648551 0.784 255 255 255
-0.0965303 0.0352011 0.513 255 255 255
0.174774 0.0835429 0.466 255 255 255
0.211719 0.0705771 0.481 255 255 255
0.295704 -0.109635 0.703 255 255 255
0.23581 -0.0988848 0.812 255 255 255
-0.182557 -0.0965346 0.404 255 255 255
-0.0354101 -0.164861 0.735 255 255 255
-0.103942 0.124725 0.381 255 255 255
-0.187727 -0.0701162 0.411 255 255 255
-0.237964 -0.203243 0.767 255 255 255
0.171933 0.0556862 0.502 255 255 255
0.209636 0.0978821 0.445 255 255 255
0.0456439 0.141045 0.367 255 255 255
-0.205243 -0.0722502 0.397 255 255 255
-0.211812 -0.0293175 0.411 255 255 255
-0.184506 0.0875852 0.43 255 255 255
-0.170816 0.101194 0.355 255 255 255
-0.179219 0.0873669 0.375 255 255 255
-0.21093 -0.0330872 0.408 255 255 255
0.326009 -0.128367 0.637 255 255 255
-0.168407 -0.143962 0.397 255 255 255
-0.226193 -0.220229 0.761 255 255 255
0.244303 -0.124808 0.776 255 255 255
0.1181 0.111812 0.416 255 255 255
-0.195885 0.0702327 0.399 255 255 255
0.000249068 0.130855 0.379 255 255 255
0.18469 0.0766115 0.47 255 255 255
-0.0883272 -0.220584 0.665 255 255 255
0.206828 -0.264115 0.759 255 255 255
0.180941 0.114798 0.422 255 255 255
-0.0684656 0.082036 0.406 255 255 255
0.0882675 0.0938376 0.443 255 255 255
-0.0716516 0.114099 0.398 255 255 255
-0.146409 0.0647231 0.467 255 255 255
-0.173133 -0.0769404 0.697 255 255 255
-0.164677 -0.0833738 0.424 255 255 255
0.141738 0.050565 0.508 255 255 255
0.242286 -0.176485 0.754 255 255 255
0.0362666 0.120952 0.395 255 255 255
0.290076 -0.137793 0.695 255 255 255
0.302854 -0.0537025 0.72 255 255 255
0.159476 0.0432974 0.52 255 255 255
0.165615 0.0710631 0.479 255 255 255
-0.167509 -0.0912547 0.419 255 255 255
-0.0237647 -0.218023 0.745 255 255 255
-0.180238 0.0878171 0.385 255 255 255
0.214653 -0.148686 0.817 255 255 255
-0.00141095 0.0213542 0.543 255 255 255
-0.0992058 -0.111039 0.712 255 255 255
0.120383 0.0392917 0.523 255 255 255
0.178462 0.0696493 0.48 255 255 255
-0.227492 -0.232618 0.753 255 255 255
-0.0959932 0.119748 0.389 255 255 255
-0.0999554 -0.130998 0.701 255 255 255
-0.0575065 -0.0112272 0.583 255 255 255
-0.075263 -0.215755 0.684 255 255 255
-0.224815 -0.213784 0.769 255 255 255
-0.0575812 -0.0610417 0.66 255 255 255
-0.127326 0.120072 0.388 255 255 255
-0.143277 -0.040887 0.45 255 255 255
0.189716 0.0627106 0.493 255 255 255
0.186696 0.00393901 0.581 255 255 255
-0.190318 0.0545797 0.478 255 255 255
0.309349 -0.0329293 0.727 255 255 255
0.259288 0.044568 0.525 255 255 255
-0.13628 0.0728454 0.456 255 255 255
0.0391688 0.112078 0.412 255 255 255
-0.0389624 0.0990972 0.395 255 255 255
0.244208 -0.251493 0.703 255 255 255
-0.193087 -0.10515 0.392 255 255 255
0.140553 0.128021 0.399 255 255 255
-0.11348 -0.155441 0.693 255 255 255
-0.12242 -0.195681 0.68 255 255 255
0.0250805 0.0333978 0.524 255 255 255
0.078899 0.10742 0.42 255 255 255
0.0721993 0.0657437 0.48 255 255 255
0.321403 -0.1613 0.628 255 255 255
-0.240848 0.0157567 0.533 255 255 255
-0.14921 0.0393478 0.502 255 255 255
0.166866 -0.0766762 0.705 255 255 255
-0.199096 0.0729419 0.452 255 255 255
0.171493 0.0364363 0.531 255 255 255
0.259529 -0.167304 0.73 255 255 255
0.216308 0.115343 0.424 255 255 255
-0.052241 -0.036271 0.622 255 255 255
0.27536 -0.0612704 0.771 255 255 255
-0.166215 0.0829888 0.439 255 255 255
-0.176561 -0.13488 0.395 255 255 255
-0.184071 -0.0553797 0.421 255 255 255
-0.0344921 0.0135495 0.549 255 255 255
-0.17238 0.00726909 0.547 255 255 255
0.162108 -0.30183 0.807 255 255 255
-0.0524699 0.0480451 0.499 255 255 255
0.07827 0.104993 0.424 255 255 255
0.0181403 0.130855 0.379 255 255 255
0.0802622 0.131957 0.384 255 255 255
0.0771622 0.135431 0.378 255 255 255
0.113225 0.109629 0.418 255 255 255
-0.186356 -0.07558 0.408 255 255 255
-0.189687 -0.0899447 0.401 255 255 255
-0.129054 -0.0624238 0.652 255 255 255
-0.0947362 0.115104 0.397 255 255 255
0.0493769 0.0564066 0.494 255 255 255
0.220709 -0.205098 0.76 255 255 255
0.222653 -0.272716 0.726 255 255 255
0.150554 0.114643 0.414 255 255 255
-0.147484 0.0633385 0.468 255 255 255
0.054065 0.134911 0.38 255 255 255
-0.164101 -0.0235633 0.441 255 255 255
-0.177072 -0.115682 0.402 255 255 255
0.166515 0.110678 0.422 255 255 255
0.0723655 -0.0238143 0.614 255 255 255
0.25317 -0.252456 0.69 255 255 255
0.0825833 0.0755239 0.468 255 255 255
-0.0842989 0.0962542 0.419 255 255 255
-0.0691864 -0.232962 0.679 255 255 255
-0.0760569 0.130084 0.375 255 255 255
-0.168407 -0.145254 0.397 255 255 255
0.194862 0.126925 0.408 255 255 255
-0.181757 0.088371 0.369 255 255 255
0.127901 -0.0635274 0.675 255 255 255
0.00906568 0.0841485 0.449 255 255 255
-0.0692659 -0.0950838 0.714 255 255 255
-0.106074 0.0282275 0.523 255 255 255
-0.0288734 0.140277 0.365 255 255 255
-0.0445264 0.0625436 0.417 255 255 255
0.0758778 0.10088 0.43 255 255 255
-0.0433904 -0.206334 0.709 255 255 255
0.29596 -0.062678 0.729 255 255 255
-0.148651 0.129292 0.335 255 255 255
-0.196404 0.0691351 0.456 255 255 255
-0.0158246 0.0677204 0.472 255 255 255
0.155274 -0.22051 0.864 255 255 255
-0.0161353 0.112253 0.403 255 255 255
0.282113 -0.219791 0.653 255 255 255
-0.185563 -0.0158294 0.426 255 255 255
0.0507673 0.0279522 0.534 255 255 255
0.0112111 -0.0601493 0.662 255 255 255
0.09675 -0.0165461 0.604 255 255 255
-0.182524 -0.0457459 0.427 255 255 255
-0.137004 0.0861664 0.437 255 255 255
0.282309 -0.0613086 0.756 255 255 255
-0.150908 -0.0740574 0.43 255 255 255
0.156581 0.108875 0.423 255 255 255
0.2011 0.0843294 0.462 255 255 255
0.0677983 0.107164 0.419 255 255 255
0.143825 -0.22889 0.88 255 255 255
-0.181044 0.110525 0.348 255 255 255
-0.180905 0.0674958 0.46 255 255 255
0.169868 0.0704304 0.48 255 255 255
-0.133744 0.13639 0.361 255 255 255
-0.186677 -0.106867 0.396 255 255 255
-0.190265 -0.127706 0.385 255 255 255
-0.0357114 -0.055081 0.653 255 255 255
0.132778 0.122746 0.403 255 255 255
0.104574 0.143048 0.377 255 255 255
0.039464 -0.146778 0.772 255 255 255
-0.00807914 0.0969288 0.428 255 255 255
-0.0689351 0.0330791 0.519 255 255 255
0.145286 -0.304045 0.831 255 255 255
0.216643 -0.254736 0.746 255 255 255
0.0537629 0.121903 0.396 255 255 255
0.141213 0.0637933 0.489 255 255 255
0.170498 0.0121698 0.568 255 255 255
-0.143368 0.0647231 0.467 255 255 255
-0.0433497 0.0144166 0.548 255 255 255
0.282774 -0.139776 0.705 255 255 255
0.126814 -0.198018 0.923 255 255 255
0.00281462 0.0447782 0.508 255 255 255
-0.1725 -0.0632655 0.428 255 255 255
-0.159377 0.128583 0.329 255 255 255
-0.000400871 0.108318 0.413 255 255 255
-0.18616 -0.139508 0.383 255 255 255
-0.0939294 0.00649556 0.557 255 255 255
0.205592 -0.271526 0.759 255 255 255
0.141151 -0.0442503 0.65 255 255 255
0.174413 -0.231534 0.828 255 255 255
0.123811 0.0446437 0.516 255 255 255
-0.141221 0.117546 0.388 255 255 255
-0.19052 0.0317997 0.512 255 255 255
-0.0189272 0.137837 0.368 255 255 255
0.273599 -0.14156 0.714 255 255 255
0.244932 -0.215992 0.722 255 255 255
0.235916 0.0801794 0.473 255 255 255
-0.00157725 -0.0255184 0.607 255 255 255
0.192515 -0.207693 0.819 255 255 255
0.29305 -0.240872 0.633 255 255 255
-0.193725 -0.10515 0.392 255 255 255
-0.0360219 0.121636 0.391 255 255 255
-0.123024 -0.0805726 0.709 255 255 255
-0.0806823 0.0857216 0.411 255 255 255
0.160596 0.123302 0.407 255 255 255
-0.0602604 0.13604 0.368 255 255 255
0.32264 -0.106473 0.662 255 255 255
-0.00035331 0.14167 0.364 255 255 255
-0.0278036 0.0316923 0.524 255 255 255
-0.0664826 -0.260861 0.674 255 255 255
0.233705 -0.244686 0.72 255 255 255
-0.0398561 0.124155 0.385 255 255 255
-0.187011 0.0909779 0.423 255 255 255
0.0828877 0.110458 0.416 255 255 255
0.301574 -0.0332464 0.734 255 255 255
0.112064 0.0916749 0.443 255 255 255
0.0217762 0.0917701 0.44 255 255 255
0.0893053 -0.0484814 0.65 255 255 255
0.22022 -0.145312 0.813 255 255 255
0.282016 -0.180454 0.681 255 255 255
-0.192939 -0.105418 0.393 255 255 255
-0.184479 0.0539144 0.479 255 255 255
0.00147512 0.132619 0.377 255 255 255
0.313747 -0.195735 0.627 255 255 255
0.152836 -0.151949 0.908 255 255 255
-0.182524 0.0897536 0.427 255 255 255
-0.0723743 -0.0362127 0.621 255 255 255
-0.192404 0.0182899 0.531 255 255 255
0.040467 0.128875 0.386 255 255 255
-0.0829019 -0.155216 0.692 255 255 255
0.215681 0.0647212 0.49 255 255 255
0.269941 -0.10462 0.749 255 255 255
0.0225518 -0.229647 0.679 255 255 255
0.0672313 0.132786 0.381 255 255 255
0.130094 0.117252 0.409 255 255 255
-0.00437264 0.0641814 0.48 255 255 255
0.0489185 0.0973565 0.433 255 255 255
-0.110979 0.0840845 0.441 255 255 255
-0.133241 -0.041332 0.622 255 255 255
-0.191111 -0.0255348 0.426 255 255 255
0.00909588 0.0575446 0.49 255 255 255
0.245104 0.0546984 0.508 255 255 255
-0.0796354 -0.0284817 0.607 255 255 255
-0.174878 0.0904485 0.427 255 255 255
-0.223495 0.0375638 0.5 255 255 255
-0.076509 0.116503 0.393 255 255 255
0.12805 -0.189332 0.932 255 255 255
0.0754647 -0.184091 0.755 255 255 255
0.191488 0.0534476 0.504 255 255 255
-0.0515351 0.0731448 0.408 255 255 255
0.11456 0.113694 0.413 255 255 255
-0.187935 0.013278 0.538 255 255 255
0.310105 -0.137534 0.656 255 255 255
0.334423 -0.0560089 0.664 255 255 255
0.32136 -0.112808 0.655 255 255 255
0.31984 -0.152284 0.633 255 255 255
0.0832106 0.126413 0.392 255 255 255
-0.16414 -0.0709269 0.428 255 255 255
-0.141514 -0.0923022 0.427 255 255 255
0.156097 -0.0467225 0.655 255 255 255
0.17234 -0.235077 0.831 255 255 255
-0.143021 -0.0647436 0.438 255 255 255
0.00154946 0.119325 0.396 255 255 255
-0.0872447 -0.220584 0.665 255 255 255
-0.0271669 0.0392985 0.512 255 255 255
0.0508675 0.113259 0.409 255 255 255
0.0344778 0.0668852 0.477 255 255 255
0.239527 -0.22222 0.727 255 255 255
-0.190808 0.0739897 0.409 255 255 255
-0.00500536 -0.0662288 0.669 255 255 255
-0.177073 0.0231651 0.524 255 255 255
-0.03662 -0.0913415 0.712 255 255 255
0.106458 0.0653686 0.483 255 255 255
-0.234862 -0.220303 0.757 255 255 255
-0.0054749 -0.019398 0.601 255 255 255
0.0240053 0.128832 0.384 255 255 255
-0.164393 -0.127775 0.403 255 255 255
-0.126665 -0.201579 0.685 255 255 255
-0.108938 -0.245819 0.646 255 255 255
0.305132 -0.0796635 0.701 255 255 255
-0.141769 0.140308 0.359 255 255 255
0.0459049 0.046523 0.509 255 255 255
-0.0856719 0.110286 0.403 255 255 255
-0.151157 -0.118073 0.408 255 255 255
0.0719311 -0.0164913 0.602 255 255 255
0.181387 -0.177787 0.848 255 255 255
0.040642 0.142653 0.365 255 255 255
-0.163433 -0.022961 0.592 255 255 255
-0.0016102 0.129686 0.381 255 255 255
-0.0963406 0.116503 0.393 255 255 255
-0.055948 -0.223105 0.693 255 255 255
0.0602323 0.0736845 0.466 255 255 255
0.167411 0.131586 0.398 255 255 255
-0.0744046 0.0498981 0.437 255 255 255
-0.0782879 0.123222 0.386 255 255 255
-0.192256 -0.0518891 0.415 255 255 255
0.293211 -0.0810248 0.734 255 255 255
0.222215 0.0310742 0.543 255 255 255
-0.127207 -0.0273128 0.603 255 255 255
0.178089 -0.068548 0.704 255 255 255
-0.0863971 -0.189041 0.684 255 255 255
-0.0830917 0.0774016 0.413 255 255 255
0.0825202 -0.00173088 0.58 255 255 255
-0.173818 0.0922231 0.37 255 255 255
-0.197812 -0.266574 0.752 255 255 255
-0.194998 -0.138182 0.376 255 255 255
0.12404 0.130905 0.394 255 255 255
0.286547 -0.18463 0.676 255 255 255
-0.119798 0.0217464 0.531 255 255 255
-0.148449 0.0541395 0.481 255 255 255
0.021807 0.139633 0.368 255 255 255
0.308813 -0.0623737 0.699 255 255 255
0.0881039 0.0741589 0.469 255 255 255
0.258792 -0.0980358 0.774 255 255 255
-0.133104 0.131606 0.369 255 255 255
0.272059 -0.172801 0.704 255 255 255
0.32066 -0.0680218 0.676 255 255 255
0.193797 0.138308 0.395 255 255 255
-0.0736152 0.130695 0.375 255 255 255
0.339267 -0.0373299 0.678 255 255 255
-0.128775 -0.0391812 0.62 255 255 255
-0.0862526 0.140308 0.359 255 255 255
-0.0642785 0.136865 0.367 255 255 255
0.0440873 -0.0333412 0.624 255 255 255
-0.121878 0.113166 0.397 255 255 255
-0.106438 -0.239937 0.65 255 255 255
-0.188337 -0.031774 0.426 255 255 255
-0.0248471 0.132267 0.376 255 255 255
0.0871381 0.131957 0.384 255 255 255
0.0861642 0.0392166 0.522 255 255 255
0.0390319 0.0856099 0.449 255 255 255
-0.145008 -0.139233 0.402 255 255 255
0.00386733 -0.237209 0.698 255 255 255
-0.0995404 0.0306042 0.52 255 255 255
0.202534 0.145468 0.397 255 255 255
0.0826848 0.0458742 0.511 255 255 255
0.0818088 0.00109119 0.575 255 255 255
-0.0110187 0.141077 0.364 255 255 255
0.187778 -0.0312173 0.643 255 255 255
-0.191622 0.0733515 0.45 255 255 255
-0.186143 -0.100534 0.399 255 255 255
-0.0658032 0.0674985 0.41 255 255 255
-0.0119335 -0.00741948 0.582 255 255 255
-0.202874 0.0199427 0.529 255 255 255
-0.0282088 -0.0254763 0.606 255 255 255
-0.110963 0.0561221 0.465 255 255 255
-0.198183 -0.106328 0.387 255 255 255
0.165369 -0.206413 0.858 255 255 255
-0.0325876 0.123229 0.388 255 255 255
0.135551 0.0216295 0.55 255 255 255
0.257978 -0.0609498 0.783 255 255 255
-0.0384157 -0.247223 0.724 255 255 255
0.0419028 0.115071 0.406 255 255 255
-0.108598 0.0642805 0.443 255 255 255
0.0973407 0.0330419 0.532 255 255 255
0.131973 -0.272382 0.868 255 255 255
0.0855528 0.00109119 0.575 255 255 255
0.190531 -0.0514445 0.675 255 255 255
-0.208297 0.0607928 0.466 255 255 255
-0.235048 -0.118844 0.804 255 255 255
0.00545817 0.117632 0.399 255 255 255
0.259129 -0.183503 0.719 255 255 255
0.274323 -0.170924 0.701 255 255 255
-0.176907 0.0055189 0.55 255 255 255
0.153451 -0.301484 0.824 255 255 255
-0.184057 0.0874062 0.37 255 255 255
-0.0686653 0.00559917 0.558 255 255 255
-0.183239 0.0948881 0.416 255 255 255
-0.240754 -0.236146 0.741 255 255 255
0.220566 -0.00979378 0.612 255 255 255
0.262706 0.00874098 0.586 255 255 255
-0.0158454 0.140066 0.366 255 255 255
-0.00522233 -0.0872737 0.698 255 255 255
0.0400244 0.10562 0.421 255 255 255
0.232744 0.0131633 0.571 255 255 255
-0.0997935 -0.0584474 0.655 255 255 255
0.295474 -0.205789 0.636 255 255 255
-0.225841 -0.219854 0.764 255 255 255
0.0329248 -0.288856 0.945 255 255 255
0.0652009 0.124166 0.395 255 255 255
-0.141812 0.077013 0.45 255 255 255
0.0461391 0.0365979 0.521 255 255 255
-0.15396 -0.0907492 0.423 255 255 255
-0.063476 -0.222938 0.689 255 255 255
0.00583307 0.0623534 0.484 255 255 255
0.0201505 0.104935 0.421 255 255 255
-0.19752 -0.0749358 0.401 255 255 255
-0.164885 0.0742484 0.451 255 255 255
0.295293 -0.233208 0.629 255 255 255
-0.181582 -0.060716 0.42 255 255 255
-0.148073 -0.0705087 0.434 255 255 255
0.0910174 -0.000787027 0.58 255 255 255
0.0239418 -0.133015 0.758 255 255 255
-0.146247 -0.11961 0.411 255 255 255
-0.190653 -0.202774 0.81 255 255 255
-0.0648759 0.136865 0.367 255 255 255
-0.100577 -0.167401 0.682 255 255 255
-0.193643 -0.115442 0.388 255 255 255
-0.0834212 -0.168628 0.687 255 255 255
0.228765 -0.000810095 0.597 255 255 255
-0.146024 -0.136956 0.403 255 255 255
-0.149184 -0.0790752 0.686 255 255 255
-0.152666 -0.125529 0.765 255 255 255
-0.0200455 -0.244917 0.742 255 255 255
-0.0977794 -0.174143 0.678 255 255 255
0.108608 0.135507 0.387 255 255 255
-0.170364 -0.0827839 0.421 255 255 255
-0.0912493 -0.0747186 0.687 255 255 255
-0.0968942 0.0274287 0.524 255 255 255
-0.163107 0.112142 0.346 255 255 255
-0.0415735 -0.052307 0.645 255 255 255
0.194979 0.0492005 0.511 255 255 255
0.0693414 -0.148869 0.783 255 255 255
-0.00123426 0.0666048 0.475 255 255 255
0.126053 0.145502 0.377 255 255 255
0.220531 0.00302959 0.588 255 255 255
0.288246 -0.110727 0.71 255 255 255
-0.0130204 0.0162001 0.548 255 255 255
-0.0784558 0.110286 0.403 255 255 255
-0.027393 0.124478 0.386 255 255 255
0.233777 -0.111132 0.805 255 255 255
-0.070287 -0.152672 0.701 255 255 255
0.257736 0.0314176 0.549 255 255 255
-0.195158 -0.113591 0.386 255 255 255
0.261312 -0.091738 0.774 255 255 255
-0.159435 -0.0439545 0.444 255 255 255
0.320345 -0.149429 0.634 255 255 255
0.155453 -0.066062 0.69 255 255 255
0.139836 0.137119 0.388 255 255 255
0.0934885 0.130468 0.387 255 255 255
0.225988 -0.161156 0.787 255 255 255
0.0236422 0.0286053 0.53 255 255 255
0.0790081 0.136046 0.378 255 255 255
0.0536036 0.0990109 0.431 255 255 255
0.056008 0.0492488 0.503 255 255 255
-0.183052 -0.0203236 0.572 255 255 255
0.249218 0.0303574 0.546 255 255 255
0.172663 0.101819 0.434 255 255 255
-0.0203943 0.0784363 0.454 255 255 255
0.111085 0.0190477 0.553 255 255 255
-0.064213 -0.20511 0.697 255 255 255
-0.0866005 -0.0571187 0.652 255 255 255
0.0114169 0.115532 0.403 255 255 255
0.217604 -0.263881 0.741 255 255 255
0.19221 -0.159897 0.841 255 255 255
-0.085049 -0.0394971 0.625 255 255 255
0.0168304 0.113367 0.407 255 255 255
-0.15678 -0.0650408 0.657 255 255 255
0.194532 -0.287618 0.769 255 255 255
-0.222695 0.0198673 0.527 255 255 255
-0.0576719 -0.0395603 0.626 255 255 255
-0.0416037 -0.177406 0.718 255 255 255
0.195006 0.0912515 0.448 255 255 255
-0.20652 -0.161077 0.826 255 255 255
-0.0546617 -0.233706 0.691 255 255 255
-0.0501022 -0.202014 0.706 255 255 255
-0.0330471 0.0309573 0.526 255 255 255
0.291379 -0.149648 0.677 255 255 255
0.149431 0.0191166 0.555 255 255 255
0.19549 -0.247278 0.788 255 255 255
-0.185882 0.0921363 0.422 255 255 255
-0.199844 -0.0864511 0.394 255 255 255
0.315161 -0.113042 0.669 255 255 255
0.314273 -0.196948 0.618 255 255 255
0.273098 -0.221152 0.67 255 255 255
0.331951 -0.0311628 0.688 255 255 255
0.0445113 -0.0367375 0.63 255 255 255
0.192121 0.111989 0.427 255 255 255
-0.178173 -0.107584 0.406 255 255 255
0.0619126 0.0663862 0.479 255 255 255
0.212828 0.0456597 0.518 255 255 255
0.312819 -0.152834 0.644 255 255 255
0.0878805 0.111275 0.414 255 255 255
-0.121197 0.105529 0.41 255 255 255
0.00924374 -0.218221 0.767 255 255 255
0.227314 0.101959 0.447 255 255 255
-0.196376 -0.0799564 0.4 255 255 255
-0.0885444 -0.13442 0.701 255 255 255
0.237639 -0.148109 0.779 255 255 255
0.0355321 0.127319 0.387 255 255 255
0.0503615 0.0800471 0.459 255 255 255
0.0283808 0.128832 0.384 255 255 255
-0.0271822 -0.109236 0.739 255 255 255
0.00958534 0.00475838 0.566 255 255 255
0.101608 0.0867251 0.451 255 255 255
-0.00521841 0.0602384 0.486 255 255 255
-0.16161 0.0379394 0.505 255 255 255
0.242033 0.0526296 0.512 255 255 255
0.0357296 -0.0423952 0.638 255 255 255
-0.120563 -0.237492 0.652 255 255 255
-0.0699811 -0.071322 0.676 255 255 255
0.184288 -0.281745 0.784 255 255 255
-0.212211 0.0524647 0.48 255 255 255
0.0340685 0.038916 0.518 255 255 255
-0.0317763 0.0530833 0.493 255 255 255
0.0335868 -0.247601 0.964 255 255 255
0.295178 -0.0698917 0.73 255 255 255
-0.0154807 -0.209892 0.755 255 255 255
-0.191609 -0.119538 0.389 255 255 255
0.0178103 -0.0638599 0.667 255 255 255
0.288049 -0.212027 0.652 255 255 255
-0.130777 0.120392 0.387 255 255 255
0.263811 -0.170633 0.719 255 255 255
0.0172578 0.0812123 0.453 255 255 255
-0.193273 0.0735978 0.386 255 255 255
-0.140956 -0.00826595 0.575 255 255 255
0.293036 -0.207731 0.642 255 255 255
0.192064 0.0607931 0.497 255 255 255
-0.236566 -0.245247 0.743 255 255 255
0.114294 -0.00948972 0.593 255 255 255
-0.0505361 0.0971688 0.395 255 255 255
0.0542849 0.00387121 0.571 255 255 255
-0.123601 0.0509567 0.488 255 255 255
0.0393391 0.104935 0.421 255 255 255
-0.168877 -0.0590721 0.433 255 255 255
-0.0278047 0.0966871 0.401 255 255 255
-0.127771 0.0602938 0.474 255 255 255
0.143607 -0.278915 0.845 255 255 255
-0.203577 0.0124486 0.54 255 255 255
0.242487 -0.246368 0.708 255 255 255
-0.20238 -0.0706663 0.399 255 255 255
-0.0428885 0.13604 0.368 255 255 255
0.263722 -0.0849987 0.77 255 255 255
-0.0260144 -0.235828 0.74 255 255 255
-0.240085 -0.254513 0.728 255 255 255
0.0258399 -0.155515 0.778 255 255 255
0.0532912 0.0886668 0.446 255 255 255
0.32746 -0.111258 0.646 255 255 255
-0.195731 0.0738845 0.381 255 255 255
0.0898045 0.0173102 0.555 255 255 255
0.28685 -0.20358 0.659 255 255 255
-0.00155646 -0.0183587 0.599 255 255 255
0.215322 0.0640542 0.491 255 255 255
-0.13663 0.0576911 0.478 255 255 255
-0.0445226 0.117142 0.393 255 255 255
0.300458 -0.198752 0.64 255 255 255
0.0583247 0.125137 0.392 255 255 255
0.167071 0.10016 0.436 255 255 255
-0.211336 -0.0254892 0.414 255 255 255
0.230459 -0.273639 0.71 255 255 255
0.265246 0.0170574 0.577 255 255 255
-0.100837 -0.248689 0.648 255 255 255
-0.118053 -0.041332 0.622 255 255 255
0.0159974 -0.0434334 0.638 255 255 255
-0.203386 0.056437 0.474 255 255 255
-0.058822 0.126918 0.382 255 255 255
-0.0692659 -0.113674 0.714 255 255 255
-0.126505 0.0967137 0.421 255 255 255
0.0093527 0.134853 0.373 255 255 255
-0.0490007 0.117782 0.393 255 255 255
-0.206794 -0.0604285 0.4 255 255 255
0.0445878 0.071106 0.469 255 255 255
0.244484 0.06908 0.487 255 255 255
-0.181283 -0.0431677 0.429 255 255 255
-0.0533698 -0.0536047 0.648 255 255 255
-0.0733565 -0.212229 0.687 255 255 255
0.0885398 -0.195147 0.741 255 255 255
-0.0245027 -0.0848802 0.697 255 255 255
-0.179883 -0.213056 0.809 255 255 255
-0.210266 -0.0337511 0.408 255 255 255
0.195754 -0.286991 0.764 255 255 255
0.19283 0.0945585 0.443 255 255 255
-0.00102898 0.11997 0.396 255 255 255
0.229275 -0.123924 0.803 255 255 255
0.163924 -0.152937 0.888 255 255 255
0.0933482 0.0147323 0.56 255 255 255
-0.00228308 0.123864 0.39 255 255 255
-0.18004 -0.120058 0.397 255 255 255
0.0876871 -0.229551 0.724 255 255 255
0.304578 -0.0720872 0.705 255 255 255
0.271652 -0.0970472 0.747 255 255 255
0.178767 -0.0319626 0.637 255 255 255
-0.195776 -0.103609 0.391 255 255 255
-0.0691312 0.125083 0.384 255 255 255
0.194828 0.120323 0.415 255 255 255
-0.0591351 -0.0956165 0.718 255 255 255
0.288728 -0.0324886 0.744 255 255 255
0.28465 -0.17517 0.682 255 255 255
0.239123 0.0737081 0.481 255 255 255
0.043544 0.112593 0.409 255 255 255
0.29532 -0.185007 0.654 255 255 255
-0.248147 0.0221847 0.521 255 255 255
0.0379697 -0.257996 0.678 255 255 255
0.178732 -0.0369594 0.652 255 255 255
-0.205734 0.0698161 0.393 255 255 255
-0.200256 -0.126333 0.379 255 255 255
0.0819369 0.130131 0.386 255 255 255
0.337686 -0.0221415 0.686 255 255 255
-0.0140141 0.129686 0.381 255 255 255
-0.189335 -0.0476163 0.419 255 255 255
0.313364 -0.0566861 0.699 255 255 255
-0.113334 0.0388379 0.506 255 255 255
0.0528278 0.134911 0.38 255 255 255
-0.0440993 -0.0464022 0.636 255 255 255
-0.0863825 0.13567 0.367 255 255 255
-0.153922 -0.0386041 0.449 255 255 255
0.18204 0.133502 0.396 255 255 255
-0.156064 -0.0626153 0.654 255 255 255
0.189929 -0.228571 0.808 255 255 255
-0.0711913 0.124782 0.385 255 255 255
-0.181424 -0.124604 0.393 255 255 255
-0.0258245 -0.0502077 0.645 255 255 255
0.0441294 -0.247246 0.688 255 255 255
-0.107712 -0.179659 0.678 255 255 255
0.106184 -0.0371457 0.637 255 255 255
0.111068 0.131143 0.389 255 255 255
0.0568268 0.0492488 0.503 255 255 255
-0.200711 0.0615512 0.466 255 255 255
-0.170502 -0.0134548 0.439 255 255 255
-0.159625 -0.10056 0.418 255 255 255
0.130767 0.14295 0.38 255 255 255
0.0102407 -0.0662288 0.669 255 255 255
-0.118299 0.0937029 0.426 255 255 255
-0.18754 -0.27501 0.755 255 255 255
-0.244979 0.0383007 0.499 255 255 255
0.212159 -0.0443222 0.667 255 255 255
-0.206403 0.0367501 0.5 255 255 255
0.0549329 0.103165 0.425 255 255 255
0.0283069 0.129743 0.383 255 255 255
0.13409 0.123402 0.403 255 255 255
-0.0699277 0.0925787 0.403 255 255 255
0.0655963 -0.240853 0.702 255 255 255
0.153788 -0.028264 0.624 255 255 255
0.314747 -0.187147 0.629 255 255 255
-0.198405 0.0765804 0.379 255 255 255
-0.0836556 0.0337276 0.516 255 255 255
-0.140551 -0.0485072 0.446 255 255 255
-0.142691 -0.240179 0.687 255 255 255
-0.185652 0.0199427 0.529 255 255 255
-0.121672 -0.228969 0.658 255 255 255
0.224175 -0.0376396 0.664 255 255 255
0.055598 -0.0133948 0.595 255 255 255
-0.18352 -0.145497 0.384 255 255 255
0.12691 -0.245075 0.892 255 255 255
0.0465842 0.058342 0.49 255 255 255
0.175716 0.0609821 0.492 255 255 255
-0.0531664 0.0211969 0.539 255 255 255
-0.0179991 0.0384653 0.512 255 255 255
-0.0730756 0.00649556 0.557 255 255 255
-0.21132 -0.0912639 0.77 255 255 255
0.212959 0.0854615 0.46 255 255 255
0.0673129 0.109781 0.416 255 255 255
0.0811685 0.144998 0.371 255 255 255
-0.152633 0.124768 0.339 255 255 255
-0.219472 0.0424807 0.491 255 255 255
-0.15093 -0.110246 0.411 255 255 255
-0.0879279 0.132319 0.371 255 255 255
-0.0379592 0.141089 0.361 255 255 255
0.296975 -0.20404 0.637 255 255 255
-0.177884 -0.0865875 0.413 255 255 255
0.280127 -0.165996 0.69 255 255 255
-0.196404 0.0698771 0.456 255 255 255
0.231417 0.0895618 0.458 255 255 255
-0.14432 0.115223 0.393 255 255 255
0.242145 -0.250623 0.707 255 255 255
0.10355 0.141713 0.38 255 255 255
-0.255265 -0.247223 0.724 255 255 255
0.216799 -0.245522 0.755 255 255 255
0.0882519 -0.243176 0.719 255 255 255
0.182271 0.107178 0.43 255 255 255
-0.187735 -0.0497803 0.42 255 255 255
0.123349 -0.279488 0.877 255 255 255
0.052749 0.0612805 0.488 255 255 255
0.300738 -0.156971 0.666 255 255 255
0.327262 -0.055921 0.676 255 255 255
0.0105337 -0.0342466 0.622 255 255 255
0.00365125 -0.0577319 0.659 255 255 255
0.325325 -0.0654322 0.672 255 255 255
0.200319 0.117111 0.418 255 255 255
0.214973 -0.0444551 0.669 255 255 255
-0.037444 0.0109485 0.553 255 255 255
-0.10209 0.00558914 0.557 255 255 255
-0.175113 -0.0824777 0.416 255 255 255
-0.20495 0.00814432 0.546 255 255 255
0.180467 0.123544 0.41 255 255 255
0.269783 -0.0576556 0.773 255 255 255
0.00413882 -0.126222 0.747 255 255 255
0.0526372 -0.154844 0.781 255 255 255
-0.154836 -0.14267 0.397 255 255 255
0.156128 0.143568 0.38 255 255 255
-0.0406559 0.0877639 0.399 255 255 255
-0.123491 0.123188 0.382 255 255 255
-0.0835164 0.0428702 0.505 255 255 255
-0.250334 -0.217684 0.748 255 255 255
-0.173302 0.10407 0.353 255 255 255
-0.182437 -0.113236 0.398 255 255 255
0.0137622 0.120309 0.395 255 255 255
0.00790785 0.099942 0.426 255 255 255
0.310747 -0.0374026 0.722 255 255 255
-0.00211312 0.0497687 0.5 255 255 255
0.035073 0.131269 0.382 255 255 255
-0.239426 -0.254995 0.726 255 255 255
0.185785 -0.121807 0.862 255 255 255
0.114264 0.0717125 0.473 255 255 255
-0.123064 0.10963 0.403 255 255 255
0.196935 0.00670547 0.575 255 255 255
0.180808 -0.299348 0.78 255 255 255
-0.0601884 -0.0844668 0.703 255 255 255
-0.133804 -0.219832 0.676 255 255 255
-0.201746 0.0755189 0.383 255 255 255
-0.0572305 0.0800539 0.406 255 255 255
-0.0703781 0.0573098 0.488 255 255 255
-0.0548559 0.0738088 0.408 255 255 255
-0.0521109 0.132172 0.374 255 255 255
0.138532 -0.172109 0.921 255 255 255
-0.157225 -0.0348729 0.448 255 255 255
0.193344 -0.237831 0.795 255 255 255
0.0435928 -0.028951 0.617 255 255 255
-0.158668 0.118351 0.367 255 255 255
0.259358 0.0483746 0.52 255 255 255
0.224924 0.0533583 0.511 255 255 255
-0.128483 -0.081945 0.701 255 255 255
-0.0871987 -0.207905 0.673 255 255 255
0.0443269 0.115819 0.404 255 255 255
0.259141 -0.233906 0.685 255 255 255
0.0169388 0.0424647 0.51 255 255 255
-0.209517 0.0647819 0.462 255 255 255
0.0693901 -0.0144113 0.597 255 255 255
0.258306 0.0361081 0.539 255 255 255
0.0516681 0.0654697 0.478 255 255 255
0.114392 0.0673059 0.48 255 255 255
-0.131216 -0.041332 0.622 255 255 255
-0.00198521 -0.219854 0.764 255 255 255
0.126927 0.131237 0.395 255 255 255
0.160271 -0.305966 0.811 255 255 255
0.079316 -0.196201 0.745 255 255 255
-0.249063 -0.239769 0.73 255 255 255
-0.0764326 0.12538 0.383 255 255 255
-0.14916 -0.0853535 0.427 255 255 255
-0.250551 -0.24958 0.724 255 255 255
-0.155424 -0.121095 0.407 255 255 255
0.0634965 -0.223831 0.717 255 255 255
-0.105661 -0.13442 0.701 255 255 255
-0.051822 0.101026 0.395 255 255 255
0.120711 0.0474443 0.51 255 255 255
0.268363 -0.108132 0.748 255 255 255
0.29545 -0.241896 0.625 255 255 255
-0.175958 -0.124894 0.398 255 255 255
-0.15445 0.0310875 0.514 255 255 255
-0.20959 -0.171288 0.817 255 255 255
-0.182016 -0.220073 0.801 255 255 255
0.140843 -0.0372623 0.639 255 255 255
0.169582 0.0730951 0.477 255 255 255
-0.204411 0.0695706 0.454 255 255 255
0.0101675 0.0736845 0.466 255 255 255
0.158678 0.0781412 0.47 255 255 255
-0.0734991 -0.224896 0.678 255 255 255
-0.0441047 -0.246565 0.702 255 255 255
-0.146483 -0.0636795 0.654 255 255 255
0.0550835 0.0788955 0.461 255 255 255
0.142895 0.141466 0.381 255 255 255
0.0536358 -0.0446807 0.641 255 255 255
0.168737 -0.226688 0.84 255 255 255
0.31618 -0.153005 0.636 255 255 255
-0.0982504 -0.137056 0.697 255 255 255
-0.183545 0.079323 0.399 255 255 255
0.0613004 0.111408 0.412 255 255 255
-0.123997 0.137769 0.36 255 255 255
0.18359 -0.269154 0.792 255 255 255
-0.128826 0.00556907 0.555 255 255 255
0.281031 -0.179023 0.684 255 255 255
0.036502 0.0127944 0.555 255 255 255
0.0497931 -0.287014 0.944 255 255 255
0.0135286 -0.00266089 0.577 255 255 255
0.0113239 0.037302 0.519 255 255 255
-0.000570732 -0.0103666 0.588 255 255 255
-0.175323 -0.116258 0.404 255 255 255
-0.140855 -0.0279519 0.454 255 255 255
0.125251 0.040066 0.522 255 255 255
-0.167644 -0.0198844 0.439 255 255 255
-0.0653217 0.0815757 0.407 255 255 255
-0.029508 -0.222878 0.737 255 255 255
-0.190616 -0.173385 0.827 255 255 255
0.0361691 0.0342505 0.524 255 255 255
0.0742327 0.0670255 0.478 255 255 255
0.215946 0.0667024 0.487 255 255 255
-0.179116 -0.146381 0.388 255 255 255
-0.133141 0.0184621 0.536 255 255 255
-0.0676063 0.12385 0.386 255 255 255
0.29912 -0.181536 0.653 255 255 255
-0.200354 -0.0950933 0.39 255 255 255
-0.0938529 0.115459 0.396 255 255 255
0.209374 -0.164954 0.812 255 255 255
-0.107856 0.116503 0.393 255 255 255
0.00301284 -0.195267 0.77 255 255 255
-0.171384 0.0783297 0.445 255 255 255
0.176948 0.126651 0.405 255 255 255
0.0760157 -0.247294 0.714 255 255 255
0.179332 0.0259622 0.547 255 255 255
0.0340804 -0.136554 0.764 255 255 255
0.109158 0.142812 0.378 255 255 255
0.292368 -0.234769 0.636 255 255 255
0.206426 0.00111206 0.586 255 255 255
-0.0891357 0.132319 0.371 255 255 255
0.05089 0.0662476 0.478 255 255 255
-0.0952927 -0.145081 0.692 255 255 255
0.104198 0.129839 0.387 255 255 255
-0.0515842 -0.230535 0.695 255 255 255
0.0317624 0.0254401 0.536 255 255 255
-0.177526 0.110021 0.35 255 255 255
0.0262174 -0.0400659 0.634 255 255 255
-0.181207 0.0989499 0.416 255 255 255
-0.17364 0.00552893 0.551 255 255 255
-0.14159 0.0993874 0.415 255 255 255
0.145236 -0.157759 0.916 255 255 255
-0.164754 -0.113297 0.775 255 255 255
-0.221358 0.0301334 0.512 255 255 255
0.209457 -0.131824 0.828 255 255 255
-0.208433 -0.259037 0.755 255 255 255
0.20969 0.123024 0.415 255 255 255
0.0570074 0.135172 0.379 255 255 255
-0.0314859 0.12196 0.39 255 255 255
-0.0285471 -0.0926301 0.713 255 255 255
0.096064 0.125452 0.395 255 255 255
0.278967 -0.206195 0.671 255 255 255
-0.0752284 -0.0151509 0.588 255 255 255
-0.148558 0.0334008 0.511 255 255 255
-0.143866 -0.0150221 0.583 255 255 255
0.133492 0.0425328 0.521 255 255 255
0.265065 0.00684541 0.587 255 255 255
-0.144232 -0.0249416 0.453 255 255 255
0.260931 -0.176532 0.724 255 255 255
0.117668 0.130878 0.392 255 255 255
0.0267817 0.126386 0.388 255 255 255
-0.271572 0.0122642 0.532 255 255 255
0.0584541 0.0712576 0.47 255 255 255
-0.168607 0.106093 0.354 255 255 255
0.233439 0.011384 0.575 255 255 255
0.102546 0.116966 0.408 255 255 255
0.185933 -0.264953 0.791 255 255 255
-0.138169 0.0628443 0.47 255 255 255
0.206658 0.0763308 0.473 255 255 255
0.19198 0.0309025 0.54 255 255 255
-0.239143 0.0389559 0.497 255 255 255
-0.178783 -0.188341 0.816 255 255 255
0.0703454 -0.131798 0.78 255 255 255
-0.0737527 0.106482 0.406 255 255 255
0.000428477 -0.0518136 0.652 255 255 255
0.223413 0.0681472 0.486 255 255 255
-0.184169 0.0363677 0.506 255 255 255
-0.183645 0.105794 0.353 255 255 255
-0.108021 -0.0898028 0.709 255 255 255
0.0727016 0.112749 0.412 255 255 255
-0.0471266 -0.237662 0.696 255 255 255
0.161296 0.0479095 0.515 255 255 255
0.0236682 0.0747171 0.463 255 255 255
-0.15787 -0.0799814 0.428 255 255 255
0.16324 0.121465 0.412 255 255 255
0.319711 -0.0908538 0.674 255 255 255
0.019151 -0.237433 0.676 255 255 255
-0.0766842 0.0528113 0.498 255 255 255
0.287772 -0.122741 0.706 255 255 255
0.0699885 0.124817 0.393 255 255 255
0.212049 -0.253332 0.76 255 255 255
-0.160983 0.0199804 0.53 255 255 255
0.0959411 0.113144 0.411 255 255 255
-0.227195 -0.252842 0.744 255 255 255
-0.052465 0.103597 0.395 255 255 255
-0.205492 -0.064985 0.4 255 255 255
-0.0845395 -0.197696 0.687 255 255 255
-0.199206 -0.0416583 0.414 255 255 255
0.11596 -0.311548 0.844 255 255 255
-0.184344 -0.0402811 0.428 255 255 255
-0.216174 -0.232591 0.765 255 255 255
0.0974415 0.123166 0.398 255 255 255
-0.0953469 0.00470794 0.56 255 255 255
-0.19915 -0.0621483 0.407 255 255 255
-0.165536 -0.0235633 0.441 255 255 255
-0.109678 0.133407 0.369 255 255 255
-0.174326 -0.149674 0.39 255 255 255
0.0935645 -0.0685249 0.681 255 255 255
0.194707 -0.226694 0.806 255 255 255
-0.200166 -0.121719 0.38 255 255 255
-0.170045 -0.285148 0.743 255 255 255
0.259652 -0.183389 0.714 255 255 255
0.0450173 0.0246595 0.538 255 255 255
0.0458645 0.0119769 0.559 255 255 255
0.325325 -0.0796485 0.672 255 255 255
0.216127 0.0261046 0.55 255 255 255
-0.134668 0.0833669 0.441 255 255 255
-0.0224914 -0.248875 0.743 255 255 255
0.208334 0.0268033 0.546 255 255 255
-0.0700115 0.054466 0.491 255 255 255
0.309632 -0.141588 0.655 255 255 255
-0.204908 -0.0269663 0.416 255 255 255
0.0218995 0.1312 0.38 255 255 255
-0.132481 -0.0447965 0.628 255 255 255
0.170557 -0.192002 0.856 255 255 255
0.0143916 0.0439516 0.508 255 255 255
-0.162326 -0.0352841 0.444 0 0 0
-0.0727762 -0.125651 0.703 255 255 255
-0.22822 -0.163126 0.803 255 255 255
0.181683 0.143064 0.387 255 255 255
0.0703503 0.0856354 0.453 255 255 255
-0.0593422 0.109565 0.398 255 255 255
0.0266309 -0.0153828 0.597 255 255 255
-0.00850407 -0.172491 0.792 255 255 255
-0.0641644 -0.122109 0.709 255 255 255
0.32016 -0.0540219 0.694 255 255 255
0.0732586 -0.143956 0.784 255 255 255
0.281839 -0.0846638 0.745 255 255 255
0.152243 0.146561 0.375 255 255 255
-0.0766968 -0.223462 0.677 255 255 255
-0.177295 -0.112971 0.404 255 255 255
-0.133225 0.105014 0.408 255 255 255
0.117864 0.073097 0.472 255 255 255
-0.05552 0.0724809 0.408 255 255 255
-0.133806 -0.177636 0.705 255 255 255
-0.0568933 0.0968542 0.399 255 255 255
-0.0880223 -0.157678 0.688 255 255 255
0.0848582 0.131674 0.385 255 255 255
-0.0284385 -0.00170402 0.571 255 255 255
0.0234427 0.135577 0.375 255 255 255
0.00261765 -0.258926 0.669 255 255 255
0.141506 0.0339077 0.532 255 255 255
-0.0705289 0.0252028 0.531 255 255 255
0.00038576 -0.0093937 0.587 255 255 255
-0.0724656 -0.151315 0.7 255 255 255
-0.183747 0.106337 0.351 255 255 255
0.0725289 -0.240323 0.714 255 255 255
-0.181204 -0.0176231 0.575 255 255 255
0.0165385 -0.137949 0.758 255 255 255
-0.142729 0.0792315 0.446 255 255 255
-0.0174882 0.14069 0.363 255 255 255
0.177084 0.0434639 0.522 255 255 255
0.198582 -0.15269 0.839 255 255 255
0.219329 -0.0433664 0.669 255 255 255
-0.170639 -0.0930849 0.415 255 255 255
-0.107554 0.101843 0.414 255 255 255
0.192915 -0.227439 0.804 255 255 255
0.19468 0.112156 0.425 255 255 255
-0.181035 -0.0034938 0.56 255 255 255
-0.0345487 0.10837 0.396 255 255 255
0.0313782 0.134966 0.375 255 255 255
0.0929866 -0.105486 0.738 255 255 255
0.167491 0.115212 0.421 255 255 255
0.219711 -0.278207 0.728 255 255 255
-0.124449 -0.160199 0.704 255 255 255
-0.167134 0.028745 0.517 255 255 255
-0.197614 -0.139882 0.374 255 255 255
-0.276018 0.0231651 0.524 255 255 255
-0.12598 -0.00826595 0.575 255 255 255
-0.0806619 -0.0971348 0.712 255 255 255
-0.0849809 0.0907994 0.419 255 255 255
0.185888 0.0730951 0.477 255 255 255
0.0116535 0.124812 0.389 255 255 255
0.33657 -0.0232578 0.686 255 255 255
-0.029109 -0.0525502 0.648 255 255 255
-0.0547408 -0.231792 0.692 255 255 255
-0.135137 0.0184966 0.537 255 255 255
-0.178676 -0.0719907 0.418 255 255 255
-0.173771 0.00986685 0.543 255 255 255
-0.120316 0.115517 0.394 255 255 255
0.30621 -0.171182 0.65 255 255 255
-0.169589 0.052574 0.481 255 255 255
-0.169503 -0.113703 0.409 255 255 255
-0.255388 -0.154057 0.79 255 255 255
0.293287 -0.223048 0.638 255 255 255
-0.249256 0.0466651 0.493 255 255 255
-0.191273 0.0943528 0.362 255 255 255
-0.0595035 -0.212439 0.695 255 255 255
0.0975564 0.0155877 0.558 255 255 255
0.343992 0.005742 0.683 255 255 255
-0.177826 0.102637 0.354 255 255 255
