ply
format ascii 1.0
comment Created by Open3D
element vertex 1278
property double x
property double y
property double z
property uchar red
property uchar green
property uchar blue
end_header
-0.0465297 0.189473 0.554 255 255 255
0.268849 -0.134049 0.561 255 255 255
-0.20849 -0.0577772 0.672 255 255 255
0.0579363 -0.236943 0.767 255 255 255
0.30269 0.194423 0.698 255 255 255
-0.178966 0.0492836 0.656 255 255 255
-0.312281 -0.212108 0.649 255 255 255
-0.0838631 -0.20399 0.609 255 255 255
-0.206408 0.02731 0.398 255 255 255
-0.12784 0.112586 0.606 255 255 255
0.175008 0.107252 0.812 255 255 255
0.0903692 0.0100524 0.862 255 255 255
-0.24787 0.151073 0.524 255 255 255
0.185761 -0.018681 0.725 255 255 255
-0.199562 -0.102351 0.63 255 255 255
-0.213027 -0.19073 0.575 255 255 255
-0.390515 -0.0402339 0.753 255 255 255
-0.0337947 -0.128581 0.726 255 255 255
0.332108 0.250545 0.693 255 255 255
0.133396 -0.187695 0.704 255 255 255
-0.0620976 -0.0585506 0.785 255 255 255
-0.202452 -0.142866 0.602 255 255 255
0.0985538 -0.172575 0.753 255 255 255
0.0783634 -0.152887 0.784 255 255 255
0.116852 -0.227962 0.701 255 255 255
-0.353571 -0.037558 0.725 255 255 255
-0.169963 -0.170154 0.623 255 255 255
0.116798 -0.0713251 0.785 255 255 255
-0.0345627 0.0789184 0.672 255 255 255
0.198572 0.0985816 0.775 255 255 255
0.210659 -0.104382 0.649 255 255 255
0.214812 -0.170723 0.607 255 255 255
-0.0640273 0.0796572 0.66 255 255 255
0.200422 -0.113153 0.657 255 255 255
0.139094 -0.217632 0.676 255 255 255
-0.33389 -0.187624 0.652 255 255 255
0.135101 -0.104062 0.745 255 255 255
-0.0281623 0.146859 0.605 255 255 255
-0.360298 -0.141178 0.684 255 255 255
0.109877 -0.13986 0.755 255 255 255
-0.229895 0.0947277 0.587 255 255 255
0.245327 -0.164955 0.57 255 255 255
-0.15753 0.13373 0.574 255 255 255
-0.0384152 0.151464 0.596 255 255 255
-0.183499 0.0850963 0.614 255 255 255
-0.242542 0.114268 0.561 255 255 255
-0.192668 -0.161961 0.593 255 255 255
0.0647349 0.190264 0.59 255 255 255
0.326521 0.140334 0.638 255 255 255
0.119814 0.106886 0.705 255 255 255
-0.223055 0.134159 0.549 255 255 255
-0.187309 0.14756 0.549 255 255 255
0.150909 -0.248476 0.642 255 255 255
-0.0209195 -0.302825 0.824 255 255 255
0.219412 -0.141084 0.62 255 255 255
0.22223 -0.163711 0.603 255 255 255
0.325694 0.162761 0.653 255 255 255
0.306808 0.168743 0.677 255 255 255
0.330584 0.166788 0.648 255 255 255
-0.20682 -0.109984 0.621 255 255 255
0.240355 -0.15216 0.585 255 255 255
0.128556 -0.259237 0.667 255 255 255
0.196383 -0.215361 0.602 255 255 255
0.248362 -0.197474 0.552 255 255 255
0.109286 0.00294341 0.835 255 255 255
-0.184199 -0.171684 0.6 255 255 255
-0.0354228 0.121977 0.629 255 255 255
0.282107 0.0134339 0.627 255 255 255
-0.351022 -0.123142 0.715 255 255 255
0.24174 0.168406 0.76 255 255 255
-0.0596747 -0.134787 0.697 255 255 255
0.156551 -0.195988 0.666 255 255 255
-0.151292 -0.178317 0.634 255 255 255
0.000561883 -0.190386 0.855 255 255 255
-0.140886 0.0929905 0.62 255 255 255
0.0244118 0.0468461 0.735 255 255 255
-0.22727 0.140386 0.542 255 255 255
0.0925852 0.21085 0.578 255 255 255
-0.355047 -0.103263 0.748 255 255 255
-0.123371 -0.144437 0.711 255 255 255
0.330897 0.195833 0.657 255 255 255
-0.2137 0.0765668 0.431 255 255 255
0.0478926 0.127771 0.648 255 255 255
0.218519 -0.110397 0.635 255 255 255
0.256459 -0.0144528 0.642 255 255 255
0.122829 0.046926 0.844 255 255 255
0.17455 0.00878125 0.753 255 255 255
0.249202 -0.179102 0.562 255 255 255
-0.252052 0.0600189 0.613 255 255 255
0.0898608 -0.070416 0.819 255 255 255
-0.110757 0.200231 0.521 255 255 255
-0.0762893 0.178655 0.554 255 255 255
-0.0597299 0.0796572 0.66 255 255 255
0.00667377 -0.0497447 0.931 255 255 255
0.324304 0.18842 0.661 255 255 255
0.21696 -0.215412 0.581 255 255 255
0.0157414 -0.192967 0.848 255 255 255
0.0771205 0.201891 0.582 255 255 255
-0.358269 -0.0876052 0.76 255 255 255
-0.195234 -0.159761 0.592 255 255 255
0.284852 0.112819 0.672 255 255 255
-0.00248503 0.171439 0.588 255 255 255
-0.355001 -0.123262 0.709 255 255 255
0.18748 -0.0882626 0.688 255 255 255
-0.207704 0.0318438 0.398 255 255 255
-0.0932145 0.0622358 0.669 255 255 255
0.260821 -0.0649228 0.606 255 255 255
-0.348369 -0.122336 0.724 255 255 255
0.15021 -0.242362 0.648 255 255 255
0.154961 0.0512439 0.804 255 255 255
0.015756 0.0996961 0.672 255 255 255
-0.172544 -0.164598 0.625 255 255 255
-0.268094 0.0464521 0.632 255 255 255
0.136673 0.205495 0.598 255 255 255
-0.067393 0.0870461 0.651 255 255 255
-0.0426577 0.11602 0.63 255 255 255
-0.11025 0.163307 0.557 255 255 255
0.210289 0.0765801 0.745 255 255 255
-0.113418 0.0914147 0.63 255 255 255
-0.350385 -0.129031 0.709 255 255 255
-0.300996 -0.1921 0.691 255 255 255
0.136979 0.00677607 0.806 255 255 255
-0.115729 -0.125561 0.736 255 255 255
-0.35059 -0.0668901 0.793 255 255 255
0.123437 0.212814 0.586 255 255 255
0.209432 -0.122062 0.642 255 255 255
-0.168413 -0.0980129 0.678 255 255 255
0.268134 0.000171695 0.635 255 255 255
0.109799 -0.127684 0.763 255 255 255
0.118001 -0.00111269 0.82 255 255 255
0.125577 0.049673 0.844 255 255 255
0.259018 -0.122966 0.582 255 255 255
0.275765 0.132705 0.696 255 255 255
0.224428 -0.163168 0.601 255 255 255
-0.001993 0.00894451 0.767 255 255 255
0.173425 -0.184441 0.652 255 255 255
0.0331535 0.181275 0.592 255 255 255
0.272292 -0.0967251 0.578 255 255 255
-0.0440136 0.154561 0.593 255 255 255
0.0800459 -0.143408 0.788 255 255 255
0.225413 0.086317 0.735 255 255 255
0.0447067 0.0829886 0.697 255 255 255
0.243409 0.0735113 0.704 255 255 255
0.169654 -0.148108 0.675 255 255 255
-0.225633 -0.268565 0.691 255 255 255
0.0541996 -0.105654 0.845 255 255 255
0.27153 -0.133571 0.559 255 255 255
0.259339 -0.184534 0.543 255 255 255
-0.220444 -0.0910493 0.637 255 255 255
-0.308756 -0.226762 0.631 255 255 255
-0.167044 0.139165 0.562 255 255 255
-0.254108 0.0574914 0.618 255 255 255
-0.186234 -0.192999 0.579 255 255 255
-0.34632 -0.0195025 0.672 255 255 255
-0.231746 0.123424 0.557 255 255 255
-0.137846 0.102578 0.611 255 255 255
0.162152 -0.227226 0.641 255 255 255
-0.16879 0.132101 0.571 255 255 255
-0.0490052 -0.055639 0.78 255 255 255
-0.0655855 -0.218403 0.605 255 255 255
-0.00685338 -0.104097 0.916 255 255 255
-0.244941 0.125011 0.552 255 255 255
-0.0712226 -0.160196 0.657 255 255 255
0.176824 -0.0942237 0.699 255 255 255
0.0297981 0.105625 0.668 255 255 255
0.286533 0.0329773 0.63 255 255 255
-0.131049 -0.15223 0.715 255 255 255
0.151601 -0.225449 0.654 255 255 255
0.0179328 0.133054 0.633 255 255 255
0.0803371 0.0960132 0.701 255 255 255
0.257573 -0.0184867 0.637 255 255 255
-0.081865 -0.00464176 0.744 255 255 255
-0.0490494 0.159818 0.584 255 255 255
-0.0658542 0.000200356 0.741 255 255 255
0.210467 -0.206966 0.592 255 255 255
0.122065 -0.0509507 0.786 255 255 255
-0.130233 -0.125725 0.73 255 255 255
0.158843 -0.192656 0.662 255 255 255
-0.17437 0.186553 0.516 255 255 255
-0.0896229 -0.0248204 0.769 255 255 255
-0.25481 0.173672 0.496 255 255 255
0.201636 -0.126472 0.654 255 255 255
0.17024 -0.108028 0.7 255 255 255
0.158475 -0.0957496 0.719 255 255 255
0.0228905 -0.229886 0.808 255 255 255
0.0865819 -0.107973 0.801 255 255 255
0.0714577 0.191224 0.59 255 255 255
0.0930574 0.196057 0.593 255 255 255
0.213511 0.177009 0.793 255 255 255
-0.16765 0.187393 0.516 255 255 255
0.102367 -0.165442 0.754 255 255 255
0.0495003 -0.16648 0.813 255 255 255
0.21132 -0.164499 0.617 255 255 255
0.223786 -0.0087453 0.686 255 255 255
0.159001 0.0560559 0.798 255 255 255
0.266211 0.189775 0.742 255 255 255
0.308309 0.103119 0.639 255 255 255
0.287645 0.237248 0.732 255 255 255
0.185212 -0.167766 0.645 255 255 255
0.29181 0.135893 0.678 255 255 255
0.288524 -0.0354849 0.592 255 255 255
0.241143 -0.0830984 0.624 255 255 255
-0.178806 -0.029302 0.697 255 255 255
0.244526 -0.181297 0.566 255 255 255
-0.177133 0.134391 0.565 255 255 255
-0.0744944 -0.0341043 0.781 255 255 255
0.209114 0.117044 0.772 255 255 255
-0.335039 -0.160803 0.687 255 255 255
0.225814 0.0600334 0.721 255 255 255
0.167077 0.192495 0.632 255 255 255
0.0698883 0.00312671 0.887 255 255 255
-0.141399 0.139091 0.573 255 255 255
-0.0911615 -0.134482 0.662 255 255 255
0.180042 -0.0490838 0.721 255 255 255
-0.198728 0.146754 0.546 255 255 255
-0.389709 -0.0505685 0.761 255 255 255
0.0795048 0.154197 0.631 255 255 255
-0.238755 0.173668 0.503 255 255 255
0.0110848 0.212778 0.549 255 255 255
0.262454 0.196004 0.752 255 255 255
-0.0194038 0.11283 0.641 255 255 255
-0.0158673 0.130355 0.625 255 255 255
-0.076368 0.163759 0.568 255 255 255
-0.162286 0.156494 0.549 255 255 255
0.0333822 0.0601167 0.722 255 255 255
0.0255535 -0.0628737 0.902 255 255 255
0.12319 0.00955092 0.819 255 255 255
-0.183441 0.139332 0.559 255 255 255
-0.0221585 0.0275956 0.732 255 255 255
0.239747 0.0525893 0.7 255 255 255
-0.00400648 -0.0429395 0.948 255 255 255
-0.228251 -0.248039 0.669 255 255 255
-0.109794 -0.116325 0.77 255 255 255
0.169813 -0.0276085 0.743 255 255 255
-0.278043 -0.0285719 0.707 255 255 255
-0.327517 -0.172733 0.69 255 255 255
0.244068 0.230726 0.616 255 255 255
0.00126359 0.20533 0.553 255 255 255
0.144296 0.11382 0.841 255 255 255
0.00330239 -0.207165 0.844 255 255 255
-0.350518 -0.0444161 0.741 255 255 255
-0.0646098 -0.227763 0.596 255 255 255
0.242302 -0.0692133 0.627 255 255 255
-0.0424921 -0.238022 0.882 255 255 255
0.0265837 0.0163478 0.763 255 255 255
-0.239177 0.0932932 0.584 255 255 255
0.0867885 0.177853 0.61 255 255 255
-0.157174 -0.221357 0.605 255 255 255
0.337059 0.236296 0.678 255 255 255
-0.171661 -0.154344 0.633 255 255 255
0.216607 -0.0909316 0.651 255 255 255
0.225685 -0.184212 0.584 255 255 255
-0.1503 -0.121496 0.686 255 255 255
-0.209921 0.153661 0.536 255 255 255
0.262968 -0.0410662 0.618 255 255 255
0.10909 0.0235771 0.844 255 255 255
-0.176679 -0.179794 0.601 255 255 255
0.0440873 0.151471 0.624 255 255 255
0.0782588 -0.266074 0.724 255 255 255
-0.215329 0.0966505 0.446 255 255 255
-0.237231 0.0515945 0.632 255 255 255
-0.159584 -0.0398075 0.723 255 255 255
0.0237971 -0.181578 0.84 255 255 255
0.081153 0.182302 0.605 255 255 255
-0.00438437 0.172763 0.586 255 255 255
0.149472 -0.229706 0.654 255 255 255
-0.057482 0.0326349 0.712 255 255 255
0.0182673 0.213166 0.55 255 255 255
-0.092086 0.160986 0.568 255 255 255
-0.122813 0.150158 0.569 255 255 255
0.279172 0.00627147 0.625 255 255 255
0.113963 -0.0414951 0.801 255 255 255
-0.0992395 0.194069 0.532 255 255 255
0.162495 -0.202344 0.655 255 255 255
-0.196062 0.146754 0.546 255 255 255
-0.085521 0.139121 0.593 255 255 255
0.223402 -0.186431 0.588 255 255 255
0.326538 0.20625 0.67 255 255 255
0.22661 0.0958857 0.735 255 255 255
0.00597262 0.0863702 0.679 255 255 255
-0.22989 0.0814739 0.602 255 255 255
-0.120174 0.158089 0.561 255 255 255
-0.174628 -0.105264 0.668 255 255 255
0.0127639 0.179132 0.585 255 255 255
-0.28963 0.0468044 0.623 255 255 255
-0.0282088 0.14513 0.606 255 255 255
-0.214781 -0.125321 0.612 255 255 255
0.274975 0.070415 0.664 255 255 255
-0.259859 -0.236763 0.65 255 255 255
0.0872592 0.0357525 0.873 255 255 255
0.150564 -0.245438 0.645 255 255 255
0.10619 -0.143546 0.755 255 255 255
0.132946 -0.216868 0.684 255 255 255
-0.226346 -0.217681 0.603 255 255 255
0.256274 -0.190185 0.544 255 255 255
-0.057114 0.0236938 0.722 255 255 255
-0.0531285 0.185061 0.557 255 255 255
0.20945 -0.023529 0.694 255 255 255
0.195846 -0.153404 0.642 255 255 255
-0.0628292 0.166482 0.571 255 255 255
-0.250186 0.187164 0.487 255 255 255
-0.161987 -0.0855208 0.693 255 255 255
-0.376219 -0.0837546 0.737 255 255 255
0.0358512 0.16655 0.605 255 255 255
-0.251725 0.0228021 0.662 255 255 255
0.323139 0.150378 0.65 255 255 255
0.220239 -0.101893 0.64 255 255 255
-0.0959561 -0.225905 0.604 255 255 255
-0.0281336 0.202212 0.547 255 255 255
-0.283763 0.0885723 0.578 255 255 255
-0.192972 -0.156842 0.603 255 255 255
-0.00322558 0.204587 0.551 255 255 255
0.0344053 0.17892 0.597 255 255 255
0.138365 -0.0569097 0.763 255 255 255
0.346909 0.261338 0.68 255 255 255
-0.0437653 0.16917 0.577 255 255 255
0.0472244 0.165489 0.612 255 255 255
-0.144691 -0.191154 0.646 255 255 255
-0.270002 0.155641 0.511 255 255 255
0.289227 -0.0506359 0.578 255 255 255
0.180395 0.159618 0.662 255 255 255
0.188356 0.0934663 0.785 255 255 255
-0.14013 -0.235518 0.68 255 255 255
-0.12341 0.136292 0.585 255 255 255
-0.354504 -0.15205 0.673 255 255 255
0.173897 -0.158055 0.666 255 255 255
0.24786 0.0611734 0.694 255 255 255
-0.217588 -0.111825 0.62 255 255 255
0.0885441 -0.0956494 0.807 255 255 255
-0.108184 0.156915 0.57 255 255 255
0.00831835 -0.284179 0.798 255 255 255
-0.154975 0.03015 0.682 255 255 255
0.158108 -0.18788 0.668 255 255 255
-0.11472 -0.243914 0.655 255 255 255
-0.0947994 0.079508 0.65 255 255 255
0.121991 -0.196503 0.711 255 255 255
0.202135 -0.221791 0.593 255 255 255
-0.174843 -0.000974285 0.718 255 255 255
0.2278 -0.175606 0.587 255 255 255
0.149595 -0.221332 0.664 255 255 255
0.252082 0.0502741 0.684 255 255 255
-0.278144 0.0795791 0.588 255 255 255
-0.303086 -0.153355 0.743 255 255 255
0.136214 -0.25083 0.662 255 255 255
-0.025005 0.101878 0.651 255 255 255
-0.253626 -0.251639 0.667 255 255 255
0.0416843 0.209414 0.564 255 255 255
0.0150549 0.0776637 0.69 255 255 255
0.24437 0.0199546 0.675 255 255 255
-0.389095 -0.0612275 0.755 255 255 255
0.152571 0.197325 0.615 255 255 255
0.191778 -0.0412859 0.708 255 255 255
-0.129703 0.00832644 0.714 255 255 255
0.295474 0.0705507 0.636 255 255 255
-0.176651 -0.0483054 0.693 255 255 255
-0.238245 0.146729 0.533 255 255 255
-0.152188 0.133027 0.575 255 255 255
0.0330905 -0.166509 0.833 255 255 255
0.110931 -0.00112219 0.827 255 255 255
-0.0896468 -0.142842 0.651 255 255 255
0.243056 -0.0578778 0.637 255 255 255
-0.132954 0.197087 0.515 255 255 255
-0.00168379 0.113008 0.648 255 255 255
-0.276871 0.0396255 0.638 255 255 255
0.046563 0.194255 0.579 255 255 255
-0.291282 -0.240411 0.64 255 255 255
0.278032 0.0228694 0.634 255 255 255
0.135881 0.142133 0.671 255 255 255
-0.110619 0.153078 0.573 255 255 255
-0.226103 0.177294 0.504 255 255 255
0.168442 -0.130807 0.688 255 255 255
-0.059515 0.172393 0.566 255 255 255
-0.052241 -0.208345 0.622 255 255 255
-0.154984 -0.200687 0.608 255 255 255
0.123686 -0.132622 0.742 255 255 255
-0.0669498 -0.196755 0.627 255 255 255
0.307401 0.141731 0.664 255 255 255
0.301417 0.240878 0.725 255 255 255
-0.0147842 0.0882321 0.668 255 255 255
-0.294013 -0.234255 0.646 255 255 255
-0.0846355 0.0398871 0.697 255 255 255
0.228097 -0.206129 0.571 255 255 255
-0.120949 0.182049 0.54 255 255 255
-0.30617 -0.165953 0.719 255 255 255
-0.162722 -0.048403 0.711 255 255 255
-0.155739 0.197663 0.51 255 255 255
0.212567 0.19763 0.642 255 255 255
-0.000632852 0.107339 0.652 255 255 255
0.24673 0.0634321 0.694 255 255 255
-0.0505718 -0.224804 0.898 255 255 255
-0.0600409 -0.0961359 0.759 255 255 255
0.0204926 0.15178 0.617 255 255 255
0.216581 0.207318 0.612 255 255 255
-0.0381259 0.070692 0.677 255 255 255
0.281839 -0.120187 0.556 255 255 255
0.119512 0.035768 0.84 255 255 255
0.164182 0.104814 0.824 255 255 255
-0.203321 0.172612 0.517 255 255 255
0.0976262 0.210636 0.58 255 255 255
0.182761 0.0919537 0.794 255 255 255
-0.256135 0.152459 0.52 255 255 255
-0.0307053 0.151718 0.597 255 255 255
-0.0598592 0.144917 0.597 255 255 255
-0.0934432 0.0375107 0.695 255 255 255
0.241432 -0.15164 0.583 255 255 255
0.112351 -0.102808 0.772 255 255 255
-0.134682 -0.16547 0.722 255 255 255
-0.253002 0.0369686 0.646 255 255 255
-0.127866 0.0727112 0.646 255 255 255
-0.142472 0.177751 0.535 255 255 255
-0.120336 0.116935 0.603 255 255 255
0.00788139 -0.109114 0.896 255 255 255
0.298703 -0.00855347 0.595 255 255 255
-0.217142 -0.178538 0.581 255 255 255
-0.13059 -0.121305 0.732 255 255 255
-0.0271779 -0.264588 0.852 255 255 255
-0.156797 -0.0914226 0.695 255 255 255
-0.0368257 0.0363138 0.716 255 255 255
0.082192 -0.14906 0.784 255 255 255
-0.062424 -0.223569 0.603 255 255 255
0.0788269 -0.17532 0.776 255 255 255
0.144791 -0.135941 0.715 255 255 255
-0.176843 0.130699 0.573 255 255 255
-0.124921 -0.0277943 0.748 255 255 255
-0.091871 -0.217681 0.603 255 255 255
0.170472 -0.210259 0.637 255 255 255
0.217559 0.0281969 0.717 255 255 255
-0.0540887 -0.192658 0.644 255 255 255
0.16112 -0.0640395 0.731 255 255 255
0.0999985 0.175157 0.618 255 255 255
0.265343 -0.192916 0.532 255 255 255
0.253065 -0.0144979 0.644 255 255 255
-0.051324 -0.142473 0.707 255 255 255
-0.161129 -0.0116821 0.73 255 255 255
0.0417707 -0.137118 0.844 255 255 255
-0.220736 -0.208564 0.583 255 255 255
-0.236363 0.0101879 0.683 255 255 255
0.18432 0.051114 0.763 255 255 255
0.0807047 0.0145419 0.879 255 255 255
-0.348841 -0.109384 0.74 255 255 255
0.272817 0.142048 0.703 255 255 255
0.286063 0.227407 0.731 255 255 255
0.246804 -0.170545 0.567 255 255 255
-0.350174 -0.0118299 0.671 255 255 255
-0.101072 -0.0794929 0.79 255 255 255
0.127267 0.00153905 0.811 255 255 255
0.320706 0.140388 0.643 255 255 255
0.138065 0.143225 0.671 255 255 255
-0.160016 -0.158133 0.64 255 255 255
0.131816 -0.109203 0.747 255 255 255
-0.111515 -0.147208 0.681 255 255 255
0.271586 0.166804 0.721 255 255 255
-0.0267854 0.0829208 0.669 255 255 255
-0.00729551 0.171062 0.59 255 255 255
0.200271 0.00724481 0.722 255 255 255
-0.356574 -0.127939 0.703 255 255 255
0.18197 -0.0375062 0.724 255 255 255
0.106966 -0.185195 0.735 255 255 255
-0.293711 0.0352501 0.634 255 255 255
0.0484205 0.217692 0.557 255 255 255
0.279963 -0.0973079 0.565 255 255 255
-0.155291 0.0649478 0.642 255 255 255
0.136554 0.189319 0.615 255 255 255
-0.107853 -0.149637 0.672 255 255 255
0.0840408 0.125005 0.667 255 255 255
-0.0122833 0.198847 0.555 255 255 255
-0.2969 -0.239463 0.632 255 255 255
0.200624 0.217341 0.615 255 255 255
0.221985 0.0505768 0.72 255 255 255
-0.301471 0.00236883 0.672 255 255 255
-0.172822 0.0482896 0.657 255 255 255
0.226136 -0.0882156 0.639 255 255 255
0.20469 -0.137697 0.637 255 255 255
0.131998 -0.0870288 0.755 255 255 255
-0.00953362 0.000208467 0.771 255 255 255
-0.207968 0.173118 0.516 255 255 255
0.289227 0.122661 0.672 255 255 255
-0.0550263 -0.0910752 0.758 255 255 255
0.168103 0.216561 0.599 255 255 255
0.0645027 -0.261822 0.742 255 255 255
-0.336113 -0.147163 0.713 255 255 255
0.239739 -0.0562426 0.642 255 255 255
-0.0576685 0.0787022 0.661 255 255 255
0.234083 -0.188804 0.572 255 255 255
0.176085 0.157464 0.662 255 255 255
0.134383 -0.221133 0.68 255 255 255
-0.02048 0.0420808 0.715 255 255 255
0.244555 0.0746569 0.704 255 255 255
-0.161813 0.0629562 0.643 255 255 255
0.244679 -0.0333619 0.644 255 255 255
-0.214832 -0.120931 0.615 255 255 255
-0.317429 -0.124165 0.772 255 255 255
-0.127904 0.0632578 0.657 255 255 255
0.224827 0.0913492 0.737 255 255 255
-0.0845771 0.130023 0.6 255 255 255
-0.338185 -0.129289 0.73 255 255 255
-0.312421 -0.187928 0.684 255 255 255
0.339655 0.268549 0.69 255 255 255
0.0105162 0.078444 0.687 255 255 255
-0.00926643 -0.207616 0.863 255 255 255
0.190835 -0.0949823 0.68 255 255 255
0.269924 0.17505 0.726 255 255 255
0.260263 -0.0670055 0.607 255 255 255
0.130228 0.012127 0.813 255 255 255
-0.270732 -0.0214542 0.7 255 255 255
-0.0611367 -0.229291 0.6 255 255 255
-0.184425 0.029708 0.672 255 255 255
0.291898 -0.0624286 0.574 255 255 255
-0.205533 -0.0254162 0.684 255 255 255
0.247086 -0.126043 0.592 255 255 255
-0.202978 0.177466 0.514 255 255 255
-0.150282 -0.209936 0.609 255 255 255
-0.112241 0.172575 0.549 255 255 255
0.106734 0.106432 0.702 255 255 255
0.215995 0.195708 0.646 255 255 255
-0.15813 0.0116798 0.706 255 255 255
-0.170703 -0.168869 0.622 255 255 255
-0.207142 0.19307 0.494 255 255 255
0.0749297 -0.270354 0.726 255 255 255
-0.347205 -0.0207799 0.678 255 255 255
-0.22288 0.130637 0.553 255 255 255
0.0454875 0.115998 0.659 255 255 255
0.0486317 0.117964 0.658 255 255 255
-0.174065 0.135071 0.564 255 255 255
-0.380617 -0.0752667 0.748 255 255 255
0.123353 0.155906 0.651 255 255 255
0.198639 -0.216486 0.597 255 255 255
0.247457 -0.0676491 0.622 255 255 255
0.336134 0.258067 0.692 255 255 255
0.223195 -0.196164 0.58 255 255 255
-0.0764702 0.0638924 0.675 255 255 255
0.301454 0.144102 0.67 255 255 255
0.263691 -0.159423 0.554 255 255 255
0.17733 -0.0876488 0.701 255 255 255
0.209466 -0.0453854 0.683 255 255 255
0.27031 -0.0220647 0.621 255 255 255
-0.112383 -0.162777 0.992 255 255 255
-0.00234379 -0.115716 0.902 255 255 255
0.191142 0.0293374 0.746 255 255 255
0.202061 0.00722474 0.72 255 255 255
-0.176458 0.0265452 0.675 255 255 255
-0.014945 0.127095 0.629 255 255 255
-0.193425 -0.269792 0.709 255 255 255
-0.160612 0.132091 0.575 255 255 255
0.335329 0.267102 0.695 255 255 255
-0.174698 0.177679 0.522 255 255 255
0.186835 0.130069 0.806 255 255 255
-0.0367061 -0.116137 0.737 255 255 255
-0.229123 0.111166 0.446 255 255 255
0.164766 -0.227557 0.639 255 255 255
-0.305682 -0.159956 0.729 255 255 255
0.320364 0.118445 0.632 255 255 255
0.133714 -0.0462743 0.772 255 255 255
0.16397 0.205311 0.609 255 255 255
0.129161 0.214722 0.586 255 255 255
-0.161338 0.0414266 0.667 255 255 255
0.0220292 -0.206529 0.825 255 255 255
0.057582 -0.149648 0.815 255 255 255
-0.164963 0.147366 0.555 255 255 255
0.20735 -0.0738495 0.669 255 255 255
-0.221352 0.137231 0.547 255 255 255
0.19473 -0.186974 0.625 255 255 255
-0.0865519 0.123638 0.607 255 255 255
-0.0283083 0.0169901 0.737 255 255 255
0.204095 -0.0360039 0.695 255 255 255
0.102734 0.120223 0.683 255 255 255
0.0687221 -0.225478 0.762 255 255 255
-0.380662 -0.0810248 0.734 255 255 255
0.165807 -0.229637 0.639 255 255 255
-0.05597 -0.0738171 0.771 255 255 255
-0.0175722 -0.0276607 0.857 255 255 255
0.160315 -0.232805 0.642 255 255 255
0.038723 0.211952 0.561 255 255 255
-0.0316771 0.151718 0.597 255 255 255
0.0808307 0.17686 0.61 255 255 255
-0.102017 0.104593 0.623 255 255 255
-0.122279 0.179195 0.542 255 255 255
-0.173367 -0.17653 0.61 255 255 255
0.0189527 0.102517 0.669 255 255 255
-0.257092 -0.0769404 0.697 255 255 255
-0.0203039 0.19867 0.552 255 255 255
0.217831 -0.173347 0.599 255 255 255
-0.210609 0.151292 0.54 255 255 255
0.236667 0.0526644 0.701 255 255 255
-0.093864 -0.0513659 0.773 255 255 255
0.279129 0.054205 0.651 255 255 255
0.0303526 0.0491713 0.734 255 255 255
0.0647406 -0.0953462 0.839 255 255 255
0.168974 0.0499692 0.784 255 255 255
0.110365 0.119037 0.689 255 255 255
-0.10675 -0.13266 0.686 255 255 255
0.180779 0.22046 0.599 255 255 255
-0.212524 0.0621617 0.419 255 255 255
0.19352 0.0699216 0.765 255 255 255
-0.132741 -0.0769774 0.765 255 255 255
0.0615102 0.130732 0.647 255 255 255
0.118374 0.0259498 0.832 255 255 255
-0.264957 0.062292 0.606 255 255 255
-0.0462408 0.0109784 0.736 255 255 255
0.187814 0.114637 0.799 255 255 255
-0.130565 -0.167699 0.983 255 255 255
-0.229919 -0.0255277 0.687 255 255 255
0.2377 0.124761 0.736 255 255 255
0.241803 -0.126347 0.598 255 255 255
-0.139109 0.133952 0.579 255 255 255
-0.361306 -0.0896046 0.756 255 255 255
-0.204603 -0.163024 0.583 255 255 255
-0.173694 0.180881 0.519 255 255 255
-0.242656 0.142587 0.537 255 255 255
-0.316947 0.030044 0.633 255 255 255
0.182397 0.00868796 0.745 255 255 255
0.0168924 -0.0634313 0.91 255 255 255
0.035253 0.191428 0.579 255 255 255
0.118753 0.200928 0.596 255 255 255
-0.182651 0.132552 0.565 255 255 255
0.156147 -0.0734555 0.73 255 255 255
0.182074 0.0486945 0.764 255 255 255
-0.124796 -0.24695 0.669 255 255 255
0.03418 0.122498 0.648 255 255 255
-0.289235 0.0056243 0.669 255 255 255
0.144862 -0.0528362 0.758 255 255 255
-0.220812 0.0941316 0.441 255 255 255
0.179959 -0.0592299 0.716 255 255 255
0.16544 -0.193521 0.654 255 255 255
0.288391 0.0697728 0.648 255 255 255
-0.326856 -0.180496 0.677 255 255 255
0.0887491 0.158305 0.631 255 255 255
-0.035461 0.0407455 0.712 255 255 255
-0.199105 0.136114 0.557 255 255 255
0.00496437 -0.114947 0.896 255 255 255
0.321403 0.112586 0.628 255 255 255
0.299723 0.118143 0.659 255 255 255
0.226733 -0.0547629 0.662 255 255 255
-0.0303505 0.177944 0.572 255 255 255
0.122888 0.199032 0.602 255 255 255
-0.265811 0.113153 0.56 255 255 255
0.249135 -0.0441928 0.634 255 255 255
-0.320219 -0.103261 0.785 255 255 255
-0.185373 -0.109778 0.656 255 255 255
0.311352 0.207392 0.692 255 255 255
-0.237117 0.174486 0.503 255 255 255
0.208031 0.0493723 0.737 255 255 255
-0.268641 0.151029 0.518 255 255 255
-0.313711 0.0240896 0.639 255 255 255
-0.207487 -0.120735 0.614 255 255 255
0.275833 0.188045 0.726 255 255 255
-0.106887 0.109432 0.616 255 255 255
0.25386 0.129796 0.724 255 255 255
-0.209613 0.0374836 0.655 255 255 255
-0.35672 -0.141293 0.69 255 255 255
-0.00514696 0.193235 0.565 255 255 255
-0.160214 0.0320849 0.676 255 255 255
-0.336351 -0.0234612 0.692 255 255 255
0.107703 -0.142694 0.757 255 255 255
0.182311 0.0675712 0.781 255 255 255
-0.152962 -0.0967982 0.693 255 255 255
0.0421666 -0.117621 0.852 255 255 255
0.0433367 -0.211192 0.797 255 255 255
0.137408 -0.144892 0.719 255 255 255
0.150847 0.0381127 0.803 255 255 255
0.0287787 -0.194682 0.826 255 255 255
0.108436 -0.102604 0.78 255 255 255
-0.0239242 0.00752577 0.75 255 255 255
0.0599564 -0.218537 0.777 255 255 255
-0.1875 0.11625 0.58 255 255 255
-0.0244075 -0.126566 0.728 255 255 255
-0.333097 -0.14737 0.714 255 255 255
-0.154526 -0.143061 0.652 255 255 255
-0.205976 -0.0703866 0.657 255 255 255
-0.109201 -0.103023 0.793 255 255 255
-0.0165587 -0.0544187 0.96 255 255 255
-0.0973629 -0.144343 0.653 255 255 255
0.29833 0.20991 0.712 255 255 255
-0.0634419 0.177856 0.56 255 255 255
0.00191253 -0.224516 0.837 255 255 255
-0.0310301 0.199207 0.551 255 255 255
0.104696 -0.0551427 0.81 255 255 255
-0.123917 -0.083564 0.78 255 255 255
0.254463 -0.119653 0.589 255 255 255
-0.00373177 -0.159261 0.883 255 255 255
0.0209046 0.164197 0.6 255 255 255
-0.0278264 0.0556066 0.695 255 255 255
0.275515 0.172192 0.719 255 255 255
-0.00666633 -0.147654 0.891 255 255 255
-0.201927 0.0264273 0.672 255 255 255
-0.195562 -0.139343 0.608 255 255 255
0.149122 0.225568 0.582 255 255 255
-0.0450035 -0.257492 0.875 255 255 255
0.100322 0.172697 0.62 255 255 255
0.156238 0.220401 0.591 255 255 255
-0.167677 -0.0910887 0.684 255 255 255
-0.0161548 0.189222 0.564 255 255 255
-0.322619 -0.212723 0.632 255 255 255
0.283186 -0.0406422 0.597 255 255 255
-0.205855 -0.0862707 0.64 255 255 255
-0.132515 -0.195113 0.723 255 255 255
0.266788 0.198347 0.747 255 255 255
0.0792389 -0.03841 0.848 255 255 255
-0.220944 0.0869165 0.599 255 255 255
-0.127016 -0.115127 0.746 255 255 255
-0.0557985 0.199254 0.539 255 255 255
0.0507448 0.145983 0.631 255 255 255
-0.281269 0.0504516 0.618 255 255 255
-0.257054 0.121198 0.551 255 255 255
-0.0873201 0.202062 0.528 255 255 255
-0.0114743 -0.29068 0.82 255 255 255
-0.286779 0.0680533 0.596 255 255 255
0.0734161 0.215521 0.568 255 255 255
0.0971159 -0.0480503 0.824 255 255 255
0.0917536 0.133359 0.66 255 255 255
0.188284 0.168878 0.652 255 255 255
-0.179665 -0.160743 0.618 255 255 255
-0.0998682 0.144815 0.581 255 255 255
-0.168836 -0.0668279 0.698 255 255 255
0.0929686 0.134637 0.661 255 255 255
-0.164709 -0.153486 0.638 255 255 255
-0.104565 -0.14916 0.665 255 255 255
-0.198396 -0.17419 0.576 255 255 255
-0.224462 0.178114 0.504 255 255 255
0.176971 -0.199169 0.638 255 255 255
0.063506 -0.124332 0.823 255 255 255
-0.148096 0.0323222 0.681 255 255 255
-0.114166 0.0464545 0.677 255 255 255
0.111118 -0.0938387 0.781 255 255 255
-0.164362 0.194724 0.511 255 255 255
-0.208305 -0.00321429 0.697 255 255 255
0.215805 -0.0755018 0.655 255 255 255
0.235561 0.237233 0.607 255 255 255
-0.252146 0.0752192 0.599 255 255 255
-0.133096 0.0410065 0.678 255 255 255
0.203726 -0.145302 0.634 255 255 255
-0.207161 -0.111645 0.619 255 255 255
0.0275245 -0.260761 0.79 255 255 255
-0.226044 0.16504 0.517 255 255 255
-0.238682 0.130823 0.55 255 255 255
0.293792 0.117055 0.665 255 255 255
0.23441 0.0746599 0.715 255 255 255
-0.0274922 0.196874 0.552 255 255 255
-0.180537 -0.152428 0.621 255 255 255
-0.325381 -0.113819 0.77 255 255 255
0.0580696 -0.280447 0.737 255 255 255
-0.232201 -0.194085 0.588 255 255 255
-0.18966 -0.0299996 0.687 255 255 255
-0.258482 0.117774 0.556 255 255 255
0.0917631 -0.245516 0.719 255 255 255
-0.152849 -0.0735187 0.719 255 255 255
0.329529 0.164679 0.648 255 255 255
-0.0359575 -0.256769 0.863 255 255 255
-0.0835456 -0.176911 0.629 255 255 255
0.15583 -0.183801 0.677 255 255 255
0.196703 -0.157639 0.638 255 255 255
-0.00563383 0.0198097 0.753 255 255 255
-0.106497 0.0331766 0.699 255 255 255
0.300056 0.0539877 0.624 255 255 255
-0.153587 0.0173009 0.701 255 255 255
-0.301634 -0.235256 0.629 255 255 255
0.261677 0.0787513 0.68 255 255 255
0.175398 0.132328 0.82 255 255 255
0.272276 -0.106331 0.574 255 255 255
-0.00941939 0.154224 0.603 255 255 255
-0.142513 -0.167355 0.72 255 255 255
0.11662 0.196418 0.6 255 255 255
0.0663697 0.0192402 0.898 255 255 255
-0.0561095 -0.142317 0.695 255 255 255
-0.159548 0.0744557 0.634 255 255 255
-0.159093 0.141245 0.563 255 255 255
-0.199101 0.043678 0.652 255 255 255
-0.251435 -0.234894 0.642 255 255 255
-0.0105228 0.0173358 0.752 255 255 255
0.15468 -0.125216 0.707 255 255 255
-0.349763 -0.161902 0.664 255 255 255
0.228283 -0.131726 0.614 255 255 255
-0.348127 -0.0869239 0.776 255 255 255
-0.0865739 0.194799 0.534 255 255 255
0.227679 0.189034 0.784 255 255 255
-0.109509 -0.0585324 0.768 255 255 255
0.221125 -0.166802 0.6 255 255 255
-0.169269 0.126414 0.579 255 255 255
0.0156883 -0.300725 0.777 255 255 255
-0.341592 -0.102142 0.767 255 255 255
0.131814 -0.251639 0.667 255 255 255
0.288721 0.0101744 0.615 255 255 255
-0.304843 -0.161884 0.727 255 255 255
0.19601 0.0736563 0.765 255 255 255
-0.0241437 -0.0817651 0.951 255 255 255
0.274633 0.0612125 0.658 255 255 255
0.0371139 0.12803 0.644 255 255 255
-0.0717675 -0.0327493 0.779 255 255 255
-0.0728386 0.128788 0.608 255 255 255
0.208665 0.120022 0.775 255 255 255
-0.218415 0.0809625 0.432 255 255 255
0.328114 0.23496 0.687 255 255 255
-0.195508 0.152735 0.542 255 255 255
0.0382953 -0.0635569 0.891 255 255 255
0.257687 -0.0638854 0.615 255 255 255
0.237069 -0.19303 0.568 255 255 255
0.17785 0.12417 0.819 255 255 255
-0.213372 0.0465017 0.647 255 255 255
-0.376814 -0.0508343 0.765 255 255 255
0.00515829 -0.0573199 0.931 255 255 255
-0.0878748 0.14816 0.583 255 255 255
-0.0719098 0.17988 0.555 255 255 255
-0.19228 0.125157 0.569 255 255 255
-0.0124258 -0.150047 0.888 255 255 255
0.0481389 0.110728 0.666 255 255 255
0.293379 0.135091 0.674 255 255 255
0.317988 0.193509 0.675 255 255 255
0.269846 -0.124891 0.565 255 255 255
-0.239587 0.0925009 0.585 255 255 255
-0.0358918 -0.101637 0.745 255 255 255
-0.225689 0.152803 0.53 255 255 255
-0.156602 0.181771 0.524 255 255 255
0.194216 -0.0208084 0.717 255 255 255
0.031048 0.197146 0.571 255 255 255
0.2492 -0.150599 0.579 255 255 255
-0.196518 -0.0956077 0.654 255 255 255
-0.148067 -0.181779 0.686 255 255 255
0.310244 0.0718026 0.62 255 255 255
0.0264444 0.0187324 0.759 255 255 255
0.165135 0.210216 0.606 255 255 255
-0.158213 -0.196062 0.609 255 255 255
0.287502 -0.0804038 0.569 255 255 255
-0.246592 -0.0663492 0.693 255 255 255
0.00211132 -0.0238086 0.924 255 255 255
0.00394262 0.208691 0.55 255 255 255
-0.194489 0.133678 0.562 255 255 255
-0.286182 0.0824137 0.581 255 255 255
-0.00492325 -0.237906 0.841 255 255 255
-0.143676 -0.0749405 0.757 255 255 255
0.0685096 -0.0826622 0.835 255 255 255
0.131435 -0.167813 0.712 255 255 255
-0.0150747 0.19629 0.558 255 255 255
0.118983 -0.173953 0.728 255 255 255
-0.133402 -0.0395927 0.741 255 255 255
-0.213013 0.176221 0.508 255 255 255
0.132188 -0.0204331 0.793 255 255 255
-0.0620871 -0.188337 0.64 255 255 255
-0.0834494 0.14274 0.592 255 255 255
-0.208757 0.139519 0.549 255 255 255
-0.0239821 0.099912 0.652 255 255 255
0.0174113 -0.267298 0.798 255 255 255
0.144625 -0.228502 0.666 255 255 255
0.20945 -0.0269171 0.694 255 255 255
-0.182281 -0.134515 0.627 255 255 255
0.321562 0.169314 0.662 255 255 255
-0.0795475 -0.139211 0.664 255 255 255
-0.302833 -0.105547 0.783 255 255 255
-0.0283301 -0.285791 0.845 255 255 255
0.330956 0.192039 0.655 255 255 255
0.03447 -0.222958 0.802 255 255 255
-0.0985523 0.000198193 0.733 255 255 255
0.177452 -0.203719 0.636 255 255 255
0.0473787 0.163032 0.614 255 255 255
-0.0390888 -0.0678168 0.76 255 255 255
0.00530461 0.0315099 0.74 255 255 255
-0.223121 0.108502 0.45 255 255 255
0.227976 -0.177863 0.585 255 255 255
0.22536 -0.00426743 0.684 255 255 255
0.222755 -0.215619 0.574 255 255 255
0.201263 -0.153005 0.636 255 255 255
0.169024 -0.121959 0.695 255 255 255
-0.143862 -0.205137 0.647 255 255 255
0.143462 0.0452024 0.813 255 255 255
0.206817 0.0722121 0.75 255 255 255
0.277473 0.172397 0.715 255 255 255
-0.337969 -0.0758564 0.806 255 255 255
0.0498073 0.0166446 0.916 255 255 255
0.0290586 -0.0117284 0.92 255 255 255
-0.281427 0.0868411 0.579 255 255 255
-0.159687 0.108789 0.596 255 255 255
-0.156675 -0.0237876 0.737 255 255 255
0.0142425 -0.198217 0.841 255 255 255
0.293374 0.00509466 0.606 255 255 255
-0.182004 -0.00910225 0.714 255 255 255
0.204226 0.0608194 0.745 255 255 255
0.216479 -0.207227 0.59 255 255 255
-0.206449 -0.154682 0.591 255 255 255
0.0595213 0.0296993 0.905 255 255 255
-0.197659 0.0337272 0.665 255 255 255
0.242173 0.0155608 0.675 255 255 255
-0.0901865 0.0199456 0.714 255 255 255
-0.194369 -0.0496124 0.68 255 255 255
0.218605 0.117234 0.757 255 255 255
-0.0130228 0.0149477 0.755 255 255 255
-0.26916 0.147942 0.519 255 255 255
-0.209074 -0.134175 0.607 255 255 255
0.259835 -0.0688674 0.606 255 255 255
-0.12442 -0.017984 0.745 255 255 255
-0.309437 -0.232147 0.618 255 255 255
-0.175252 0.139332 0.559 255 255 255
0.0867549 -0.188274 0.757 255 255 255
-0.0698535 -0.039439 0.786 255 255 255
-0.190416 -0.165541 0.592 255 255 255
-0.0571508 -0.0774805 0.77 255 255 255
-0.0854229 0.12442 0.606 255 255 255
-0.113997 -0.104199 0.773 255 255 255
-0.218638 -0.0766854 0.647 255 255 255
-0.0843397 -0.0504321 0.778 255 255 255
-0.187707 0.0308015 0.672 255 255 255
0.0977315 -0.250349 0.703 255 255 255
-0.207128 0.172278 0.516 255 255 255
0.0336775 -0.0817588 0.884 255 255 255
0.13485 -0.116137 0.737 255 255 255
0.111064 0.177168 0.618 255 255 255
0.0217193 0.0532876 0.725 255 255 255
0.195403 -0.2183 0.602 255 255 255
0.164778 -0.109323 0.701 255 255 255
0.000455421 0.0678517 0.693 255 255 255
0.139917 -0.202321 0.68 255 255 255
0.00667631 0.0187324 0.759 255 255 255
0.251561 0.0774283 0.698 255 255 255
0.120229 0.00420949 0.817 255 255 255
0.159424 -0.0944481 0.718 255 255 255
0.173951 -0.185991 0.65 255 255 255
0.172461 0.0162835 0.76 255 255 255
0.0398194 0.119375 0.654 255 255 255
0.294874 0.123548 0.665 255 255 255
0.225916 -0.141487 0.613 255 255 255
0.274751 -0.125609 0.56 255 255 255
-0.179592 0.149619 0.55 255 255 255
0.243479 -0.101419 0.612 255 255 255
-0.15111 0.068082 0.642 255 255 255
0.0651248 0.0163721 0.901 255 255 255
0.103004 -0.0996824 0.787 255 255 255
-0.326627 -0.216442 0.622 255 255 255
0.12962 -0.217648 0.69 255 255 255
0.327925 0.156484 0.649 255 255 255
-0.211345 0.172447 0.514 255 255 255
-0.158883 0.113066 0.593 255 255 255
-0.309898 -0.0998091 0.788 255 255 255
0.102297 -0.226795 0.719 255 255 255
0.245445 0.119686 0.727 255 255 255
-0.0198498 0.062213 0.693 255 255 255
0.153271 0.0393704 0.802 255 255 255
-0.0639303 -0.160683 0.659 255 255 255
-0.125409 0.201277 0.515 255 255 255
0.100947 -0.117987 0.781 255 255 255
0.226707 0.157246 0.772 255 255 255
0.142247 0.0792266 0.837 255 255 255
0.117312 0.213039 0.584 255 255 255
0.14228 0.179749 0.627 255 255 255
-0.32416 -0.212737 0.629 255 255 255
0.133032 -0.100694 0.747 255 255 255
0.25049 -0.0771459 0.617 255 255 255
-0.221757 0.173935 0.511 255 255 255
-0.284911 -0.228896 0.664 255 255 255
-0.025458 -0.283069 0.841 255 255 255
-0.0763783 -0.183052 0.629 255 255 255
0.263561 -0.0653651 0.601 255 255 255
0.24337 -0.140019 0.59 255 255 255
0.0278906 0.00782694 0.931 255 255 255
0.177431 0.0958476 0.805 255 255 255
0.0722692 0.0611991 0.735 255 255 255
-0.235651 -0.0212703 0.694 255 255 255
0.204111 0.194355 0.645 255 255 255
0.205619 -0.0533214 0.685 255 255 255
-0.223986 0.0895168 0.436 255 255 255
-0.172359 -0.182355 0.603 255 255 255
0.278135 0.0894529 0.669 255 255 255
0.128755 0.0810251 0.856 255 255 255
-0.0186515 -0.0125623 0.785 255 255 255
-0.0933239 -0.114969 0.874 255 255 255
-0.337176 -0.0805998 0.801 255 255 255
-0.146377 0.190648 0.518 255 255 255
0.118968 0.192783 0.607 255 255 255
0.07319 -0.0318817 0.858 255 255 255
0.128171 -0.127448 0.74 255 255 255
0.0607512 0.0984241 0.686 255 255 255
-0.0153372 0.0172436 0.748 255 255 255
0.0294984 0.133067 0.638 255 255 255
-0.0445406 -0.274573 0.866 255 255 255
-0.27798 0.0966222 0.57 255 255 255
-0.187396 -0.0855685 0.667 255 255 255
-0.0709871 0.173918 0.562 255 255 255
-0.293994 0.0722911 0.591 255 255 255
-0.209137 0.137983 0.55 255 255 255
0.26357 -0.180543 0.539 255 255 255
-0.165037 -0.262454 0.711 255 255 255
0.00586871 0.198965 0.563 255 255 255
0.0638281 -0.0850273 0.845 255 255 255
-0.0399224 -0.124537 0.73 255 255 255
0.288516 -0.0154601 0.6 255 255 255
-0.0740911 -0.159464 0.654 255 255 255
0.208062 -0.129173 0.641 255 255 255
0.262889 0.0622358 0.669 255 255 255
-0.19923 -0.000951217 0.701 255 255 255
-0.326867 -0.0245518 0.691 255 255 255
-0.0537676 -0.231202 0.605 255 255 255
0.193153 0.178268 0.64 255 255 255
0.147661 -0.133053 0.712 255 255 255
-0.105208 -0.0383351 0.764 255 255 255
0.283707 0.189742 0.719 255 255 255
0.285953 -0.00971376 0.607 255 255 255
-0.121064 -0.160353 0.997 255 255 255
-0.220303 0.181492 0.502 255 255 255
0.211141 0.0237267 0.723 255 255 255
-0.327679 -0.016439 0.681 255 255 255
0.188326 -0.0914882 0.687 255 255 255
-0.127259 -0.0655153 0.762 255 255 255
-0.319279 -0.0131337 0.682 255 255 255
0.166125 0.128075 0.827 255 255 255
0.295848 0.0119384 0.603 255 255 255
-0.120111 0.153699 0.565 255 255 255
0.303197 0.0913938 0.637 255 255 255
-0.0995917 -0.170631 0.64 255 255 255
0.265472 -0.182344 0.534 255 255 255
-0.134018 -0.150789 1.009 255 255 255
-0.221871 -0.191775 0.581 255 255 255
0.117453 0.217242 0.58 255 255 255
-0.0295546 0.190499 0.557 255 255 255
0.221501 0.100963 0.746 255 255 255
0.0204262 0.154291 0.615 255 255 255
0.240508 -0.173585 0.574 255 255 255
-0.230986 0.117633 0.564 255 255 255
0.246098 -0.194031 0.555 255 255 255
-0.23904 -0.0382108 0.694 255 255 255
-0.202413 0.0532058 0.639 255 255 255
-0.124861 -0.110373 0.755 255 255 255
-0.111679 0.0969465 0.626 255 255 255
-0.135804 0.0419235 0.675 255 255 255
0.117323 0.170356 0.63 255 255 255
-0.0987883 0.204331 0.525 255 255 255
-0.0556901 -0.139578 0.704 255 255 255
-0.198295 -0.182607 0.573 255 255 255
0.179173 -0.0400277 0.727 255 255 255
-0.0204142 0.196137 0.555 255 255 255
0.186731 -0.170385 0.643 255 255 255
-0.00914832 -0.22438 0.852 255 255 255
-0.0881631 0.0625149 0.672 255 255 255
-0.271765 0.113355 0.561 255 255 255
-0.120467 0.140791 0.58 255 255 255
0.167797 0.10456 0.822 255 255 255
0.227417 -0.0473645 0.664 255 255 255
-0.111973 0.0606901 0.664 255 255 255
0.264438 -0.059695 0.603 255 255 255
-0.243514 0.174608 0.501 255 255 255
-0.0244235 0.0887843 0.664 255 255 255
-0.102038 0.179068 0.547 255 255 255
-0.169673 -0.190256 0.597 255 255 255
-0.0514692 -0.141723 0.709 255 255 255
-0.269284 0.151286 0.516 255 255 255
0.269935 -0.040601 0.611 255 255 255
-0.217655 -0.149702 0.598 255 255 255
-0.000788153 -0.278594 0.812 255 255 255
0.264167 0.0444819 0.664 255 255 255
-0.182121 0.128609 0.572 255 255 255
0.28756 -0.0345216 0.592 255 255 255
0.174223 -0.177828 0.655 255 255 255
-0.0971044 0.134296 0.593 255 255 255
0.10147 0.0641657 0.873 255 255 255
-0.164665 -0.220504 0.6 255 255 255
-0.0821456 0.100249 0.634 255 255 255
0.221821 -0.216553 0.574 255 255 255
-0.123973 0.201668 0.516 255 255 255
0.210421 -0.0157811 0.701 255 255 255
0.0689484 -0.117778 0.824 255 255 255
-0.10177 0.0757402 0.654 255 255 255
0.20832 -0.0303052 0.694 255 255 255
0.141015 0.189935 0.617 255 255 255
0.256796 0.100863 0.703 255 255 255
0.225993 0.0860821 0.733 255 255 255
-0.0728554 -0.00957393 0.751 255 255 255
-0.146445 -0.0580697 0.746 255 255 255
-0.0988831 0.0509364 0.678 255 255 255
0.290911 0.175997 0.697 255 255 255
-0.159039 -0.0941334 0.69 255 255 255
-0.243656 0.0722727 0.607 255 255 255
0.241161 0.186912 0.77 255 255 255
-0.0342136 0.01814 0.735 255 255 255
-0.129505 0.119283 0.6 255 255 255
0.220162 -0.213929 0.577 255 255 255
-0.356913 -0.108646 0.727 255 255 255
0.011172 -0.0163432 0.927 255 255 255
-0.224414 0.158196 0.525 255 255 255
0.0948767 -0.242161 0.716 255 255 255
0.245096 -0.154506 0.576 255 255 255
0.20797 -0.161784 0.622 255 255 255
0.000469221 0.054803 0.714 255 255 255
-0.109339 -0.0992769 0.794 255 255 255
-0.0514692 -0.139415 0.709 255 255 255
0.0814194 -0.0490999 0.842 255 255 255
-0.143596 0.0883713 0.623 255 255 255
0.0213924 0.155039 0.614 255 255 255
-0.137769 0.15014 0.562 255 255 255
0.118991 -0.236825 0.687 255 255 255
0.103963 0.00712075 0.847 255 255 255
-0.202414 -0.0397115 0.681 255 255 255
0.264786 -0.116075 0.576 255 255 255
0.0531992 -0.100864 0.851 255 255 255
-0.107677 0.180742 0.544 255 255 255
-0.0525211 -0.233974 0.602 255 255 255
0.261375 -0.0677693 0.605 255 255 255
0.105711 -0.17391 0.743 255 255 255
0.242887 -0.163958 0.573 255 255 255
-0.0196754 -0.17915 0.889 255 255 255
-0.111365 0.125487 0.597 255 255 255
0.0653612 0.194073 0.587 255 255 255
-0.231236 -0.05301 0.681 255 255 255
-0.0709151 0.0109038 0.731 255 255 255
0.27277 -0.016027 0.622 255 255 255
-0.381795 -0.0595487 0.765 255 255 255
0.268263 -0.146426 0.556 255 255 255
-0.044917 -0.00347715 0.754 255 255 255
-0.232824 0.113046 0.442 255 255 255
-0.269184 0.091236 0.577 255 255 255
-0.0918462 -0.199318 0.616 255 255 255
0.0379446 0.209959 0.563 255 255 255
-0.169696 -0.186589 0.604 255 255 255
-0.114777 0.199 0.52 255 255 255
0.0156481 -0.00877207 0.924 255 255 255
-0.12604 -0.149484 0.713 255 255 255
-0.342562 -0.0977825 0.772 255 255 255
0.292007 0.0325585 0.622 255 255 255
-0.115787 0.0694606 0.655 255 255 255
-0.202318 -0.0865402 0.642 255 255 255
0.144619 -0.210563 0.671 255 255 255
-0.255071 0.0742445 0.599 255 255 255
-0.00757923 -0.259731 0.832 255 255 255
-0.14634 -0.177986 0.644 255 255 255
-0.284879 -0.239285 0.654 255 255 255
0.285909 -0.0712056 0.577 255 255 255
-0.367388 -0.0715852 0.774 255 255 255
-0.205477 -0.110816 0.62 255 255 255
-0.0849938 -0.20234 0.61 255 255 255
-0.188874 0.19336 0.501 255 255 255
0.289658 0.160558 0.694 255 255 255
-0.0936025 0.10931 0.621 255 255 255
-0.138868 -0.104285 0.738 255 255 255
-0.036577 0.134056 0.614 255 255 255
0.204722 0.170547 0.799 255 255 255
0.222596 -0.0444551 0.669 255 255 255
0.00867931 0.194842 0.567 255 255 255
-0.181256 -0.149156 0.62 255 255 255
0.277843 0.0476281 0.648 255 255 255
0.00953652 0.139063 0.623 255 255 255
-0.0721921 0.0212849 0.72 255 255 255
0.156932 -0.178293 0.677 255 255 255
-0.17701 -0.0638163 0.69 255 255 255
0.0736455 0.182749 0.6 255 255 255
0.137706 -0.240782 0.664 255 255 255
-0.05151 -0.147759 0.694 255 255 255
-0.0718802 -0.22148 0.6 255 255 255
-0.0306951 0.0440352 0.709 255 255 255
0.00822445 -0.0256136 0.935 255 255 255
-0.102051 0.0407271 0.692 255 255 255
0.327465 0.222935 0.681 255 255 255
0.223555 -0.148227 0.612 255 255 255
0.16528 -0.237782 0.633 255 255 255
-0.367224 -0.12309 0.695 255 255 255
-0.202115 0.0891627 0.601 255 255 255
0.254472 -0.138571 0.576 255 255 255
0.307606 0.284443 0.737 255 255 255
-0.116296 -0.151237 1.012 255 255 255
0.215003 0.163277 0.789 255 255 255
-0.197165 -0.275949 0.71 255 255 255
-0.135801 -0.192908 0.728 255 255 255
-0.175595 -0.177743 0.604 255 255 255
0.0985969 0.128838 0.67 255 255 255
0.0337135 0.169643 0.602 255 255 255
-0.141236 -0.228287 0.702 255 255 255
0.115191 -0.0104408 0.819 255 255 255
-0.2951 0.0439737 0.626 255 255 255
-0.171234 -0.204001 0.589 255 255 255
0.280156 0.167725 0.71 255 255 255
-0.107871 0.0454868 0.679 255 255 255
-0.221469 0.0548529 0.634 255 255 255
0.0280081 -0.290993 0.768 255 255 255
0.204339 -0.215272 0.591 255 255 255
-0.315984 -0.222264 0.627 255 255 255
0.0390487 -0.234752 0.789 255 255 255
0.0715876 -0.233844 0.753 255 255 255
0.336828 0.243239 0.682 255 255 255
-0.0705792 0.112703 0.623 255 255 255
0.106945 -0.226586 0.711 255 255 255
0.276375 -0.0109484 0.621 255 255 255
-0.165361 -0.209856 0.592 255 255 255
-0.130486 -0.0511942 0.752 255 255 255
0.239682 -0.201797 0.559 255 255 255
-0.0775253 -0.176167 0.63 255 255 255
0.175287 -0.164973 0.659 255 255 255
0.02938 0.212253 0.557 255 255 255
-0.0419806 0.128303 0.62 255 255 255
-0.315533 -0.160102 0.719 255 255 255
0.117376 0.22192 0.575 255 255 255
-0.0871074 -0.212144 0.604 255 255 255
-0.294423 -0.00978977 0.681 255 255 255
0.272902 -0.0200112 0.62 255 255 255
-0.0289875 0.033185 0.724 255 255 255
0.313267 0.0796165 0.618 255 255 255
0.211433 -0.181374 0.603 255 255 255
0.172701 0.194962 0.63 255 255 255
0.147252 -0.0420649 0.764 255 255 255
0.201477 -0.168186 0.627 255 255 255
0.20553 0.0989409 0.768 255 255 255
-0.133606 -0.240377 0.675 255 255 255
0.246793 -0.134989 0.589 255 255 255
0.103789 -0.0875377 0.793 255 255 255
-0.129229 -0.0603168 0.759 255 255 255
0.0199639 0.193174 0.573 255 255 255
-0.0959881 0.18306 0.543 255 255 255
-0.332897 0.00755677 0.648 255 255 255
-0.0476504 -0.196238 0.642 255 255 255
-0.176536 -0.0349732 0.697 255 255 255
0.299103 0.125841 0.66 255 255 255
0.0538064 0.032753 0.908 255 255 255
-0.138014 0.199271 0.512 255 255 255
-0.165869 0.151061 0.552 255 255 255
-0.0797556 0.0334139 0.704 255 255 255
-0.197492 -0.124731 0.614 255 255 255
-0.331294 -0.102341 0.778 255 255 255
-0.167786 0.115743 0.587 255 255 255
-0.0510247 0.0271055 0.719 255 255 255
0.333174 0.187688 0.651 255 255 255
-0.259466 0.0623948 0.607 255 255 255
-0.0711226 -0.0261735 0.772 255 255 255
-0.0798265 0.131218 0.601 255 255 255
-0.122137 -0.0604757 0.761 255 255 255
-0.101809 0.0164598 0.714 255 255 255
-0.0320739 -0.139236 0.714 255 255 255
0.339963 0.241841 0.675 255 255 255
-0.139532 -0.0509219 0.748 255 255 255
-0.156659 -0.132128 0.661 255 255 255
-0.224255 -0.0363334 0.68 255 255 255
-0.125464 -0.0143276 0.744 255 255 255
0.311255 0.150149 0.663 255 255 255
-0.0636158 0.13406 0.605 255 255 255
-0.0565069 0.0807312 0.66 255 255 255
0.258287 -0.0719444 0.607 255 255 255
0.200377 -0.012588 0.714 255 255 255
-0.0305915 0.0655686 0.681 255 255 255
-0.256237 0.110095 0.563 255 255 255
-0.0515411 0.142212 0.602 255 255 255
-0.203654 0.106416 0.583 255 255 255
0.104356 0.134369 0.665 255 255 255
-0.300063 -0.238705 0.63 255 255 255
0.308167 0.18277 0.68 255 255 255
-0.339168 -0.101288 0.77 255 255 255
-0.199315 -0.0494665 0.678 255 255 255
0.121939 -0.0271906 0.802 255 255 255
-0.2981 -0.0664049 0.758 255 255 255
0.226055 0.1178 0.745 255 255 255
0.281875 0.0594105 0.65 255 255 255
0.036258 0.189871 0.58 255 255 255
-0.17139 -0.157185 0.632 255 255 255
-0.0594582 0.150701 0.593 255 255 255
0.208146 0.0346005 0.729 255 255 255
0.275833 0.186864 0.726 255 255 255
0.277053 0.107048 0.677 255 255 255
-0.0433348 0.105364 0.64 255 255 255
0.143047 0.164933 0.649 255 255 255
-0.0603634 0.0707332 0.667 255 255 255
-0.217985 0.118971 0.566 255 255 255
0.00198565 -0.173705 0.869 255 255 255
-0.193179 0.0819651 0.613 255 255 255
0.127998 -0.129681 0.739 255 255 255
0.245327 -0.165882 0.57 255 255 255
-0.000892982 -0.0865855 0.92 255 255 255
-0.0967788 -0.228475 0.603 255 255 255
-0.00413746 0.20263 0.553 255 255 255
0.265429 -0.175931 0.541 255 255 255
-0.253106 0.187184 0.485 255 255 255
0.22301 -0.0869446 0.645 255 255 255
0.0938929 0.179139 0.611 255 255 255
-0.150027 -0.203999 0.612 255 255 255
0.155573 -0.239818 0.644 255 255 255
-0.137034 0.153887 0.559 255 255 255
0.108198 0.21289 0.581 255 255 255
-0.199515 -0.16748 0.582 255 255 255
0.1973 -0.198671 0.614 255 255 255
0.0434726 0.0699078 0.714 255 255 255
0.170701 -0.226808 0.634 255 255 255
0.273108 -0.0423108 0.607 255 255 255
-0.323388 -0.163404 0.703 255 255 255
-0.117467 -0.0687984 0.771 255 255 255
0.111975 -0.0276314 0.815 255 255 255
0.0902285 0.207217 0.581 255 255 255
-0.149358 -0.194522 0.708 255 255 255
-0.201574 0.171591 0.519 255 255 255
