ply
format ascii 1.0
comment Created by Open3D
element vertex 1281
property double x
property double y
property double z
property uchar red
property uchar green
property uchar blue
end_header
-0.195761 0.071571 0.618 255 255 255
-0.150032 -0.215093 0.604 255 255 255
-0.0732824 0.0684595 0.666 255 255 255
0.282069 0.0893192 0.668 255 255 255
-0.312686 -0.0315705 0.697 255 255 255
0.150981 -0.185973 0.685 255 255 255
-0.113173 0.160876 0.558 255 255 255
0.330394 0.176319 0.656 255 255 255
0.308653 0.192474 0.691 255 255 255
-0.221579 0.129502 0.552 255 255 255
0.311946 0.186364 0.681 255 255 255
0.0427299 -0.295307 0.763 255 255 255
-0.312865 -0.225735 0.631 255 255 255
0.16201 0.219439 0.591 255 255 255
-0.0807058 0.162261 0.566 255 255 255
0.191871 -0.117923 0.672 255 255 255
-0.192274 0.138736 0.553 255 255 255
0.136314 -0.114973 0.745 255 255 255
0.116187 0.163442 0.635 255 255 255
-0.160758 -0.199999 0.6 0 0 0
0.318974 0.270429 0.722 255 255 255
0.294576 -0.0444328 0.583 255 255 255
0.0865039 0.178259 0.608 255 255 255
0.117712 -0.113227 0.766 255 255 255
0.15898 -0.111662 0.716 255 255 255
-0.293662 -0.0199378 0.687 255 255 255
-0.265149 0.0255621 0.65 255 255 255
-0.270592 -0.238256 0.666 255 255 255
-0.183034 -0.0990813 0.663 255 255 255
0.308167 0.170598 0.68 255 255 255
-0.24194 0.107918 0.566 255 255 255
0.30775 0.0928657 0.64 255 255 255
0.163655 0.212923 0.597 255 255 255
-0.189312 -0.152943 0.607 0 0 0
0.0844085 0.149444 0.637 255 255 255
0.227412 -0.173449 0.596 255 255 255
-0.0223418 -0.0162902 0.78 255 255 255
-0.108323 0.0683947 0.655 255 255 255
0.125949 0.158352 0.648 255 255 255
0.220883 -0.000947146 0.698 255 255 255
-0.0936325 0.0570471 0.672 255 255 255
-0.208271 -0.186726 0.58 255 255 255
-0.115947 0.05943 0.662 255 255 255
0.0259728 -0.288662 0.782 255 255 255
-0.165642 -0.188282 0.6 255 255 255
-0.254413 0.111641 0.557 255 255 255
-0.0887531 0.183605 0.542 255 255 255
-0.12219 -0.163998 0.98 255 255 255
0.236279 0.22698 0.614 255 255 255
-0.242218 0.103296 0.571 255 255 255
-0.289741 -0.180407 0.716 255 255 255
0.141803 0.215088 0.587 255 255 255
-0.0771527 -0.145255 0.662 255 255 255
0.0227502 -0.175853 0.852 255 255 255
0.107453 0.213302 0.577 255 255 255
-0.299473 0.0488058 0.61 255 255 255
-0.289377 -0.0294702 0.701 255 255 255
0.231609 -0.144053 0.607 255 255 255
-0.0546233 0.100881 0.638 255 255 255
-0.0660201 0.134905 0.6 255 255 255
0.324759 0.217073 0.687 255 255 255
-0.016959 0.086058 0.668 255 255 255
0.261409 0.0338793 0.668 255 255 255
0.310154 0.112484 0.645 255 255 255
-0.111628 0.174298 0.546 255 255 255
0.126977 -0.186613 0.713 255 255 255
-0.248404 0.153558 0.518 255 255 255
0.164531 -0.0528571 0.741 255 255 255
0.0262005 0.0295734 0.752 255 255 255
0.296331 0.226163 0.727 255 255 255
-0.290102 0.0252475 0.642 255 255 255
-0.217134 0.0595762 0.42 255 255 255
-0.0132095 -0.0903805 0.944 255 255 255
0.197209 -0.200612 0.62 255 255 255
-0.143268 0.084722 0.626 255 255 255
0.180345 0.053385 0.778 255 255 255
0.243331 0.176984 0.765 255 255 255
0.268138 -0.0292325 0.623 255 255 255
-0.0301395 0.160366 0.586 255 255 255
0.0340595 0.17616 0.591 255 255 255
-0.149631 0.119564 0.587 255 255 255
0.0447599 0.0666081 0.716 255 255 255
0.125196 -0.220604 0.703 255 255 255
0.230038 -0.00317278 0.688 255 255 255
0.236463 -0.0857315 0.636 255 255 255
0.255571 0.229745 0.627 255 255 255
0.101237 0.0427576 0.871 255 255 255
0.243022 -0.160298 0.58 255 255 255
-0.24412 0.0430081 0.642 255 255 255
-0.0644526 0.196258 0.538 255 255 255
-0.188649 0.177317 0.516 255 255 255
-0.24803 0.183158 0.489 255 255 255
-0.134591 0.0759637 0.638 255 255 255
0.0755565 0.0946017 0.699 255 255 255
0.0719366 0.0943311 0.697 255 255 255
-0.0108667 0.125247 0.63 255 255 255
-0.207642 0.176699 0.507 255 255 255
-0.230364 -0.265118 0.685 255 255 255
-0.196521 -0.207934 0.576 255 255 255
0.0364337 -0.253689 0.788 255 255 255
-0.127014 -0.246968 0.675 255 255 255
0.0571017 -0.208052 0.79 255 255 255
-0.186003 0.161428 0.53 255 255 255
0.275114 -0.103309 0.578 255 255 255
-0.280379 -0.189294 0.71 255 255 255
0.0773035 -0.239915 0.749 255 255 255
-0.267653 0.142578 0.521 255 255 255
0.315144 0.0953902 0.636 255 255 255
-0.0233352 0.210657 0.539 255 255 255
-0.0715208 -0.224259 0.597 255 255 255
-0.162432 0.196547 0.505 255 255 255
-0.146194 -0.117097 0.693 0 0 0
-0.0588333 0.077744 0.662 255 255 255
0.278743 0.243453 0.74 255 255 255
0.0806192 -0.0563497 0.848 255 255 255
0.132058 -0.00635594 0.808 255 255 255
-0.135503 -0.242907 0.679 255 255 255
0.273138 0.162336 0.722 255 255 255
-0.0402046 -0.231335 0.895 255 255 255
0.00319138 0.182 0.576 255 255 255
0.223951 -0.0725249 0.657 255 255 255
0.070825 0.162083 0.618 255 255 255
0.282714 -0.00583856 0.615 255 255 255
0.0600714 0.203431 0.573 255 255 255
-0.19126 0.0680948 0.623 255 255 255
0.171449 -0.00103263 0.761 255 255 255
-0.168069 -0.151731 0.635 255 255 255
0.270257 0.0148692 0.645 255 255 255
-0.0407313 0.204632 0.537 255 255 255
-0.229895 0.0956829 0.587 255 255 255
-0.287202 -0.206189 0.693 255 255 255
-0.242401 -0.2579 0.672 255 255 255
-0.181647 0.173614 0.52 255 255 255
0.0763895 -0.0904889 0.832 255 255 255
0.130075 -0.126926 0.744 255 255 255
-0.102882 0.139382 0.582 255 255 255
-0.0698503 0.180132 0.553 255 255 255
-0.169259 -0.1176 0.664 255 255 255
0.26013 -0.0771367 0.609 255 255 255
0.214024 0.00947507 0.713 255 255 255
0.230559 -0.0988743 0.634 255 255 255
-0.0715905 0.0211075 0.714 255 255 255
0.161536 -0.152964 0.692 255 255 255
0.0681358 -0.0241891 0.883 255 255 255
-0.214673 -0.200629 0.582 255 255 255
0.0399895 0.203709 0.566 255 255 255
0.138402 0.135893 0.678 255 255 255
0.194618 -0.214006 0.615 255 255 255
-0.132257 -0.217872 0.709 255 255 255
-0.0264865 0.177936 0.569 255 255 255
-0.0310284 0.123855 0.623 255 255 255
-0.278093 0.0873285 0.576 255 255 255
0.181084 0.0950142 0.798 255 255 255
0.124913 -0.0438268 0.796 255 255 255
-0.0644784 0.204938 0.531 255 255 255
0.0203786 -0.0377456 0.934 255 255 255
0.25621 -0.0176419 0.644 255 255 255
0.277488 -0.0877724 0.581 255 255 255
-0.151459 0.121595 0.583 255 255 255
0.246146 0.0641634 0.702 255 255 255
-0.207846 -0.163475 0.595 255 255 255
0.011105 0.209586 0.55 255 255 255
-0.151764 -0.00570304 0.725 255 255 255
-0.0554528 0.0412568 0.701 255 255 255
-0.151555 -0.0481099 0.724 255 255 255
-0.106367 0.188363 0.533 255 255 255
0.0535134 -0.206521 0.794 255 255 255
0.240819 0.164913 0.761 255 255 255
-0.211823 0.136193 0.55 255 255 255
0.301171 0.0895313 0.646 255 255 255
-0.217844 -0.189301 0.588 255 255 255
-0.188445 0.0610433 0.634 255 255 255
0.30001 0.125145 0.662 255 255 255
-0.344312 -0.166725 0.666 255 255 255
-0.0942203 0.180409 0.543 255 255 255
0.0385412 -0.109435 0.864 255 255 255
-0.193632 -0.200324 0.573 255 255 255
0.260852 0.0540064 0.675 255 255 255
0.147846 -0.106398 0.736 255 255 255
0.0964233 -0.203748 0.746 255 255 255
0.167087 0.173115 0.648 255 255 255
0.0294407 -0.164783 0.845 255 255 255
0.13112 0.139532 0.669 255 255 255
0.227427 0.0455714 0.715 255 255 255
-0.168929 -0.222005 0.591 255 255 255
-0.0845771 0.129047 0.6 255 255 255
-0.072 -0.215981 0.601 255 255 255
0.109736 0.00851917 0.849 255 255 255
0.322391 0.12644 0.636 255 255 255
0.107622 -0.267087 0.693 255 255 255
-0.141072 0.176219 0.533 255 255 255
-0.177461 -0.137795 0.628 255 255 255
0.201283 -0.225157 0.602 255 255 255
-0.0840305 0.189079 0.54 255 255 255
-0.278626 0.0779537 0.583 255 255 255
0.236951 -0.165771 0.586 255 255 255
-0.168971 0.171129 0.528 255 255 255
0.0346299 -0.0027127 0.909 255 255 255
-0.0243025 0.207037 0.541 255 255 255
0.326691 0.158996 0.655 255 255 255
0.0554078 0.201566 0.573 255 255 255
0.303249 0.0179739 0.608 255 255 255
0.0483432 0.134525 0.64 255 255 255
0.0908238 0.0346071 0.88 255 255 255
-0.31434 -0.0982317 0.796 255 255 255
-0.0870692 0.0603278 0.672 255 255 255
0.0128642 0.0701072 0.693 255 255 255
-0.164571 -0.00213077 0.714 255 255 255
-0.250773 0.172058 0.496 255 255 255
0.29816 -0.0239244 0.592 255 255 255
0.17055 -0.11355 0.706 255 255 255
0.0794478 -0.261744 0.735 255 255 255
-0.11566 0.195415 0.524 255 255 255
-0.331808 -0.192337 0.65 255 255 255
-0.242253 0.134596 0.54 255 255 255
0.145497 0.102347 0.848 255 255 255
0.193353 -0.0934513 0.685 255 255 255
-0.201152 -0.213673 0.584 255 255 255
0.242117 -0.0612749 0.64 255 255 255
-0.143217 0.0935446 0.617 255 255 255
-0.219545 0.0961719 0.59 255 255 255
0.217905 -0.225812 0.581 255 255 255
-0.202255 0.00914284 0.688 255 255 255
-0.152222 -0.214025 0.601 255 255 255
-0.188557 0.0200728 0.679 255 255 255
-0.307682 -0.0401905 0.709 255 255 255
-0.188857 -0.108105 0.646 255 255 255
-0.0252695 0.0639103 0.687 255 255 255
0.17799 -0.0108104 0.752 255 255 255
0.208628 -0.208015 0.595 255 255 255
-0.234198 -0.195112 0.603 255 255 255
0.314624 0.194406 0.682 255 255 255
0.105072 -0.236837 0.714 255 255 255
0.0468875 0.0549182 0.731 255 255 255
-0.0911165 0.0426067 0.686 255 255 255
-0.197116 -0.206637 0.575 255 255 255
-0.171017 0.0202206 0.684 255 255 255
-0.302448 0.046974 0.612 255 255 255
0.0491661 0.14944 0.624 255 255 255
0.165733 0.217653 0.594 255 255 255
0.184788 0.215221 0.609 255 255 255
0.107404 0.20458 0.587 255 255 255
-0.0327913 0.126884 0.618 255 255 255
0.277174 0.0964566 0.68 255 255 255
0.210572 -0.111231 0.652 255 255 255
0.122629 -0.0452355 0.798 255 255 255
-0.0308612 0.197231 0.548 255 255 255
-0.312802 -0.207869 0.659 255 255 255
-0.131786 0.104697 0.606 255 255 255
0.254861 -0.0278599 0.638 255 255 255
-0.0275106 0.155002 0.591 255 255 255
0.247289 0.063021 0.702 255 255 255
0.181662 -0.0713424 0.709 255 255 255
-0.0954446 0.116723 0.607 255 255 255
-0.0761037 -0.151782 0.653 255 255 255
-0.140543 -0.236211 0.682 255 255 255
-0.215347 0.0856548 0.597 255 255 255
0.225701 0.176726 0.786 255 255 255
0.109286 -0.0120036 0.835 255 255 255
0.268659 -0.200816 0.53 255 255 255
-0.0726727 0.0310342 0.702 255 255 255
0.0977158 -0.181874 0.756 255 255 255
0.237766 -0.179484 0.581 255 255 255
-0.0371386 0.181235 0.562 255 255 255
-0.337649 -0.0475799 0.734 255 255 255
0.043811 0.190815 0.58 255 255 255
-0.0670825 -0.164328 0.648 255 255 255
-0.113781 0.157176 0.561 255 255 255
-0.181489 0.00476613 0.703 255 255 255
-0.0953255 0.0186521 0.709 255 255 255
-0.303791 -0.180696 0.708 255 255 255
-0.182844 0.1731 0.521 255 255 255
0.000450163 0.0737567 0.685 255 255 255
-0.0228317 0.0711096 0.681 255 255 255
-0.210187 -0.114761 0.625 255 255 255
0.113105 -0.255749 0.699 255 255 255
-0.207496 -0.123333 0.617 255 255 255
0.267138 -0.135052 0.573 255 255 255
0.0885349 -0.240097 0.731 255 255 255
-0.127462 0.160334 0.553 255 255 255
-0.13892 0.103882 0.607 255 255 255
-0.175448 0.158322 0.54 255 255 255
0.289018 -0.0817586 0.572 255 255 255
-0.325756 -0.193339 0.657 255 255 255
-0.379624 -0.0891424 0.732 255 255 255
-0.232982 0.0625198 0.618 255 255 255
-0.127924 0.196249 0.515 255 255 255
0.31175 0.186911 0.683 255 255 255
-0.224581 0.183728 0.497 255 255 255
-0.0259726 -0.262263 0.858 255 255 255
0.261411 0.0852571 0.697 255 255 255
-0.179776 0.0137004 0.692 255 255 255
-0.223841 0.143728 0.538 255 255 255
0.224322 0.227967 0.606 255 255 255
-0.02537 0.161319 0.586 255 255 255
-0.244148 0.0237712 0.659 255 255 255
0.0791031 -0.246457 0.743 255 255 255
0.196539 -0.106052 0.673 255 255 255
-0.0531318 -0.228766 0.609 255 255 255
-0.358976 -0.0445753 0.724 255 255 255
0.196374 -0.191653 0.627 255 255 255
-0.166267 -0.117777 0.665 255 255 255
-0.187524 0.164802 0.527 255 255 255
0.310189 0.0714788 0.626 255 255 255
0.218123 0.170127 0.791 255 255 255
-0.168544 0.174949 0.524 255 255 255
-0.0979591 0.0404328 0.687 255 255 255
-0.325756 -0.0901723 0.805 255 255 255
-0.127719 0.191752 0.521 255 255 255
-0.0538528 -0.205571 0.629 255 255 255
0.292322 -0.0772392 0.573 255 255 255
0.0305974 -0.181362 0.839 255 255 255
0.284176 -0.0647977 0.587 255 255 255
0.211347 0.204961 0.623 255 255 255
0.185695 -0.22454 0.622 255 255 255
0.211902 -0.178516 0.61 255 255 255
-0.13931 -0.0965527 0.734 255 255 255
0.114043 0.00296104 0.84 255 255 255
-0.0940981 0.165416 0.558 255 255 255
-0.134247 0.154592 0.555 255 255 255
0.147134 0.20418 0.597 255 255 255
-0.127277 -0.214222 0.72 255 255 255
-0.291152 0.0202421 0.649 255 255 255
-0.222522 0.0828788 0.598 255 255 255
-0.236379 0.151361 0.525 255 255 255
0.208545 -0.0706375 0.68 255 255 255
0.00458761 -0.251745 0.828 255 255 255
-0.331597 -0.160657 0.701 255 255 255
-0.0266823 -0.00102992 0.759 255 255 255
0.0473128 0.0767296 0.702 255 255 255
0.208209 0.00840808 0.721 255 255 255
-0.374957 -0.100989 0.723 255 255 255
-0.216794 0.0605466 0.422 255 255 255
0.16526 0.191581 0.629 255 255 255
-0.177133 0.131633 0.565 255 255 255
-0.161162 0.0245287 0.68 255 255 255
0.187512 -0.118625 0.676 255 255 255
0.0685751 0.153748 0.625 255 255 255
0.277895 -0.0636372 0.594 255 255 255
0.214428 0.0759747 0.751 255 255 255
-0.109795 -0.0869857 0.788 255 255 255
-0.289631 -0.219507 0.675 255 255 255
0.0230322 -0.235277 0.813 255 255 255
0.139205 -0.251262 0.666 255 255 255
-0.0203654 0.0441594 0.711 255 255 255
0.149634 0.221592 0.584 255 255 255
-0.0397688 0.127683 0.617 255 255 255
0.238533 -0.0733117 0.636 255 255 255
0.244733 -0.0774993 0.628 255 255 255
-0.00376415 0.114228 0.643 255 255 255
0.243118 0.141591 0.749 255 255 255
-0.25629 0.0318596 0.649 255 255 255
-0.140138 -0.161109 0.708 255 255 255
0.237029 0.197462 0.777 255 255 255
-0.2366 0.157773 0.518 255 255 255
0.166545 -0.219839 0.65 255 255 255
-0.0211226 -0.0475006 0.889 255 255 255
-0.105787 -0.148505 0.687 255 255 255
0.217222 -0.168865 0.611 255 255 255
0.149648 -0.193493 0.684 255 255 255
-0.0516486 0.150447 0.592 255 255 255
0.308327 0.229284 0.711 255 255 255
0.193912 -0.160667 0.646 255 255 255
-0.159747 -0.0838661 0.698 255 255 255
0.312246 0.200886 0.689 255 255 255
-0.149283 -0.0227415 0.742 255 255 255
0.119686 -0.206617 0.718 255 255 255
0.14201 0.14171 0.669 255 255 255
0.0534209 0.100586 0.678 255 255 255
0.217474 -0.123378 0.638 255 255 255
-0.0279116 -0.240405 0.875 255 255 255
-0.0862737 0.096122 0.634 255 255 255
0.0637275 0.10007 0.682 255 255 255
0.106505 -0.0413457 0.824 255 255 255
-0.125244 0.110066 0.603 255 255 255
0.191543 -0.220079 0.618 255 255 255
-0.194715 -0.0947306 0.648 255 255 255
-0.222309 0.111463 0.57 255 255 255
0.227256 0.114164 0.753 255 255 255
0.0549967 0.175621 0.599 255 255 255
-0.315485 -0.190428 0.681 255 255 255
0.212973 -0.0606782 0.68 255 255 255
-0.215621 0.103392 0.582 255 255 255
-0.105666 0.169027 0.552 255 255 255
-0.117162 -0.00336647 0.73 255 255 255
0.0122887 0.0982125 0.662 255 255 255
-0.272674 -0.0320687 0.708 255 255 255
0.0494806 -0.147886 0.835 255 255 255
0.0681116 -0.144166 0.814 255 255 255
0.298614 0.0314956 0.621 255 255 255
-0.122517 0.167496 0.547 255 255 255
0.270675 -0.141353 0.561 255 255 255
0.0820627 0.158321 0.627 255 255 255
-0.0478435 0.0529608 0.69 255 255 255
-0.207912 -0.207133 0.579 255 255 255
-0.17301 0.148453 0.549 255 255 255
0.175709 0.00637253 0.758 255 255 255
-0.155187 -0.0116821 0.73 255 255 255
-0.181567 -0.0500502 0.686 255 255 255
-0.0181599 0.116756 0.634 255 255 255
0.208196 0.0739221 0.755 255 255 255
0.0474161 0.118673 0.656 255 255 255
0.096182 0.212363 0.577 255 255 255
0.20694 0.183574 0.644 255 255 255
-0.0352878 0.135938 0.609 255 255 255
0.0803126 -0.247666 0.743 255 255 255
0.184413 -0.029461 0.729 255 255 255
-0.0405422 -0.218878 0.629 255 255 255
0.244343 -0.0138467 0.663 255 255 255
-0.141921 -0.191987 0.729 255 255 255
0.0866392 0.209183 0.576 255 255 255
0.203425 0.0551986 0.751 255 255 255
-0.00439933 0.168568 0.588 255 255 255
-0.328377 -0.0836223 0.805 255 255 255
0.216458 -0.134559 0.632 255 255 255
-0.0725045 -0.0676647 0.787 255 255 255
-0.210928 0.137088 0.55 255 255 255
-0.0524892 -0.00595476 0.757 255 255 255
0.102342 0.134229 0.659 255 255 255
0.26935 0.19634 0.744 255 255 255
0.216365 0.163019 0.794 255 255 255
0.265517 -0.0780795 0.601 255 255 255
0.318306 0.0927333 0.632 255 255 255
0.106123 0.182905 0.607 255 255 255
0.1633 0.15214 0.667 255 255 255
-0.0479812 -0.314502 0.852 255 255 255
-0.128627 -0.142948 0.721 255 255 255
-0.191551 -0.103167 0.648 255 255 255
-0.20209 -0.116235 0.622 255 255 255
-0.238714 0.140577 0.536 255 255 255
-0.0948769 -0.166846 0.978 255 255 255
0.0438804 -0.208589 0.807 255 255 255
0.051416 0.213397 0.56 255 255 255
0.226606 -0.166524 0.599 255 255 255
-0.215316 -0.265213 0.694 255 255 255
-0.0116657 0.137947 0.618 255 255 255
-0.241315 0.093598 0.58 255 255 255
-0.166199 -0.191555 0.595 255 255 255
0.156664 0.208135 0.6 255 255 255
0.0745837 0.098998 0.69 0 0 0
0.285067 0.124669 0.683 255 255 255
0.244603 0.186669 0.769 255 255 255
-0.108043 -0.124068 0.878 255 255 255
-0.29119 0.0436927 0.622 255 255 255
0.0607614 -0.0711421 0.86 255 255 255
0.0447939 0.141518 0.634 0 0 0
-0.125381 -0.157618 0.98 255 255 255
0.123542 0.213256 0.582 255 255 255
0.0916804 0.164408 0.623 255 255 255
0.214906 0.230208 0.599 255 255 255
-0.155339 -0.063266 0.709 255 255 255
-0.00909135 0.171583 0.582 255 255 255
0.299908 -0.02845 0.586 255 255 255
-0.269866 0.142002 0.522 255 255 255
0.00458777 0.122027 0.64 255 255 255
-0.0992068 -0.104812 0.817 255 255 255
-0.0428551 0.178524 0.565 255 255 255
-0.110633 -0.132622 0.742 255 255 255
0.071608 -0.172927 0.794 255 255 255
0.103182 -0.251331 0.709 255 255 255
0.216147 0.0367195 0.724 255 255 255
-0.12327 -0.141187 0.724 255 255 255
-0.188387 0.0486826 0.648 255 255 255
0.22397 0.00245695 0.697 255 255 255
-0.351789 -0.0271574 0.672 255 255 255
-0.370876 -0.0886564 0.748 255 255 255
-0.282446 0.026456 0.646 255 255 255
-0.0273374 -0.270325 0.857 255 255 255
-0.150458 0.160675 0.545 255 255 255
0.000623 -0.0290551 0.948 255 255 255
-0.22185 0.155633 0.525 255 255 255
-0.140874 0.179201 0.529 255 255 255
0.154983 -0.156562 0.698 255 255 255
0.187432 -0.0598047 0.709 255 255 255
-0.32483 -0.0264517 0.682 255 255 255
0.116341 0.0914583 0.719 0 0 0
0.0310248 -0.279396 0.781 255 255 255
0.238712 -0.122926 0.61 255 255 255
0.0237121 -0.197274 0.837 255 255 255
-0.182971 0.0981198 0.596 255 255 255
0.0170829 0.158149 0.603 255 255 255
-0.32526 -0.198383 0.656 255 255 255
-0.221344 0.150782 0.532 255 255 255
0.17986 -0.171627 0.664 255 255 255
-0.0501366 0.0819292 0.661 255 255 255
-0.191288 -0.148004 0.607 255 255 255
0.259173 0.226785 0.729 255 255 255
-0.001993 0.00145555 0.767 255 255 255
0.160104 -0.00984164 0.772 255 255 255
-0.0162694 0.183169 0.568 255 255 255
-0.0874526 0.15428 0.574 255 255 255
0.146323 0.153533 0.659 255 255 255
0.250305 -0.146698 0.586 255 255 255
0.0106297 -0.144727 0.882 255 255 255
0.256202 0.158167 0.741 255 255 255
0.0403702 -0.0351009 0.905 255 255 255
0.196699 0.000198733 0.735 255 255 255
-0.283832 0.0835026 0.582 255 255 255
-0.264718 0.164009 0.501 255 255 255
-0.0149492 -0.0729369 0.957 255 255 255
0.0629205 0.187701 0.591 255 255 255
-0.152222 0.106767 0.601 255 255 255
-0.179901 0.108871 0.586 255 255 255
-0.143708 -0.173629 0.676 0 0 0
0.0673931 0.0460265 0.761 255 255 255
-0.196602 -0.182635 0.579 255 255 255
0.0116643 0.0138463 0.762 255 255 255
-0.130548 0.00708426 0.706 255 255 255
-0.0310811 -0.305042 0.845 255 255 255
0.252399 0.124932 0.73 255 255 255
0.272605 -0.133166 0.565 255 255 255
0.212638 0.0648026 0.749 255 255 255
-0.204574 0.14723 0.538 255 255 255
-0.223055 0.0610959 0.624 255 255 255
-0.0608634 0.164335 0.57 255 255 255
-0.103177 0.183466 0.539 255 255 255
0.171302 -0.202478 0.652 255 255 255
0.183479 0.0692829 0.786 255 255 255
-0.0480515 0.0498079 0.693 255 255 255
-0.309928 0.0395802 0.621 255 255 255
-0.0711199 0.0471407 0.687 255 255 255
0.0540948 0.203863 0.569 255 255 255
-0.186711 0.155695 0.537 255 255 255
-0.156742 0.0571187 0.648 255 255 255
-0.192314 0.0252206 0.669 255 255 255
-0.165762 -0.199546 0.59 255 255 255
-0.0481902 0.0465587 0.695 255 255 255
0.218558 -0.190552 0.601 255 255 255
0.245941 0.112171 0.732 255 255 255
-0.113536 0.109077 0.614 255 255 255
0.259716 -0.152628 0.569 255 255 255
0.0367581 0.17718 0.588 255 255 255
0.269902 -0.105152 0.583 255 255 255
0.0238603 0.186072 0.577 255 255 255
-0.339262 -0.161852 0.682 255 255 255
0.178124 -0.0629006 0.718 255 255 255
0.304766 0.127213 0.656 255 255 255
0.0825819 0.122281 0.664 255 255 255
-0.195494 -0.0658328 0.665 255 255 255
0.0459781 -0.164111 0.821 255 255 255
-0.338616 -0.156786 0.699 255 255 255
0.12995 0.218563 0.581 255 255 255
0.195387 0.0455426 0.753 255 255 255
0.253577 -0.0289887 0.64 255 255 255
0.233312 -0.197027 0.577 255 255 255
0.0650498 0.166213 0.611 255 255 255
0.265315 -0.0726919 0.605 255 255 255
0.154863 -0.101128 0.724 255 255 255
-0.0102113 -0.0740272 0.951 255 255 255
-0.303291 -0.200402 0.681 255 255 255
0.297904 0.102504 0.655 255 255 255
0.281335 -0.0167653 0.612 255 255 255
-0.0531379 -0.256688 0.892 255 255 255
0.284669 -0.116079 0.558 255 255 255
-0.218921 0.0719897 0.433 255 255 255
-0.00629972 -0.268334 0.842 255 255 255
-0.0971119 0.125907 0.599 255 255 255
-0.173348 -0.176548 0.617 255 255 255
0.081284 -0.268279 0.73 255 255 255
-0.139894 -0.132138 0.701 0 0 0
0.246785 0.201424 0.768 255 255 255
-0.228708 0.0883904 0.441 255 255 255
0.138686 0.213307 0.59 255 255 255
-0.232547 0.112143 0.447 255 255 255
-0.216507 -0.0496124 0.68 255 255 255
-0.0425045 0.130845 0.613 255 255 255
-0.0227741 -0.290602 0.843 255 255 255
0.0266309 0.12279 0.644 255 255 255
-0.0654272 -0.0999368 0.779 0 0 0
0.106801 0.108763 0.695 255 255 255
-0.0368153 -0.237176 0.618 255 255 255
0.0922736 0.0766718 0.723 255 255 255
0.103571 0.134433 0.66 255 255 255
0.326619 0.163758 0.657 255 255 255
-0.13104 0.0867594 0.626 255 255 255
-0.0489667 0.0529608 0.69 255 255 255
0.129606 -0.0346283 0.793 255 255 255
0.300344 0.173107 0.69 255 255 255
0.0934222 -0.227322 0.732 255 255 255
0.00319283 -0.289262 0.816 255 255 255
-0.0697546 -0.211223 0.607 255 255 255
-0.0505917 -0.164805 0.667 255 255 255
0.211247 -0.0751623 0.671 255 255 255
0.161815 -0.133659 0.703 255 255 255
-0.127176 -0.0798827 0.769 255 255 255
-0.30855 -0.0414609 0.711 255 255 255
0.127596 -0.0777823 0.773 255 255 255
-0.0960065 -0.0586848 0.77 255 255 255
0.258924 0.112582 0.712 255 255 255
0.264962 0.0489511 0.666 255 255 255
0.090766 -0.124804 0.792 255 255 255
-0.221168 0.187865 0.493 255 255 255
-0.130239 0.0803917 0.632 255 255 255
0.265635 -0.150214 0.56 255 255 255
0.012024 0.0579621 0.71 255 255 255
0.116297 0.0736009 0.867 255 255 255
0.141796 -0.0151942 0.789 255 255 255
-0.20249 -0.139343 0.608 255 255 255
0.0587641 -0.161188 0.813 255 255 255
-0.175368 -0.12877 0.639 255 255 255
0.254259 0.0320375 0.675 255 255 255
0.140109 -0.0101221 0.794 255 255 255
0.234551 0.173803 0.773 255 255 255
0.136914 -0.0968579 0.755 255 255 255
-0.219398 0.0428742 0.64 255 255 255
-0.119538 0.118109 0.599 255 255 255
0.314603 0.0976134 0.637 255 255 255
0.203455 -0.0637238 0.689 255 255 255
-0.012856 -0.311832 0.823 255 255 255
-0.143868 -0.047904 0.739 255 255 255
0.288329 0.0184764 0.625 255 255 255
-0.122565 -0.103137 0.756 255 255 255
-0.0918278 -0.166458 0.644 0 0 0
-0.288105 -0.221375 0.674 255 255 255
-0.0446213 -0.175697 0.659 255 255 255
-0.0701352 0.0674769 0.667 255 255 255
0.232567 0.176419 0.779 255 255 255
-0.123644 0.112448 0.6 255 255 255
-0.213499 0.0841324 0.6 255 255 255
-0.154144 -0.181126 0.633 255 255 255
-0.0940547 0.102729 0.624 255 255 255
0.252799 -0.0187479 0.646 255 255 255
-0.037084 0.105364 0.64 255 255 255
-0.145777 0.196833 0.51 255 255 255
-0.240918 0.174723 0.499 255 255 255
0.183628 -0.163569 0.662 255 255 255
0.198972 0.0230491 0.739 255 255 255
0.0611124 0.082559 0.703 255 255 255
-0.0455438 -0.0304854 0.786 255 255 255
-0.12611 0.0356992 0.682 255 255 255
-0.203103 -0.116235 0.622 255 255 255
-0.0959036 0.00138723 0.731 255 255 255
-0.00724779 0.082566 0.675 255 255 255
0.215338 -0.160483 0.617 255 255 255
-0.0350061 0.171428 0.572 255 255 255
-0.185164 0.175475 0.518 255 255 255
0.23789 -0.182635 0.579 255 255 255
-0.200041 0.119812 0.57 255 255 255
0.117333 0.0377539 0.854 255 255 255
0.240747 -0.151346 0.593 255 255 255
-0.199237 -0.0502715 0.674 255 255 255
0.0975013 -0.0821092 0.816 255 255 255
-0.17369 0.157444 0.54 255 255 255
0.309747 0.0573984 0.617 255 255 255
-0.0825996 0.121662 0.607 255 255 255
0.297434 0.178777 0.699 255 255 255
-0.099016 0.173785 0.55 255 255 255
-0.172205 0.129087 0.57 255 255 255
-0.02162 0.138278 0.615 255 255 255
0.00195137 -0.220738 0.854 255 255 255
0.0329718 0.12508 0.645 255 255 255
-0.112953 0.150287 0.566 255 255 255
-0.140731 0.0508117 0.662 255 255 255
-0.0699217 -0.163567 0.645 255 255 255
-0.143578 0.0984393 0.61 255 255 255
0.231812 -0.103212 0.629 255 255 255
0.0323844 -0.0821288 0.888 255 255 255
-0.182237 -0.0818357 0.672 255 255 255
-0.225868 0.0999457 0.584 255 255 255
0.214909 0.0962919 0.757 255 255 255
0.160265 -0.0366549 0.755 255 255 255
0.262167 0.0813846 0.693 255 255 255
-0.179404 0.151528 0.544 255 255 255
0.159735 0.0691866 0.815 255 255 255
-0.22098 0.153653 0.527 255 255 255
-0.00516518 0.18746 0.567 255 255 255
0.286112 -0.0443791 0.595 255 255 255
0.00659492 -0.0880826 0.92 255 255 255
-0.0682425 0.0857225 0.649 255 255 255
-0.220525 0.0711204 0.432 255 255 255
0.29073 0.194423 0.719 255 255 255
0.238648 -0.211487 0.563 255 255 255
-0.163295 0.0158835 0.689 255 255 255
-0.344497 -0.0866546 0.785 255 255 255
-0.0743876 0.164393 0.567 255 255 255
-0.20124 0.141049 0.548 255 255 255
-0.149785 -0.184954 0.632 0 0 0
-0.34137 -0.035434 0.684 255 255 255
-0.08998 -0.0711434 0.783 255 255 255
-0.100918 0.180625 0.541 255 255 255
0.123025 0.0165514 0.836 255 255 255
0.121374 0.0124402 0.834 255 255 255
-0.164188 -0.170555 0.632 255 255 255
-0.190939 -0.070478 0.668 255 255 255
0.0219279 0.213043 0.552 255 255 255
-0.218955 -0.183535 0.591 255 255 255
0.279263 -0.104281 0.573 255 255 255
0.205959 -0.195355 0.613 255 255 255
0.0764749 0.0954653 0.697 255 255 255
-0.0800663 0.0437868 0.687 255 255 255
0.251861 -0.0156666 0.649 255 255 255
-0.123052 -0.0652573 0.759 255 255 255
0.00518045 -0.0651739 0.935 255 255 255
-0.0123419 -0.20501 0.882 255 255 255
0.231109 -0.0218833 0.678 255 255 255
-0.0210476 -0.0585513 0.951 255 255 255
0.0246552 -0.211386 0.823 255 255 255
-0.221307 0.147873 0.534 255 255 255
-0.0873667 -0.0798955 0.794 255 255 255
0.0387681 -0.0540666 0.902 255 255 255
-0.0842313 -0.0440451 0.777 255 255 255
-0.148878 -0.102732 0.695 0 0 0
-0.233554 0.0685466 0.609 255 255 255
0.339119 0.214651 0.669 255 255 255
0.111253 -0.0873169 0.791 255 255 255
-0.354683 -0.10423 0.755 255 255 255
-0.0887159 -0.0374802 0.772 255 255 255
-0.226306 0.123424 0.557 255 255 255
0.0266121 0.211872 0.556 255 255 255
0.28756 -0.0451187 0.592 255 255 255
-0.0259121 -0.271402 0.856 255 255 255
0.267641 0.0278479 0.654 255 255 255
0.13605 -0.124532 0.737 255 255 255
0.162283 0.109366 0.828 255 255 255
-0.250691 0.150208 0.521 255 255 255
0.01419 -0.0223774 0.927 255 255 255
-0.0725298 0.198771 0.533 255 255 255
-0.185941 -0.183262 0.584 255 255 255
0.289011 -0.0442299 0.593 255 255 255
-0.141211 -0.0700129 0.757 255 255 255
-0.217768 -0.16708 0.601 255 255 255
-0.000849303 -0.1806 0.875 255 255 255
-0.207639 -0.152156 0.6 255 255 255
0.159009 0.0821184 0.825 255 255 255
0.167888 0.225023 0.588 255 255 255
0.267787 0.136137 0.714 255 255 255
-0.275769 -0.0177018 0.687 255 255 255
0.0296262 -0.0824987 0.892 255 255 255
-0.199237 0.0210218 0.674 255 255 255
-0.0984223 0.0790187 0.646 255 255 255
0.297259 0.208467 0.715 255 255 255
0.0557623 -0.0331451 0.892 255 255 255
-0.289055 -0.0608017 0.735 255 255 255
-0.179641 0.125104 0.573 255 255 255
-0.0921443 0.108782 0.618 255 255 255
0.254756 -0.105464 0.601 255 255 255
0.0950751 -0.131365 0.785 255 255 255
-0.0507065 -0.190717 0.641 255 255 255
0.173029 -0.135612 0.684 255 255 255
0.293355 0.0871798 0.652 255 255 255
0.15718 -0.052418 0.752 255 255 255
-0.0565201 0.164268 0.573 255 255 255
0.238017 0.0552594 0.705 255 255 255
-0.029388 0.138146 0.61 255 255 255
-0.196479 0.0501646 0.64 255 255 255
-0.226642 0.0983808 0.586 255 255 255
0.189838 0.207675 0.619 255 255 255
-0.266557 0.0045763 0.675 255 255 255
0.00521923 -0.0457336 0.942 255 255 255
0.277116 -0.140882 0.552 255 255 255
-0.195617 -0.0877534 0.651 0 0 0
0.273667 -0.116402 0.573 255 255 255
0.261995 -0.206676 0.534 255 255 255
0.0910967 -0.258647 0.723 255 255 255
0.0572288 -0.176411 0.81 255 255 255
0.313531 0.251979 0.723 255 255 255
0.299068 0.0853263 0.646 255 255 255
-0.0558296 0.16963 0.566 255 255 255
0.0610721 0.210705 0.565 255 255 255
-0.335716 -0.136155 0.735 255 255 255
0.171275 -0.226872 0.64 255 255 255
0.0200117 0.0980156 0.668 255 255 255
-0.0422193 -0.0739128 0.772 255 255 255
-0.243021 0.113153 0.56 255 255 255
-0.244206 -0.052882 0.709 255 255 255
0.184602 0.104626 0.802 255 255 255
-0.341298 -0.136474 0.724 255 255 255
-0.306381 -0.177888 0.706 255 255 255
0.128003 0.0639335 0.851 255 255 255
0.115068 -0.120549 0.765 255 255 255
0.319236 0.200475 0.68 255 255 255
0.265095 -0.0444399 0.623 255 255 255
0.100489 -0.0257757 0.841 255 255 255
0.26648 0.206067 0.753 255 255 255
0.281218 -0.133038 0.553 255 255 255
-0.190564 -0.194473 0.575 255 255 255
0.11144 0.000227394 0.841 255 255 255
-0.0348188 -0.0959599 0.748 255 255 255
-0.314363 -0.0489477 0.719 255 255 255
0.195482 -0.142024 0.662 255 255 255
-0.0595348 -0.187899 0.635 255 255 255
0.288444 0.207519 0.728 255 255 255
-0.0394124 0.100782 0.644 255 255 255
-0.125885 0.0491716 0.669 255 255 255
0.215293 -0.0312987 0.691 255 255 255
0.304247 0.0220037 0.61 255 255 255
-0.230697 0.159459 0.518 255 255 255
0.0880822 0.193799 0.592 255 255 255
-0.15552 0.0361614 0.67 255 255 255
0.139875 0.0556694 0.831 255 255 255
0.173897 -0.181898 0.666 255 255 255
-0.113597 -0.00336647 0.73 255 255 255
0.277923 -0.0749835 0.592 255 255 255
0.124301 -0.0806098 0.776 255 255 255
-0.161344 -0.0670194 0.7 255 255 255
-0.272943 -0.049288 0.724 255 255 255
0.253277 0.0996486 0.719 255 255 255
0.0539249 0.0165356 0.91 255 255 255
0.242255 -0.200285 0.565 255 255 255
0.116456 0.149915 0.648 255 255 255
-0.108119 0.0943403 0.629 255 255 255
0.177546 -0.017984 0.745 255 255 255
0.251637 0.190668 0.76 255 255 255
-0.388981 -0.054355 0.762 255 255 255
0.240563 0.0919671 0.723 255 255 255
0.0289181 -0.196975 0.83 255 255 255
-0.314871 -0.171237 0.707 255 255 255
-0.0724909 -0.194174 0.622 255 255 255
-0.139763 -0.199876 0.624 255 255 255
0.0942667 0.16967 0.62 255 255 255
-0.332921 0.00227718 0.646 255 255 255
-0.23791 -0.000941719 0.694 255 255 255
0.321284 0.192411 0.675 255 255 255
0.049056 0.163956 0.61 255 255 255
-0.0385898 -0.051923 0.801 255 255 255
0.0501591 0.193584 0.577 255 255 255
0.23538 -0.144324 0.604 255 255 255
-0.233779 -0.101993 0.654 255 255 255
0.248406 -0.103554 0.607 255 255 255
-0.0911018 0.195927 0.53 255 255 255
0.0555093 -0.109649 0.844 255 255 255
-0.275936 -0.247634 0.648 255 255 255
0.156237 -0.193955 0.674 255 255 255
-0.280165 -0.239341 0.663 255 255 255
0.160873 -0.148889 0.694 255 255 255
0.156809 0.00405492 0.787 255 255 255
0.119107 -0.125779 0.759 255 255 255
0.058828 0.0713683 0.717 255 255 255
0.0655839 0.189942 0.589 255 255 255
-0.0532206 -0.0599043 0.786 255 255 255
-0.0412233 0.0133012 0.732 255 255 255
-0.224311 0.0853678 0.595 255 255 255
-0.00554778 0.14783 0.609 255 255 255
0.211902 -0.183479 0.61 255 255 255
0.162795 0.208482 0.601 255 255 255
0.0843277 0.200418 0.586 255 255 255
-0.240444 0.105712 0.569 255 255 255
-0.214886 0.00467121 0.689 255 255 255
0.210489 -0.042482 0.69 255 255 255
-0.045334 -0.00846302 0.761 255 255 255
0.262794 -0.0757706 0.606 255 255 255
-0.115 0.138197 0.581 255 255 255
0.264833 -0.192465 0.538 255 255 255
-0.084859 -0.228096 0.602 0 0 0
0.0570516 0.185463 0.59 255 255 255
0.173691 -0.196413 0.653 255 255 255
-0.0467637 -0.059828 0.785 255 255 255
0.0630945 -0.240064 0.769 255 255 255
0.283085 0.0998445 0.673 255 255 255
0.346992 0.255052 0.678 255 255 255
0.191015 0.170015 0.669 255 255 255
-0.187842 0.0995559 0.593 255 255 255
-0.0636685 0.173004 0.562 255 255 255
0.0278511 0.120389 0.648 255 255 255
-0.272414 -0.0165839 0.687 255 255 255
0.320364 0.0989042 0.632 255 255 255
0.104403 -0.146208 0.769 255 255 255
0.209227 0.224762 0.608 255 255 255
0.0268363 -0.245664 0.808 255 255 255
-0.351851 -0.132892 0.705 255 255 255
-0.359567 -0.141089 0.689 255 255 255
0.197229 -0.151084 0.65 255 255 255
0.227231 -0.187387 0.588 255 255 255
-0.228981 0.107769 0.45 255 255 255
-0.200041 0.118884 0.57 255 255 255
-0.10747 0.0117956 0.713 255 255 255
0.205141 -0.164385 0.632 255 255 255
-0.116345 0.106904 0.613 255 255 255
0.00643722 -0.125433 0.898 255 255 255
-0.0251586 0.097174 0.655 255 255 255
0.154239 0.0545306 0.814 255 255 255
0.169716 0.00522037 0.77 255 255 255
0.000621028 -0.0581819 0.945 255 255 255
0.25317 0.059698 0.69 255 255 255
-0.19814 -0.0524651 0.674 255 255 255
0.0564736 0.208866 0.565 255 255 255
-0.0264097 -0.138848 0.718 255 255 255
0.00484801 -0.163513 0.875 255 255 255
0.27715 -0.155946 0.545 255 255 255
0.265086 -0.0721815 0.609 255 255 255
-0.264526 0.0995793 0.571 255 255 255
-0.329281 0.0127303 0.643 255 255 255
-0.220462 0.135451 0.547 255 255 255
0.0999827 0.194454 0.594 255 255 255
0.226691 0.177778 0.785 255 255 255
-0.245289 0.159373 0.515 255 255 255
-0.123886 0.18299 0.53 255 255 255
0.19763 0.0352649 0.743 255 255 255
0.028023 0.115827 0.652 255 255 255
0.104454 0.212932 0.576 255 255 255
-0.0717983 -0.164107 0.643 255 255 255
-0.327724 0.0168895 0.642 255 255 255
-0.165225 0.0297964 0.674 255 255 255
-0.270253 0.000182781 0.676 255 255 255
0.223286 -0.15071 0.614 255 255 255
-0.303139 0.0340025 0.63 255 255 255
-0.170859 -0.00563224 0.716 255 255 255
-0.183724 -0.191445 0.58 0 0 0
0.104193 0.0697683 0.872 255 255 255
-0.0763633 0.0374567 0.694 255 255 255
0.0534796 0.0762332 0.708 0 0 0
0.177248 -0.216119 0.639 255 255 255
-0.14718 0.17609 0.53 255 255 255
0.224143 0.0558008 0.727 255 255 255
-0.0235448 -0.042583 0.822 255 255 255
-0.0346111 0.163725 0.581 255 255 255
-0.318577 -0.17964 0.695 255 255 255
-0.00448163 0.156125 0.599 255 255 255
-0.233033 -0.14825 0.629 255 255 255
-0.0735351 0.196537 0.534 255 255 255
0.150585 0.0604906 0.823 255 255 255
-0.178502 0.0840971 0.614 255 255 255
0.24968 0.11527 0.729 255 255 255
0.191236 0.11435 0.797 255 255 255
0.282865 -0.0177322 0.611 255 255 255
0.0661853 -0.128349 0.823 255 255 255
0.0219178 0.164471 0.601 255 255 255
-0.195689 0.0324977 0.662 255 255 255
0.0898608 -0.0904077 0.819 255 255 255
-0.242184 0.0854655 0.589 255 255 255
0.318762 0.181713 0.672 255 255 255
-0.0454279 -0.029132 0.784 255 255 255
0.145129 0.219115 0.585 255 255 255
0.12702 -0.0977559 0.762 255 255 255
0.0934494 -0.262399 0.714 255 255 255
0.28105 0.0575594 0.653 255 255 255
0.105491 0.0753579 0.871 0 0 0
0.210663 -0.159003 0.627 255 255 255
-0.312922 0.00338511 0.657 255 255 255
-0.39524 -0.0587703 0.755 255 255 255
0.13308 -0.240697 0.679 255 255 255
0.022552 0.0571268 0.714 255 255 255
0.0432279 -0.228775 0.795 255 255 255
-0.270641 0.0485186 0.619 255 255 255
-0.214971 0.18113 0.501 255 255 255
0.0196777 0.140076 0.623 255 255 255
0.286281 0.0645003 0.648 255 255 255
0.0153248 0.0187324 0.759 255 255 255
0.123353 0.151669 0.651 0 0 0
0.246929 -0.0614401 0.631 255 255 255
-0.304255 -0.110347 0.79 255 255 255
-0.12385 0.158774 0.557 255 255 255
0.245438 -0.043978 0.646 255 255 255
-0.0662742 0.150572 0.585 255 255 255
-0.244878 0.115473 0.558 255 255 255
-0.0502902 -0.252616 0.893 255 255 255
0.211902 0.222523 0.61 255 255 255
0.0179171 0.09518 0.671 255 255 255
-0.231175 0.0978771 0.583 255 255 255
0.190848 0.224734 0.6 255 255 255
0.248252 0.179773 0.761 255 255 255
0.1595 0.213536 0.596 255 255 255
0.171413 0.153685 0.669 255 255 255
0.246543 -0.167337 0.575 255 255 255
-0.0709274 0.196537 0.534 255 255 255
0.0780678 0.201891 0.582 255 255 255
-0.322316 -0.104805 0.787 255 255 255
-0.177875 -0.0457841 0.689 255 255 255
-0.141351 0.157064 0.551 255 255 255
-0.237353 -0.0916669 0.664 255 255 255
-0.0236594 -0.314313 0.826 255 255 255
-0.276645 -0.0681632 0.737 255 255 255
-0.0682212 0.0784641 0.659 255 255 255
-0.159287 -0.189601 0.617 255 255 255
0.183351 -0.165474 0.661 255 255 255
0.182307 0.210993 0.614 255 255 255
-0.290094 -0.0439596 0.714 255 255 255
-0.0452307 -0.167226 0.668 0 0 0
-0.137646 -0.162247 0.713 255 255 255
-0.299632 -0.220801 0.656 255 255 255
-0.160626 -0.092154 0.692 255 255 255
0.249394 -0.104541 0.607 255 255 255
-0.232674 0.0977092 0.582 255 255 255
0.0878535 -0.137171 0.789 255 255 255
-0.162222 0.145439 0.558 255 255 255
0.213759 -0.0224965 0.697 255 255 255
-0.172517 0.0147837 0.69 255 255 255
-0.0916667 0.152269 0.577 255 255 255
-0.323258 -0.0721401 0.78 255 255 255
0.230694 -0.0439235 0.661 255 255 255
0.327123 0.232166 0.692 255 255 255
0.222607 -0.0329651 0.679 255 255 255
-0.0320805 -0.102297 0.741 255 255 255
0.110345 0.179019 0.614 255 255 255
0.265617 -0.182553 0.545 255 255 255
0.139819 -0.0441018 0.778 255 255 255
-0.202823 -0.136599 0.609 255 255 255
-0.37646 -0.084891 0.747 255 255 255
-0.263727 -0.238244 0.657 255 255 255
0.100187 0.17773 0.613 255 255 255
0.165025 0.207849 0.602 255 255 255
-0.165336 -0.128121 0.657 255 255 255
-0.154457 0.132564 0.573 255 255 255
-0.290464 0.00980004 0.657 255 255 255
-0.138954 0.183827 0.525 255 255 255
0.0772646 -0.260058 0.737 255 255 255
0.209216 -0.150698 0.635 255 255 255
-0.156044 0.193893 0.511 255 255 255
0.198708 -0.0730101 0.692 255 255 255
0.0374652 0.000244969 0.906 255 255 255
0.0448048 -0.160687 0.824 255 255 255
0.329759 0.188922 0.659 255 255 255
-0.224727 -0.20854 0.591 0 0 0
0.209673 0.0131195 0.722 255 255 255
0.0532722 -0.288143 0.754 255 255 255
0.116021 -0.149689 0.755 255 255 255
-0.0749411 -0.207954 0.609 255 255 255
0.0769028 -0.106921 0.823 255 255 255
0.162897 -0.147546 0.693 255 255 255
-0.108978 0.0868364 0.634 255 255 255
-0.266568 0.0470298 0.626 255 255 255
-0.0712784 0.148221 0.587 255 255 255
0.264019 0.082036 0.689 255 255 255
0.242061 0.0213337 0.684 255 255 255
0.322367 0.127875 0.638 255 255 255
-0.33427 -0.0710525 0.782 255 255 255
0.142077 0.0655275 0.836 255 255 255
0.222416 0.0850666 0.745 255 255 255
0.00673391 0.114761 0.646 255 255 255
-0.136282 -0.0663173 0.757 255 255 255
0.19794 -0.18084 0.632 255 255 255
-0.216901 0.146683 0.536 255 255 255
0.22523 -0.010994 0.687 255 255 255
-0.111047 -0.129687 0.753 255 255 255
-0.142315 -0.178823 0.719 255 255 255
0.348528 0.263938 0.681 255 255 255
-0.0186182 0.103837 0.65 255 255 255
-0.165785 0.106057 0.597 255 255 255
0.229535 -0.177163 0.589 255 255 255
0.143671 -0.124026 0.727 255 255 255
0.0908483 -0.0738847 0.828 255 255 255
-0.368199 -0.119249 0.699 255 255 255
0.0971159 -0.0641413 0.824 255 255 255
-0.0151818 0.153918 0.598 255 255 255
-0.0402046 -0.229879 0.895 255 255 255
-0.0495077 -0.14156 0.714 255 255 255
0.238618 -0.0715778 0.639 255 255 255
-0.300658 -0.234162 0.64 255 255 255
0.0546441 -0.277834 0.756 255 255 255
0.188756 0.0160907 0.751 255 255 255
0.245172 -0.210139 0.557 255 255 255
-0.167584 0.157435 0.543 255 255 255
0.270886 0.0127501 0.644 255 255 255
0.241105 -0.0257148 0.663 255 255 255
0.277608 -0.0219225 0.617 255 255 255
0.345889 0.247329 0.678 255 255 255
0.196053 0.223283 0.604 255 255 255
0.117873 -0.262538 0.687 255 255 255
-0.278468 0.0921457 0.571 255 255 255
0.0210774 0.0328909 0.744 255 255 255
-0.0336207 0.149775 0.597 255 255 255
0.14268 -0.0843475 0.753 255 255 255
-0.0917038 -0.0854924 0.798 255 255 255
-0.159204 0.000193596 0.716 255 255 255
-0.0908616 -0.192458 0.623 255 255 255
0.128166 0.181191 0.618 255 255 255
-0.140746 0.191861 0.519 255 255 255
-0.294944 -0.201928 0.69 255 255 255
0.268771 -0.167783 0.546 255 255 255
-0.322038 -0.117731 0.771 255 255 255
0.0621644 -0.232507 0.773 255 255 255
-0.341203 -0.0371349 0.695 255 255 255
0.197226 0.123119 0.795 255 255 255
-0.124979 0.0105459 0.707 255 255 255
0.181184 -0.0131345 0.745 255 255 255
-0.353243 -0.1523 0.679 255 255 255
-0.264865 0.0487537 0.622 255 255 255
0.0260889 0.159198 0.607 255 255 255
0.123139 -0.145477 0.746 255 255 255
-0.149985 0.112668 0.596 255 255 255
0.146129 0.183537 0.626 255 255 255
0.272569 0.0265379 0.648 255 255 255
0.151828 -0.0444348 0.762 255 255 255
0.281083 0.239604 0.743 255 255 255
-0.280648 -0.0306546 0.702 255 255 255
-0.267314 0.0995793 0.571 255 255 255
0.0016429 0.0423162 0.719 255 255 255
0.302335 0.0944941 0.644 255 255 255
0.182899 0.109083 0.806 255 255 255
0.114956 0.0462542 0.857 255 255 255
-0.00704791 -0.0426677 0.942 255 255 255
-0.180317 -0.0940046 0.673 255 255 255
-0.136773 0.0204276 0.691 255 255 255
0.193016 0.122438 0.799 255 255 255
-0.145291 -0.17589 0.644 255 255 255
0.0495991 -0.146878 0.837 255 255 255
0.213765 -0.059484 0.679 255 255 255
-0.00568443 0.132178 0.624 255 255 255
0.241134 -0.165961 0.58 255 255 255
-0.212851 0.0488161 0.636 255 255 255
-0.121135 0.0388571 0.679 255 255 255
-0.297693 -0.170641 0.724 255 255 255
0.0254872 0.172896 0.593 255 255 255
0.133377 -0.173119 0.71 255 255 255
-0.0915741 0.0319932 0.698 255 255 255
-0.00231175 0.207553 0.547 255 255 255
0.06417 0.137035 0.642 255 255 255
0.211229 0.0986833 0.766 255 255 255
0.263345 -0.0795837 0.605 255 255 255
0.220568 -0.0972898 0.644 255 255 255
-0.264652 0.0235908 0.654 255 255 255
-0.297482 -0.0948661 0.779 255 255 255
0.258351 -0.102018 0.598 255 255 255
0.250585 -0.187912 0.561 255 255 255
-0.131874 -0.0690536 0.76 255 255 255
-0.147468 0.00596899 0.71 255 255 255
0.233416 0.21604 0.617 255 255 255
0.192113 -0.0617618 0.705 255 255 255
-0.166676 0.187973 0.513 255 255 255
0.135399 -0.121426 0.74 255 255 255
0.0353747 0.185471 0.581 255 255 255
-0.211354 0.113915 0.573 255 255 255
0.29477 -0.0335015 0.591 255 255 255
0.132482 0.160708 0.649 255 255 255
0.322391 0.12437 0.636 255 255 255
-0.211349 0.151066 0.533 255 255 255
-0.0900891 -0.0601714 0.773 255 255 255
-0.0514491 0.00623802 0.742 255 255 255
-0.143428 -0.170838 0.696 255 255 255
-0.0517549 0.0741004 0.668 255 255 255
0.0393698 -0.0161493 0.916 255 255 255
-0.129663 0.190421 0.522 255 255 255
0.221503 -0.215205 0.583 255 255 255
-0.158159 -0.200681 0.605 0 0 0
0.259909 0.075418 0.69 255 255 255
0.173125 -0.218518 0.643 255 255 255
-0.228954 0.0845502 0.436 255 255 255
-0.125438 0.157585 0.556 255 255 255
0.277265 -0.0109836 0.623 255 255 255
-0.268709 0.0876317 0.578 255 255 255
0.00215245 -0.0533983 0.942 255 255 255
-0.0131022 0.112478 0.639 255 255 255
0.151069 -0.0726375 0.746 255 255 255
-0.109702 0.143127 0.578 255 255 255
0.0209696 0.188234 0.575 255 255 255
0.260052 -0.10599 0.593 255 255 255
-0.0805868 -0.166983 0.638 255 255 255
0.182221 -0.0434571 0.725 255 255 255
0.00458207 -0.255479 0.827 255 255 255
0.011655 -0.189718 0.852 255 255 255
0.163662 0.134458 0.771 0 0 0
-0.338701 0.000173858 0.643 255 255 255
0.229453 0.00808155 0.693 255 255 255
0.0891112 -0.0232851 0.85 255 255 255
-0.0667809 -0.0365993 0.78 255 255 255
-0.289465 -0.0568242 0.73 255 255 255
0.124974 0.134591 0.677 255 255 255
0.0500328 0.141741 0.635 0 0 0
-0.203547 0.184309 0.503 255 255 255
0.325357 0.144197 0.646 255 255 255
-0.222065 0.186211 0.495 255 255 255
0.0101911 0.210098 0.549 255 255 255
0.0297916 -0.277209 0.782 255 255 255
0.217543 -0.0268008 0.691 255 255 255
0.0348664 0.165565 0.605 255 255 255
-0.157906 -0.0514364 0.705 255 255 255
0.224912 -0.20347 0.582 255 255 255
0.212296 0.00833811 0.715 255 255 255
-0.249976 -0.00657906 0.693 255 255 255
0.0770823 0.154486 0.628 255 255 255
0.1267 -0.20517 0.705 255 255 255
-0.220091 -0.168337 0.602 255 255 255
0.28127 0.0145695 0.632 255 255 255
0.259842 -0.0706605 0.613 255 255 255
-0.217511 -0.158804 0.603 255 255 255
0.159911 -0.192 0.671 255 255 255
-0.158347 0.0180734 0.687 255 255 255
0.00589242 -0.26196 0.822 255 255 255
-0.235221 0.137232 0.54 255 255 255
-0.00619457 0.0776447 0.68 255 255 255
-0.351105 -0.0857714 0.777 255 255 255
0.184854 0.0650293 0.781 255 255 255
-0.153338 -0.138601 0.656 255 255 255
0.186318 0.189131 0.638 255 255 255
0.231734 0.194935 0.772 255 255 255
0.234877 0.0704953 0.72 255 255 255
-0.151678 -0.0618182 0.719 255 255 255
0.0147186 0.174013 0.587 255 255 255
0.0848377 0.0564042 0.822 0 0 0
0.316931 0.208129 0.687 255 255 255
0.162662 -0.0879246 0.722 255 255 255
0.199991 -0.214186 0.607 255 255 255
-0.050457 0.0325891 0.711 255 255 255
0.171335 0.0541398 0.789 255 255 255
-0.2273 0.124787 0.555 255 255 255
0.260145 -0.17147 0.558 255 255 255
-0.0617021 -0.0340606 0.78 255 255 255
0.170416 -0.0747926 0.72 255 255 255
0.153298 0.149745 0.666 255 255 255
-0.355293 -0.131745 0.705 255 255 255
-0.207152 -0.0353304 0.682 255 255 255
0.175853 -0.240108 0.623 255 255 255
0.0395513 0.198769 0.573 255 255 255
-0.016875 -0.314511 0.823 255 255 255
0.110797 -0.219213 0.721 255 255 255
0.308643 0.0695523 0.627 255 255 255
0.22392 -0.150465 0.613 255 255 255
-0.185911 -0.177401 0.593 255 255 255
-0.142435 0.191016 0.519 255 255 255
-0.178282 0.0565898 0.642 255 255 255
-0.292807 -0.018765 0.685 255 255 255
-0.124342 0.121956 0.594 255 255 255
-0.0394364 0.0831305 0.662 255 255 255
0.260054 -0.0174775 0.638 255 255 255
0.0751404 0.0382377 0.898 255 255 255
0.0649721 -0.0997977 0.842 255 255 255
-0.00250194 0.165861 0.592 255 255 255
0.24149 -0.122322 0.607 255 255 255
-0.0554795 -0.183309 0.648 255 255 255
0.269014 -0.198715 0.529 255 255 255
0.261114 -0.0619844 0.616 255 255 255
0.067443 -0.125518 0.822 255 255 255
0.0794478 -0.260548 0.735 255 255 255
-0.317667 -0.143049 0.746 255 255 255
-0.356386 -0.0864758 0.772 255 255 255
-0.122917 -0.00698728 0.736 255 255 255
-0.14023 0.0149337 0.697 255 255 255
-0.163389 -0.0521361 0.699 255 255 255
-0.0449369 0.163443 0.58 255 255 255
-0.0813686 -0.071416 0.786 255 255 255
0.282254 -0.056775 0.593 255 255 255
-0.123732 0.101248 0.615 255 255 255
-0.25311 0.186027 0.482 255 255 255
-0.00539292 0.164898 0.592 255 255 255
0.186815 -0.226479 0.619 255 255 255
0.0307433 -0.171252 0.843 255 255 255
-0.223539 0.160611 0.519 255 255 255
-0.306617 -0.0197637 0.681 255 255 255
0.0867886 -0.138806 0.791 255 255 255
0.299126 0.175492 0.695 255 255 255
0.043458 -0.268768 0.776 255 255 255
0.0954685 0.191229 0.596 255 255 255
-0.17123 -0.124533 0.655 255 255 255
-0.0401254 -0.288735 0.862 255 255 255
0.154322 0.193259 0.618 255 255 255
0.11696 0.18242 0.612 255 255 255
0.135136 0.145613 0.662 255 255 255
0.227138 -0.158804 0.603 255 255 255
0.0363205 0.184525 0.581 255 255 255
0.160262 -0.23846 0.646 255 255 255
-0.0633784 0.114547 0.622 255 255 255
-0.187747 0.184851 0.509 255 255 255
0.00624367 -0.175523 0.871 255 255 255
0.261085 -0.144124 0.572 255 255 255
-0.0825407 0.070203 0.662 255 255 255
0.270736 -0.19355 0.529 255 255 255
-0.0348801 -0.124692 0.724 255 255 255
0.182658 0.20362 0.622 255 255 255
-0.111865 -0.166546 0.697 255 255 255
-0.0591516 -0.138836 0.678 255 255 255
0.171942 -0.0999042 0.707 255 255 255
-0.328941 -0.032517 0.693 255 255 255
-0.237669 0.176347 0.499 255 255 255
0.160712 -0.179924 0.679 255 255 255
0.252422 -0.19674 0.555 255 255 255
-0.341801 -0.117121 0.751 255 255 255
0.130567 -0.0422643 0.791 255 255 255
-0.362933 -0.0865957 0.762 255 255 255
-0.0474181 -0.327253 0.842 255 255 255
-0.253501 0.108791 0.561 255 255 255
-0.0957755 0.193204 0.532 255 255 255
-0.056333 -0.0275719 0.776 255 255 255
0.253785 -0.183932 0.56 255 255 255
-0.107038 0.136059 0.584 255 255 255
-0.170458 -0.107147 0.673 255 255 255
0.158826 -0.0427413 0.754 255 255 255
0.201967 0.21863 0.613 255 255 255
-0.226169 -0.137576 0.627 255 255 255
-0.139979 -0.0663173 0.757 255 255 255
0.0662413 -0.241599 0.762 255 255 255
-0.169986 -0.196956 0.588 255 255 255
-0.227801 0.0068635 0.684 255 255 255
0.0496456 -0.256739 0.774 255 255 255
0.0358461 0.147949 0.622 255 255 255
0.152901 -0.247921 0.646 255 255 255
0.193487 -0.0280419 0.723 255 255 255
0.136014 0.0216775 0.824 255 255 255
0.185734 -0.198544 0.636 255 255 255
-0.291997 -0.203345 0.691 255 255 255
0.290892 0.184535 0.708 255 255 255
0.0388039 0.176822 0.59 255 255 255
