ply
format ascii 1.0
comment Created by Open3D
element vertex 1351
property double x
property double y
property double z
property uchar red
property uchar green
property uchar blue
end_header
0.042877 0.498571 1.71 69 71 62
0.0370917 0.503955 1.7 88 88 82
-0.0644848 -0.102649 2.54 112 102 100
0.125931 -0.180829 1.505 2 8 8
-0.718739 0.211081 2.269 115 111 104
0.38291 0.0975838 1.087 75 76 63
0.0468859 0.258997 1.655 3 12 3
0.364424 0.310013 0.947 3 7 0
-0.730183 0.127198 2.43 111 108 105
-0.0404523 -0.703868 2.143 138 130 129
-0.00649349 -0.0765915 2.499 111 102 97
-0.704 0.0684128 2.449 129 122 116
1.11311 -0.754635 2.43 133 133 129
0.406828 -0.168546 1.348 205 207 215
-0.491774 -0.358341 2.228 136 128 125
-0.139237 0.295445 2.107 117 110 102
0.423505 -0.00648225 1.039 177 180 179
0.733313 -0.238915 1.456 162 165 166
0.0706143 0.0493732 1.583 10 10 4
-1.10633 -0.0987322 2.261 121 122 116
0.194903 0.297444 1.242 9 13 6
-0.829126 -0.147666 2.278 127 125 115
-0.0301971 -0.691236 2.158 133 127 129
0.505746 -0.0671337 1.12 122 126 121
-0.350594 0.238923 2.253 120 112 109
0.160082 -0.362869 1.459 44 37 48
-0.357568 0.517779 1.682 123 123 117
0.773556 -0.807749 2.509 18 18 36
-0.632684 0.514719 1.629 110 114 107
0.192717 0.027093 1.491 22 11 4
0.0584596 0.0891261 1.603 11 11 5
0.265447 0.285199 1.036 4 5 1
-0.984168 0.076726 2.338 122 123 112
0.378511 0.252101 0.992 2 7 0
-0.480668 0.447158 1.794 118 115 110
0.515464 -0.0841952 1.154 105 113 112
-1.04638 -0.635139 2.024 122 134 126
1.2454 -0.666293 2.53 132 133 124
0.277461 -0.237554 1.477 45 45 47
-0.559282 -0.00739801 2.479 128 123 119
-0.350628 0.104707 2.459 121 113 112
0.109543 0.0856539 1.587 6 7 3
0.421628 0.285708 0.895 76 77 71
0.90224 -0.627586 2.459 139 136 133
0.104533 0.580936 1.551 49 45 34
-0.532911 0.0287927 2.469 127 122 118
0.176706 -0.322507 1.459 9 13 8
-0.240981 -0.199489 2.365 114 105 98
-1.11738 -0.0950528 2.261 125 122 117
0.1811 0.214339 1.603 3 4 0
0.386562 -0.871987 2.253 128 112 119
1.02237 -0.789506 2.44 146 146 140
0.462957 -0.894476 2.402 22 22 22
-0.710919 -0.654409 2.064 133 131 123
0.0514884 -0.721276 2.196 137 129 128
0.432931 -0.115667 1.229 206 206 210
0.875409 -0.725975 2.44 142 138 129
-0.766064 0.451331 1.799 115 117 106
-1.05602 -0.0821473 2.312 120 121 112
-0.514378 -0.757835 2.044 145 145 141
0.234346 -0.0658942 1.509 6 8 0
-0.208354 0.321813 2.078 129 121 120
-1.01341 0.321813 2.078 94 102 91
-0.370321 -0.492565 2.196 129 121 120
-1.07074 -0.258502 2.181 123 127 122
0.239456 0.0621989 1.357 6 13 19
0.270781 0.514331 1.316 10 11 0
0.341838 -0.0605412 1.247 161 157 158
-0.984144 -0.086207 2.32 125 121 110
-0.303633 -0.270947 2.286 117 107 105
0.323976 0.103132 1.289 8 13 3
0.00624089 0.550696 1.595 98 95 92
0.129319 -0.0785351 1.516 4 8 1
0.108219 -0.514503 2.261 128 120 119
0.139002 0.127935 1.599 6 7 0
-0.967136 -0.208182 2.212 123 124 118
0.197764 0.441463 1.39 8 9 5
-0.443243 -0.0509591 2.44 116 106 104
-0.502655 0.487229 1.729 113 114 105
0.282377 0.343196 1.018 0 3 0
0.236728 -0.29006 1.463 6 9 12
-0.0633767 0.521354 1.65 99 99 93
0.184335 -0.280537 1.463 7 11 6
0.382596 -0.0452627 1.167 160 159 161
0.412017 0.302607 0.837 94 95 84
-0.0847666 0.415064 1.887 97 86 79
0.102898 0.289732 1.646 4 5 0
-0.53018 0.114006 2.402 110 103 95
0.0402943 0.539149 1.607 96 93 88
0.287586 0.334916 1.013 1 5 0
0.127948 0.0962261 1.591 3 7 0
0.205157 0.322757 1.152 1 5 0
-0.272813 -0.370233 2.374 119 114 112
0.66152 -0.579867 3.215 56 56 52
0.08545 0.155978 1.62 2 6 0
-1.0145 0.190132 2.329 113 110 105
0.345784 0.12037 1.171 6 7 1
0.212238 -0.0757168 1.509 6 8 0
0.144674 0.478788 1.729 14 19 9
-0.813042 -0.203852 2.166 128 125 120
0.981829 -0.596301 2.53 136 136 130
-1.04526 0.0579247 2.347 119 119 113
1.11773 -0.431616 2.53 117 115 103
0.396727 0.25905 0.958 0 7 6
-1.10565 -0.136063 2.099 116 120 113
0.536002 -0.216307 1.387 202 205 206
-1.18808 -0.0258005 2.32 122 123 114
0.172726 0.228944 1.124 8 13 1
0.391429 0.245643 0.992 1 5 0
0.439699 -0.786836 2.469 10 12 3
0.31593 -0.148622 1.477 25 28 27
0.451448 0.0297861 0.955 192 200 199
0.561634 -0.797447 2.44 99 104 94
0.0889236 -0.12262 1.543 8 13 3
0.563094 -0.137654 1.247 128 128 132
-0.452215 0.329721 2.064 121 116 112
-0.166322 0.471041 1.774 125 119 121
-0.123027 -0.37304 2.392 119 109 107
-0.5465 0.190867 2.338 121 117 110
0.238587 0.350125 1.059 0 7 0
0.238398 0.0927032 1.351 7 22 35
-0.00483049 0.396804 1.859 57 50 42
-0.808375 0.355657 1.966 112 112 106
0.476116 -0.144894 1.275 188 190 196
0.953001 -0.588067 2.53 136 136 130
0.371007 0.132372 1.143 10 11 5
-0.142059 -0.659344 2.204 128 123 119
-0.352008 0.227543 2.286 124 115 106
-0.538704 0.428694 1.853 112 112 108
-1.04517 -0.420015 2.136 131 131 125
0.272369 0.116368 1.345 11 19 20
0.318034 0.265217 1.005 4 11 3
0.377099 0.309031 0.944 2 6 0
0.265384 0.140478 1.213 10 11 7
-0.499229 -0.617256 2.121 140 138 130
0.204196 0.272717 1.116 3 8 0
0.251364 0.231869 1.062 9 14 4
-0.232049 0.407904 1.911 128 123 121
0.273595 0.0469131 1.362 9 27 52
-1.03274 -0.127714 2.253 123 123 117
-0.04757 -0.407116 2.32 123 115 114
-0.0709308 0.563159 1.579 119 119 115
0.411697 0.323881 0.88 87 88 82
-0.994119 0.38371 1.899 95 104 95
0.304657 0.108822 1.333 8 15 9
-0.191588 -0.51758 2.196 125 116 111
0.401757 0.257946 0.937 2 5 6
0.19705 0.165621 1.354 16 12 1
-0.0941152 0.585462 1.498 115 116 112
-0.681554 -0.0390471 2.44 134 127 121
0.322461 -0.0734087 1.463 60 62 53
0.163236 -0.290655 1.466 4 8 1
0.531598 -0.164533 1.299 179 182 183
0.232504 -0.051296 1.513 6 7 1
0.0623643 0.304131 1.637 3 7 0
-0.514349 -0.294078 2.383 130 126 119
-1.00697 -0.295073 2.189 121 117 108
-0.940983 -0.640559 2.01 128 135 127
-0.608669 0.450471 1.784 108 108 104
0.0157991 -0.677278 2.204 135 127 126
0.961866 -0.497529 2.489 143 144 135
-0.600829 -0.569981 2.151 142 139 134
-0.549344 0.383025 1.911 113 111 103
-0.221732 -0.361132 2.365 121 111 109
1.21095 -0.775158 2.42 136 139 138
0.372158 0.0533483 1.124 99 100 91
0.407442 0.279118 0.836 89 102 97
0.409169 0.15795 0.969 83 84 73
0.15034 -0.230811 1.48 8 9 3
0.914533 -0.474758 2.982 124 121 118
0.0775529 0.576729 1.567 55 58 42
-0.60447 -0.112707 2.402 128 121 115
0.329921 0.358159 0.928 21 19 0
0.411898 0.305594 0.834 94 92 80
0.344423 0.297084 0.96 4 12 1
-0.510288 0.564721 1.555 122 118 109
-1.07074 -0.297543 2.181 117 118 114
-0.59677 -0.726216 2.03 150 152 141
0.160763 0.493032 1.691 26 28 17
-0.496712 -0.0357808 2.489 130 123 117
0.270511 0.308104 1.017 0 7 0
-0.128937 -0.208927 2.43 122 112 112
-0.801617 -0.730659 1.997 130 133 132
-0.644938 -0.396247 2.158 142 140 132
0.168084 0.0510304 1.555 4 5 0
-0.636896 0.515983 1.633 108 115 107
-0.120685 0.279569 2.143 118 111 105
0.108714 0.0311824 1.575 6 7 1
-0.181896 0.525322 1.629 120 117 112
-0.74273 -0.274667 2.286 132 127 123
-0.0517448 -0.455931 2.338 125 115 113
0.639449 -0.828286 2.449 67 70 73
0.232253 0.150734 1.185 16 16 10
-0.26577 0.0330764 2.489 125 115 113
-1.14664 0.070447 2.383 117 119 108
0.0550141 0.565728 1.579 87 83 76
0.386247 -0.199102 1.409 195 195 195
0.0103332 0.328281 1.865 86 77 72
0.403353 0.241186 0.974 4 5 0
0.418859 0.227934 0.88 88 92 85
-0.964177 0.428435 1.865 97 103 103
0.713056 -0.797471 3.165 26 27 18
-1.04287 -0.603987 2.03 130 135 121
0.720408 -0.78083 2.582 9 14 21
-0.513347 -0.443538 2.166 136 131 129
-0.620817 0.584754 1.528 109 113 106
-1.23535 0.149015 2.338 120 124 117
-1.02635 0.357324 2.03 97 104 96
-0.585547 0.536909 1.616 113 118 106
0.241065 0.271923 1.07 3 7 0
-0.288624 -0.551057 2.173 129 120 115
0.402128 0.198764 0.897 93 96 80
-0.267628 -0.601958 2.204 127 122 118
-0.0831405 0.162282 2.365 110 101 94
-0.192286 -0.490773 2.204 128 120 117
-0.824562 0.389772 1.929 111 113 104
-0.6166 0.390467 1.917 119 115 108
-0.00218683 -0.531015 2.253 129 121 118
-0.0241915 0.231591 2.253 116 105 98
0.503219 -0.219738 1.409 198 200 206
-0.0420868 -0.166109 2.44 115 105 103
0.408389 -0.0360848 1.118 185 191 191
-0.709121 -0.679967 2.03 138 139 130
-1.06194 0.106188 2.402 119 119 113
-0.252419 0.30916 2.107 125 122 119
0.333719 0.0997718 1.247 39 37 29
-0.406068 -0.456829 2.196 132 128 119
-0.102404 0.495601 1.719 119 116 113
-1.09742 -0.0369987 2.312 128 125 122
0.384647 0.0195702 1.077 155 155 155
0.375832 0.0639745 1.087 96 94 84
0.343997 -0.623931 2.312 131 123 120
-0.281432 -0.00332315 2.449 142 137 133
0.288562 -0.698473 2.261 136 128 125
0.552434 -0.0661746 1.104 103 109 109
0.246627 -0.060983 1.509 4 8 3
-0.416265 0.52927 1.633 116 117 106
-0.0489649 0.577441 1.535 113 112 114
0.790586 -0.754828 2.884 4 8 1
0.438299 -0.0148643 1.034 193 199 199
-0.204093 0.150925 2.43 117 106 99
-0.93292 -0.232051 2.166 123 124 118
0.0773523 0.373438 1.673 4 8 1
0.428121 0.109903 0.864 166 174 173
-0.689576 0.193173 2.32 116 112 105
1.06743 -0.588995 2.499 138 136 128
-0.365071 0.477266 1.744 122 118 111
-0.638809 -0.374248 2.173 134 127 121
-0.830874 0.338517 1.997 111 109 99
-0.300257 -0.0311057 2.44 114 107 101
0.0509491 -0.749084 2.173 141 133 132
-0.641176 -0.254163 2.269 132 124 121
0.0958969 0.517654 1.664 39 40 29
0.81273 -0.955423 2.479 17 17 13
0.32524 0.257903 1.002 7 12 2
-0.665968 0.223039 2.278 119 117 109
-0.76648 -0.621651 2.078 142 143 139
0.381381 0.314636 0.947 12 14 0
-0.46794 0.551705 1.583 114 115 111
0.197973 0.294195 1.143 1 9 0
0.265887 0.334586 1.012 1 5 0
0.329561 0.0567903 1.239 84 85 72
0.198624 -0.187686 1.463 6 11 1
0.00162913 -0.120354 2.479 112 103 98
-1.18543 0.0975924 2.383 116 117 106
-0.633072 0.470989 1.763 111 108 103
-0.98024 -0.0760427 2.356 122 123 117
-0.782803 0.3398 2.024 115 116 110
-0.301735 0.142427 2.42 117 109 108
1.17591 -0.592349 2.479 132 133 122
0.387306 0.267283 0.954 1 5 0
0.179996 0.434695 1.744 12 13 0
-0.191912 0.528995 1.624 119 119 115
0.253503 -0.722932 2.212 142 132 130
0.227201 0.292163 1.087 2 7 0
-0.499009 -0.449682 2.196 139 134 130
-1.23629 0.0884794 2.347 123 125 116
-0.595513 -0.336726 2.278 131 123 122
-0.399012 0.495601 1.719 121 117 110
0.392284 -0.0234746 1.124 175 176 172
-0.703742 -0.425914 2.166 127 123 116
0.411606 0.240713 0.812 132 146 135
-0.738288 -0.220152 2.261 129 126 121
-0.0201506 -0.578946 2.212 131 123 122
0.0246528 -0.314948 2.365 118 109 102
-0.495377 -0.429877 2.261 137 126 130
0.00904635 -0.507297 2.312 125 120 118
-0.290262 0.52417 1.642 118 115 110
-0.637912 -0.469994 2.158 132 132 126
0.321538 0.237075 1.032 4 12 1
-0.848702 -0.279022 2.261 135 128 122
-0.592378 -0.0232498 2.449 131 123 120
-0.0477545 -0.473126 2.329 123 115 114
-0.814849 0.494339 1.705 103 112 103
-0.750594 -0.751144 1.991 146 139 131
0.69446 -0.849915 2.489 8 26 49
-0.185423 0.557082 1.591 117 118 109
0.432733 0.0978391 0.882 163 169 167
-0.393054 0.0126182 2.449 129 122 116
0.701318 -0.812663 2.499 6 26 48
-1.04483 -0.0259006 2.329 125 123 115
1.02209 -0.87884 2.402 152 156 149
0.393001 -0.881872 2.269 112 94 104
-0.53285 0.329721 2.064 122 120 112
-0.731003 0.572572 1.509 91 95 90
-0.516468 0.106586 2.411 108 101 93
-0.985139 -0.200982 2.212 125 125 119
1.09714 -0.435733 2.53 118 111 103
0.197131 -0.363491 1.452 63 57 61
-0.645328 0.576442 1.539 104 114 102
-0.0320145 0.497249 1.696 112 110 102
1.2514 -0.57502 2.509 127 128 119
-0.729271 0.325194 2.078 118 116 108
-0.56567 -0.718776 2.037 143 140 137
0.950395 -0.672858 2.449 142 142 142
0.537677 -0.134345 1.254 114 114 114
0.456365 0.052706 0.921 162 168 168
0.196675 0.327232 1.646 5 6 0
0.217182 0.319577 1.09 1 5 0
-0.701413 0.0522786 2.44 128 123 119
0.361286 0.232971 1.007 8 9 3
-0.428297 0.509543 1.691 115 112 107
-1.11157 -0.205322 2.22 117 124 118
-0.894029 0.45372 1.774 105 110 100
-0.857464 -0.698887 2.037 136 137 128
0.487349 -0.811289 2.572 19 19 13
0.678228 -0.790472 2.519 38 40 46
-1.05654 -0.301093 2.181 118 118 114
-0.938594 0.410223 1.893 100 103 102
0.299054 0.000389896 1.442 19 34 60
-0.965327 -0.44813 2.121 130 131 118
-0.172992 0.182907 2.383 111 103 100
-0.818168 -0.703092 2.03 136 138 129
0.262323 -0.246498 1.473 20 24 19
0.519637 -0.854669 2.411 57 65 66
0.324198 -0.0956217 1.439 69 70 66
-0.874275 0.299146 2.085 108 108 104
0.277718 0.457588 1.26 16 13 0
-0.581966 -0.184795 2.374 127 119 116
0.17148 0.434695 1.744 7 12 0
-0.561326 0.468121 1.763 108 108 104
0.420601 0.205274 0.863 88 92 85
0.155427 0.0383779 1.555 6 7 1
-1.05235 -0.638647 2.004 121 134 129
-0.52309 0.565083 1.563 119 117 107
-0.335717 0.475898 1.739 123 119 112
-0.843936 0.472671 1.748 96 105 98
-0.668384 0.415064 1.887 109 111 102
-0.57591 0.162282 2.365 123 115 112
-0.217381 -0.140069 2.402 113 105 102
-0.996957 -0.589027 2.024 133 137 130
-0.147679 0.368062 1.947 128 121 115
0.174381 0.371991 1.384 10 14 7
-0.032352 -0.398188 2.312 121 111 109
0.311643 -0.128193 1.491 22 25 24
-0.364659 0.565419 1.571 115 115 109
-0.42501 0.438502 1.831 115 116 107
-0.495873 -0.702809 2.078 81 63 52
0.388898 0.142228 1.104 39 41 32
-0.8417 -0.505134 2.114 131 132 123
0.117384 0.230361 1.624 2 6 0
0.867866 -0.825814 2.43 79 77 69
0.360629 0.0168256 1.128 128 124 125
-0.222238 0.563674 1.595 117 118 109
0.411221 -0.0191641 1.087 186 189 190
0.414232 0.306995 0.924 56 57 44
-0.28046 0.394818 1.923 124 120 121
-0.16325 -0.120976 2.411 114 104 102
0.330783 0.0381649 1.291 93 88 86
-0.659364 0.208274 2.32 115 116 107
-0.504627 -0.42469 2.253 138 128 128
0.925496 -0.907638 2.365 160 160 154
0.118309 0.438374 1.714 1 5 0
-0.280397 0.131692 2.44 117 109 106
0.0196806 0.52927 1.633 97 94 89
-0.318529 0.514946 1.664 122 119 116
0.267769 0.520975 1.333 9 11 2
-0.533671 0.356009 2.004 120 116 109
-0.714309 0.525447 1.646 108 111 110
-0.307801 0.364266 1.978 126 121 119
0.182762 0.0716215 1.509 2 7 0
-0.595354 0.402252 1.899 116 112 105
-0.59256 0.359952 1.972 115 111 104
-1.05261 0.345189 2.017 100 103 102
-1.13888 0.113104 2.383 115 119 112
0.283316 0.109802 1.345 10 17 21
0.209956 -0.324881 1.459 10 13 16
0.27934 -0.154468 1.487 18 15 10
0.383246 0.296742 0.944 2 7 0
-0.880527 0.0811507 2.356 125 122 117
-0.297618 0.27518 2.136 116 111 107
-0.251504 -0.673677 2.158 133 123 123
0.226581 -0.267898 1.459 9 13 6
1.07503 -0.61252 2.479 136 137 128
0.391754 -0.0944216 1.213 193 193 197
-0.333508 0.257072 2.189 120 112 109
-0.5749 0.440755 1.853 113 110 105
-0.160346 -0.773467 2.114 135 131 122
-0.163736 0.526612 1.633 119 119 115
0.184726 0.327117 1.659 1 5 0
-0.765355 0.474428 1.744 106 112 112
0.397734 -0.19004 1.393 203 202 211
-0.570803 0.070713 2.392 126 121 117
0.411359 -0.00316333 1.06 178 178 178
-0.45444 -0.173206 2.374 116 106 106
-0.123213 -0.498017 2.253 128 120 119
0.157341 0.304782 1.655 3 4 0
0.267748 0.42215 1.147 12 13 2
-0.706758 -0.292241 2.278 139 133 135
-0.708312 0.579014 1.513 100 108 105
-0.718316 0.0204291 2.43 129 125 118
0.1093 -0.0297914 1.547 6 8 0
0.741997 -0.87773 2.499 14 32 55
-0.198633 -0.211035 2.365 116 105 109
0.187676 -0.363491 1.452 41 35 41
-0.693847 -0.750419 2.024 136 130 134
-0.162472 -0.533742 2.189 128 120 117
0.50045 -0.0361412 1.066 121 131 134
-0.370634 -0.635526 2.136 131 123 120
0.13764 -0.325601 1.473 17 16 20
0.18761 0.103261 1.47 10 11 0
0.114632 -0.0172485 1.551 4 8 1
-0.370718 -0.760296 2.078 138 135 132
-0.422816 0.475516 1.748 122 117 113
-0.10612 0.49146 1.734 120 115 113
-0.572567 0.581299 1.532 117 119 110
0.366676 0.344351 0.896 67 27 1
-0.654369 -0.765832 2.004 141 142 131
-0.514159 0.344111 2.03 118 111 105
0.123502 -0.811977 2.143 143 139 132
0.256621 0.498198 1.378 8 5 0
0.417779 0.253099 0.893 81 90 83
0.722822 -0.89042 2.489 3 23 49
0.46953 0.0173896 0.957 173 184 184
-0.176075 0.452392 1.815 122 116 118
-0.491686 -0.429402 2.278 137 129 128
-0.188014 -0.592626 2.196 132 120 120
0.412824 0.139636 0.931 95 96 85
0.953527 -0.605262 2.499 136 137 128
1.03033 -0.699615 2.459 141 142 133
-1.10397 0.0782028 2.383 117 118 109
0.0421518 -0.141092 2.489 112 103 96
-1.02463 0.25166 2.204 107 108 102
-0.0990566 -0.806293 2.128 143 136 130
-0.459575 0.461071 1.758 118 119 110
0.554064 -0.211793 1.387 204 206 212
-0.656362 -0.683664 2.051 140 137 132
-0.827878 -0.406798 2.196 135 133 123
0.352113 0.270547 0.977 2 9 3
0.439699 -0.782818 2.469 10 12 3
-0.679671 0.207556 2.312 115 115 109
0.320918 -0.151247 1.456 39 41 49
0.389088 0.271486 0.947 1 5 0
-0.288341 0.131692 2.44 116 106 104
0.0118347 0.216088 2.136 112 102 100
-0.589798 0.549475 1.599 118 119 115
0.84437 -0.922823 2.489 11 17 28
-0.619149 0.475516 1.748 107 107 107
-0.181523 -0.584025 2.204 131 121 121
-0.284369 -0.146255 2.44 113 104 107
0.0692621 -0.40195 2.312 123 114 117
-0.141493 -0.473435 2.312 127 119 116
-0.536121 0.422365 1.865 115 116 105
0.0481148 -0.247543 2.383 116 106 104
-0.949916 0.190867 2.338 111 109 101
-0.56549 0.444134 1.842 113 111 103
-0.736542 0.170626 2.374 118 114 105
0.287648 0.0252032 1.387 12 33 62
-0.445454 0.301853 2.128 122 117 115
-0.76586 0.529597 1.659 105 109 102
0.291095 0.461145 1.205 16 13 0
-0.180445 -0.389745 2.329 118 110 107
0.0616576 -0.143393 2.459 114 105 100
-0.316499 0.506831 1.682 120 118 110
0.328604 0.0320597 1.299 79 74 70
-0.234484 -0.549743 2.196 123 118 116
-0.343226 0.572313 1.555 112 114 105
-0.0516503 0.00478034 2.519 129 119 119
1.21712 -0.683848 2.489 135 137 126
0.318309 0.364614 1.027 3 5 0
0.0858318 -0.655671 2.253 135 125 123
-0.144759 -0.224744 2.43 114 106 105
-0.133694 -0.377959 2.374 118 112 114
-0.952387 -0.0460641 2.392 122 123 112
0.146811 0.554679 1.599 38 39 28
0.188241 0.0782033 1.494 7 8 0
0.865997 -0.753603 2.695 4 8 1
-0.97788 -0.749521 1.953 130 141 139
-0.0624599 -0.477198 2.312 123 115 112
-0.724406 0.438139 1.842 112 114 105
0.376061 0.0128045 1.098 132 132 132
-0.0484358 0.501287 1.691 108 109 98
-0.584389 -0.28112 2.278 132 127 123
-0.776273 0.0978831 2.489 125 123 115
0.0914583 0.517779 1.682 39 40 29
-0.857083 -0.697962 2.044 134 135 126
0.13778 -0.723904 2.204 135 130 128
0.292707 0.203958 1.043 6 11 16
-0.603944 0.567252 1.555 107 115 104
0.179175 -0.717284 2.228 138 130 129
0.275791 -0.147901 1.494 11 12 3
0.388663 0.258871 0.969 4 4 0
0.505738 -0.0610051 1.108 119 126 130
-0.611962 -0.769094 2.004 143 141 133
0.0795386 -0.723448 2.181 137 129 128
-0.906991 -0.641415 2.044 129 129 123
-0.596729 0.173166 2.356 120 115 113
0.205967 0.329667 1.106 5 3 0
-0.880041 0.0699148 2.365 124 125 114
-0.64277 -0.32324 2.236 131 123 122
0.118685 0.286356 1.642 4 5 0
-0.873211 -0.513748 2.107 133 130 125
-0.0417418 -0.28683 2.42 115 108 102
-0.737159 0.0363959 2.44 128 124 117
-0.141102 0.588198 1.505 119 116 111
0.118654 0.456437 1.719 4 5 0
0.457005 0.0309792 0.944 192 200 199
-0.51804 0.183963 2.347 120 115 111
-0.871833 -0.699049 1.972 142 144 135
0.23688 -0.0141834 1.494 9 9 9
0.231965 -0.29006 1.463 9 13 6
0.829291 -0.662834 2.793 13 17 12
-0.687059 0.469714 1.769 114 114 114
-1.04506 -0.0260007 2.338 125 123 115
-0.837648 0.391689 1.923 112 113 107
0.0434976 0.170099 1.629 12 9 6
0.0241003 -0.375613 2.312 122 112 110
-0.487671 -0.443618 2.294 137 128 131
-0.448947 0.475898 1.739 117 117 113
0.346825 0.298024 0.958 2 10 0
0.0116128 0.535601 1.62 96 94 86
0.406295 0.103181 0.944 113 118 108
-0.0285885 -0.40195 2.312 122 114 111
0.422299 -0.102064 1.21 203 202 209
-0.209195 0.506722 1.7 117 118 109
-0.359482 0.512294 1.691 117 118 107
0.249194 0.156004 1.139 4 11 5
-0.908347 -0.0751712 2.329 123 124 115
0.0411719 0.521498 1.642 91 92 83
0.289335 0.214598 1.037 6 10 5
-1.20871 0.0310697 2.338 115 121 119
-0.119712 -0.590737 2.189 134 122 120
-0.808235 -0.119305 2.303 127 124 119
-0.76378 0.232646 2.228 117 114 111
0.459075 -0.803666 2.509 8 10 1
-0.0578481 0.383025 1.911 75 64 57
0.478035 -0.0943294 1.187 155 158 161
-0.688906 -0.19713 2.383 131 123 120
-0.96432 -0.0497687 2.383 131 129 119
0.20411 0.0906592 1.387 8 21 30
1.20637 -0.488671 2.615 127 123 116
0.243634 0.291723 1.066 0 7 1
0.397208 0.157828 1.041 65 66 57
0.425053 0.241704 0.878 84 86 77
0.551999 -0.0549938 1.096 102 113 111
0.284873 0.272694 1.027 5 12 4
-0.273847 -0.367758 2.383 119 114 112
-0.788042 0.462383 1.763 106 109 108
-0.356689 0.588198 1.505 110 110 110
0.305468 0.240291 1.046 5 6 0
1.09277 -0.885426 2.42 149 154 144
1.18915 -0.789545 2.392 142 143 139
-1.05784 0.230665 2.244 103 108 98
-0.758923 0.560744 1.551 106 114 103
-0.55364 -0.120525 2.402 134 126 123
1.10029 -0.890567 2.402 157 155 147
-0.822471 -0.187259 2.22 129 125 114
0.167086 -0.787726 2.212 139 134 130
0.253228 0.0968846 1.348 7 14 22
0.379486 0.175198 1.108 1 5 0
-0.766887 -0.472602 2.107 136 132 121
-0.841302 0.514946 1.664 97 106 99
0.0337793 0.400663 1.673 6 14 1
-0.0448349 0.424276 1.887 74 67 59
0.386239 -0.142259 1.308 193 196 199
0.0586377 -0.739144 2.196 136 131 129
-0.582937 -0.508806 2.189 135 130 126
-0.888297 -0.318614 2.204 128 126 116
-0.32295 -0.120525 2.402 113 106 100
0.410222 0.172963 0.856 87 98 94
-0.180185 0.34722 1.991 128 118 116
0.119906 -0.13062 1.491 2 9 1
0.120988 0.285484 1.637 4 5 0
-0.309058 -0.553912 2.143 129 120 115
0.113455 -0.234242 1.502 9 6 1
0.229514 0.218556 1.073 12 19 11
0.330891 0.0711903 1.244 77 73 64
-0.797779 -0.698887 2.037 137 138 132
0.789892 -0.873077 2.509 28 32 27
-0.957747 0.356009 2.004 100 105 95
0.61218 -0.849983 2.42 82 51 53
-0.288081 0.310363 2.092 125 118 112
0.00856508 -0.704728 2.189 136 128 127
0.0834984 0.0519492 1.583 7 7 1
-0.152956 -0.791479 2.107 136 133 128
-0.464393 0.565419 1.571 117 121 114
0.109577 0.592497 1.516 44 45 32
-0.245463 -0.687665 2.136 131 123 120
0.986895 -0.863205 2.402 153 153 147
-0.0974719 0.442928 1.837 94 90 81
-0.636655 -0.377027 2.253 135 129 131
-0.623716 -0.404019 2.22 146 138 135
-0.391626 0.244398 2.236 122 114 111
-0.833979 0.427056 1.859 106 115 106
1.20129 -0.580267 2.55 132 130 122
0.109577 -0.189551 1.516 4 8 1
0.332718 -0.73733 2.212 141 133 132
0.808793 -0.678857 3.117 13 15 4
0.299273 -0.0900311 1.502 23 27 22
-0.491697 -0.462992 2.261 141 134 128
-0.0743236 0.37524 1.935 93 85 82
-0.735023 -0.618659 2.114 139 132 124
0.37751 -0.166716 1.369 187 187 191
-0.778115 -0.583874 2.064 135 132 127
-0.0234816 0.396071 1.899 68 61 51
-1.17767 0.124738 2.383 113 120 114
-0.304196 -0.564812 2.158 127 123 116
0.91094 -0.59987 3.102 17 18 7
0.285031 0.299264 1.004 5 12 4
-0.0918771 -0.295189 2.392 119 109 107
-0.0885543 0.000681101 2.519 134 125 130
0.961237 -0.567482 2.53 133 134 123
-0.647479 0.129641 2.402 115 116 107
0.308853 -0.0439096 1.513 8 13 3
0.835919 -0.642753 2.996 7 11 4
0.193705 0.14009 1.48 9 13 6
0.971953 -0.460539 2.649 134 130 123
1.00242 -0.588067 2.53 138 140 129
-0.0783855 -0.448322 2.338 128 116 114
-0.0729409 0.408433 1.899 86 82 75
0.608792 -0.114986 1.201 151 138 127
0.856468 -0.511617 3.181 15 19 14
0.0941906 -0.0650361 1.547 10 11 5
0.250806 -0.786962 2.22 142 137 135
-0.786775 0.321813 2.078 117 115 105
0.400471 0.293598 0.934 2 6 0
-0.520457 -0.521154 2.196 139 134 132
-0.215959 -0.0547047 2.43 112 107 105
0.148705 -0.462992 2.261 128 121 115
-0.723702 -0.310597 2.173 126 124 114
-0.852901 -0.235265 2.196 124 125 116
0.904691 -0.760314 2.719 7 11 6
-0.435671 0.146365 2.42 117 109 106
-0.638192 0.33195 2.057 117 115 105
0.406847 0.321108 0.832 93 106 105
0.405995 0.251903 0.814 126 134 133
-0.0345489 -0.256476 2.469 113 107 111
0.141881 -0.730131 2.212 139 134 132
-0.321298 0.468318 1.753 120 115 111
0.0695018 -0.422218 2.32 123 113 111
0.404071 0.194454 0.918 85 87 69
-0.628358 0.456607 1.774 103 107 102
-1.0528 -0.365993 2.166 128 125 120
0.360748 -0.137835 1.348 162 162 166
-0.258403 -0.168685 2.42 115 106 101
0.1922 0.0221806 1.487 30 12 3
-0.444617 0.377216 1.929 115 112 109
-0.698538 -0.177291 2.43 130 126 119
0.632164 -0.788263 2.499 41 35 37
-0.742096 0.506791 1.691 105 113 110
1.23098 -0.677094 2.509 133 134 130
-0.567143 -0.222983 2.329 127 120 114
0.405967 0.192133 0.88 89 94 80
0.29441 -0.179688 1.366 53 53 53
-0.601518 0.446485 1.815 105 105 105
-0.672576 0.481557 1.739 109 110 106
-0.939507 -0.189767 2.294 127 125 113
-1.04967 -0.635139 2.024 121 133 125
-0.587611 -0.240998 2.32 132 124 123
0.408317 0.0251246 1.018 159 163 158
0.326382 -0.686269 2.294 136 128 125
-0.431524 0.450471 1.784 117 117 111
-0.241634 -0.503286 2.196 125 117 114
-0.245293 0.591325 1.513 114 121 115
0.0811261 0.0469154 1.587 9 9 3
0.514377 -0.1378 1.267 117 125 126
-0.0669807 0.456851 1.821 91 88 83
-1.135 0.109226 2.383 120 121 110
0.425758 -0.0278025 1.079 189 195 197
-0.283591 0.397948 1.923 122 118 119
0.105325 -0.65924 2.278 137 128 123
-0.365581 0.578806 1.532 111 113 104
0.314566 0.291907 0.974 2 9 1
0.317636 0.0986372 1.342 3 7 2
0.28099 0.292056 1.013 4 12 1
0.781888 -0.590331 3.215 23 24 13
-0.0237042 0.377989 1.917 67 60 52
-0.3989 0.450077 1.794 118 119 110
-0.533373 -0.349829 2.22 136 128 125
0.312951 0.307754 0.969 1 8 0
0.182054 0.470744 1.71 16 23 17
-0.840884 0.325408 2.037 113 110 105
-1.05212 -0.423491 2.136 126 127 121
0.345138 -0.0580427 1.237 162 161 163
-0.878874 0.498422 1.7 101 105 100
-0.978663 -0.65772 1.899 127 134 126
-0.59998 0.249922 2.253 120 113 107
0.186194 0.163676 1.128 15 20 8
-0.254634 0.0738762 2.499 115 105 103
0.288441 0.201141 1.046 10 14 9
-0.298272 -0.549282 2.166 129 120 113
-0.531994 -0.680583 2.114 93 94 88
-0.637332 -0.634514 2.121 127 125 115
0.598003 -0.831388 3.026 24 25 16
-1.01027 -0.364641 2.158 131 128 123
0.153118 0.481602 1.729 13 19 19
0.0767252 0.102169 1.603 6 7 3
-0.119631 0.141368 2.402 111 102 95
-0.999383 -0.0532414 2.365 128 130 117
-0.504677 -0.142299 2.374 132 124 121
-0.18912 -0.733571 2.128 135 131 122
-0.449749 -0.105282 2.411 106 103 98
-0.985808 -0.41534 2.166 127 123 114
-0.282586 -0.570832 2.181 129 122 116
0.409877 0.313697 0.806 102 114 104
0.24475 0.0252032 1.387 20 35 59
0.872768 -0.493592 3.165 15 16 12
-0.734412 0.51078 1.686 105 114 107
-0.694562 -0.354481 2.204 132 127 123
0.151323 0.586459 1.539 42 41 24
-0.194182 -0.405712 2.312 122 115 109
0.279594 -0.180544 1.463 36 38 29
-0.592998 0.428694 1.853 111 108 103
0.600001 -0.129456 1.227 114 115 111
0.14903 -0.188852 1.491 3 7 0
-0.89701 -0.648068 2.044 136 136 132
0.179125 0.542191 1.563 37 36 21
-0.252699 0.584754 1.528 121 119 109
1.01454 -0.469176 2.489 129 125 126
-0.113642 0.325194 2.078 112 107 103
0.00142804 -0.717258 2.173 134 129 127
-1.02661 -0.612083 2.024 125 133 118
-0.56063 -0.564812 2.158 138 136 128
0.00850248 -0.720794 2.173 137 128 131
-0.507998 0.514733 1.646 111 112 106
-0.764488 -0.729499 1.985 132 133 127
-0.823508 0.548241 1.603 104 114 102
0.0974529 0.515046 1.691 37 38 29
0.189098 0.0789614 1.463 9 10 1
0.990488 -0.715091 2.43 148 156 145
0.173436 0.419847 1.432 18 24 7
0.152675 0.356767 1.724 2 6 1
-0.924298 -0.16492 2.312 124 125 114
0.583842 -0.789641 3.055 27 28 17
-0.228884 0.457556 1.789 116 110 112
0.895347 -0.741449 2.731 6 11 0
-0.460727 -0.772697 2.057 146 141 137
0.27482 0.218163 1.046 4 6 0
-0.0136619 0.425419 1.826 61 54 46
-0.503679 0.5833 1.505 111 112 103
1.13377 -0.732638 2.449 147 148 139
0.338274 0.0103743 1.234 103 100 95
0.266278 -0.0757168 1.509 2 9 3
-0.238926 -0.609132 2.204 130 123 117
-1.01829 -0.0675911 2.329 121 125 118
-0.59665 0.125732 2.402 121 119 109
-0.427663 -0.606222 2.143 139 129 127
0.224073 0.296245 1.089 5 7 0
0.453075 -0.0182825 1.037 202 208 208
-0.128989 0.400423 1.905 115 111 112
-1.0486 -0.39698 2.143 122 123 119
-0.43042 0.578806 1.532 117 118 114
0.385924 0.0887596 1.066 87 88 84
-0.4814 -0.531791 2.181 139 137 129
-0.316144 -0.0191937 2.44 120 115 111
-0.646346 -0.700352 2.051 140 138 128
0.943022 -0.766498 2.43 146 146 140
-0.0653775 -0.278953 2.42 129 124 120
-1.04169 0.27518 2.136 100 105 93
1.19396 -0.5661 2.561 127 132 122
0.0635195 0.00823864 1.599 99 91 88
-0.924762 0.433107 1.859 101 107 105
-0.669527 -0.431365 2.158 135 131 124
0.203237 0.0168511 1.445 47 19 2
-0.116527 0.529515 1.642 120 120 116
0.393915 -0.0195343 1.108 175 175 175
0.342726 0.186951 1.072 10 12 3
0.276378 0.489791 1.302 5 7 0
0.541774 -0.825242 2.44 25 25 25
-0.0846402 0.306747 2.114 114 107 99
-0.702931 -0.530967 2.121 135 132 129
-0.713328 -0.0191937 2.44 131 123 120
-0.0234816 0.392981 1.899 66 63 49
-0.373517 -0.519232 2.173 132 124 123
0.197674 -0.338429 1.456 16 16 16
0.195781 0.298386 1.152 4 9 0
-0.0257752 0.435141 1.842 63 61 49
0.405769 0.203619 1.05 6 14 3
-0.683721 -0.123915 2.392 130 123 117
0.302519 0.28582 0.997 4 10 8
1.1095 -0.534544 2.53 120 116 107
0.38927 0.143311 1.085 54 56 47
0.220639 0.455697 1.406 9 13 8
0.401696 0.248088 0.97 0 7 0
-0.728732 0.434724 1.853 111 112 106
-0.0462285 0.112251 2.449 116 104 102
-0.37161 0.416384 1.893 123 115 112
0.658789 -0.834491 2.967 26 21 17
-0.746052 -0.348369 2.166 135 128 120
-0.957421 -0.628552 2.024 124 126 117
0.0367862 0.409264 1.686 9 16 8
-1.11917 -0.122329 2.158 115 122 116
-0.842418 -0.130038 2.294 127 128 117
0.0356298 0.167859 1.633 21 13 12
-0.836551 0.285607 2.136 113 109 102
-0.860792 0.0622176 2.365 127 125 115
0.398538 0.251245 0.97 0 8 0
0.884373 -0.495461 2.499 131 129 121
-0.797371 0.270329 2.181 114 111 108
0.122588 0.508289 1.696 32 34 23
-0.746871 0.51624 1.677 99 114 113
-0.0769533 -0.690479 2.189 136 126 126
-0.249269 0.463379 1.789 121 115 117
-0.39733 0.34722 1.991 121 114 106
-0.797666 0.427056 1.859 108 106 98
0.206821 0.127914 1.375 5 14 26
-0.910319 -0.638089 2.044 126 127 121
-0.241461 0.0735806 2.489 113 101 101
0.57997 -0.114699 1.198 124 117 111
-0.422876 -0.739106 2.085 140 136 137
-0.0535597 -0.192314 2.42 115 112 109
0.417194 0.122995 0.898 99 103 96
0.0850622 0.517654 1.664 41 40 25
0.702564 -0.821562 2.489 5 26 57
1.14398 -0.830292 2.42 149 154 142
0.170072 -0.192795 1.484 2 6 0
-0.687257 -0.760301 2.024 137 137 133
-0.210693 -0.684189 2.136 132 127 125
-0.934218 -0.0645407 2.356 129 130 121
0.0787407 0.0858698 1.591 6 7 3
0.0237204 0.477351 1.734 72 72 66
1.16141 -0.459708 2.572 122 127 115
0.365469 -0.0168625 1.173 130 131 127
-0.419312 -0.621622 2.136 140 129 124
-0.168235 0.425625 1.893 122 117 113
-0.280397 -0.0112523 2.44 136 128 125
0.473476 -0.0324878 1.06 174 186 178
-0.298393 -0.407881 2.303 121 116 112
0.0963825 0.0184604 1.583 7 7 1
0.885692 -0.539294 3.102 7 14 8
0.483803 0.00657631 0.97 119 118 125
0.178321 -0.0192881 1.513 6 10 3
-0.11022 -0.738742 2.143 130 129 131
-0.676599 0.545505 1.595 106 112 110
-0.939731 -0.724095 1.953 126 127 118
-0.174973 0.576729 1.567 116 118 107
-0.130322 -0.38327 2.383 118 112 114
-0.474944 -0.618146 2.136 138 135 132
0.39444 0.0786737 1.025 87 91 84
0.391349 0.107726 1.048 71 72 66
0.258262 -0.851279 2.286 144 138 140
0.159786 0.351087 1.71 0 6 0
-0.0381175 0.433107 1.859 68 66 54
-0.8417 0.292986 2.114 118 114 107
-0.138742 -0.457966 2.329 125 117 116
-0.21954 -0.356125 2.383 121 111 109
-0.77004 0.34722 1.991 116 112 105
0.217355 -0.153429 1.477 3 7 0
-0.602746 0.366018 1.953 117 115 105
0.202831 -0.208541 1.459 7 8 0
0.403014 0.142044 1.013 69 67 59
-0.0339442 -0.671288 2.173 135 126 129
0.396117 -0.120641 1.239 201 201 205
-0.241461 0.105984 2.489 107 97 95
-0.589798 0.552077 1.599 117 118 112
-0.471022 0.45821 1.758 112 113 100
0.946902 -0.674356 2.44 141 141 135
0.38636 0.0773957 1.053 101 99 89
-0.573692 -0.0236295 2.489 128 122 124
0.291585 0.208249 1.039 5 11 11
-0.647116 -0.157519 2.43 131 124 116
-0.0304062 -0.155398 2.459 111 103 100
0.217081 -0.310635 1.459 11 13 2
-0.259307 -0.365255 2.392 118 113 109
-0.463246 -0.121428 2.42 121 114 108
1.04161 -0.882133 2.411 152 154 145
0.0881884 -0.52685 2.22 129 122 116
0.207581 -0.305887 1.459 7 11 6
-0.835848 -0.768772 1.978 141 140 140
0.188514 0.34997 1.31 5 13 2
0.224206 -0.19667 1.459 4 12 1
-0.481237 0.572446 1.535 115 116 112
0.252207 -0.0586825 1.513 4 8 3
0.305545 0.156333 1.128 6 7 1
-0.356012 -0.274029 2.312 118 109 102
-0.859579 0.362056 1.966 118 116 106
1.21062 -0.471649 2.615 122 122 116
-0.862529 0.114006 2.402 111 108 105
0.455835 0.0637829 0.908 175 183 180
-0.0844538 0.00478034 2.519 133 122 126
-0.692259 0.471171 1.753 112 113 109
-0.693886 0.367142 1.959 112 113 104
0.280589 -0.695036 2.286 135 125 123
0.217676 -0.178163 1.463 6 7 3
-0.974439 -0.278148 2.196 134 133 133
0.503913 -0.0571918 1.104 116 129 128
1.13674 -0.877346 2.356 145 148 149
-0.526145 0.235424 2.22 116 112 103
-0.678576 -0.0959401 2.374 125 121 114
0.413937 0.139483 0.92 97 98 87
0.370242 -0.20654 1.445 132 130 137
0.631994 -0.592414 3.198 60 61 52
0.195122 0.367167 1.633 10 12 0
-0.312387 0.0281163 2.411 130 121 116
0.0813305 0.0159647 1.591 8 9 3
-0.202483 -0.237976 2.365 115 107 104
0.414598 0.0885028 0.935 143 149 149
-0.280989 -0.191599 2.411 115 107 106
-0.369736 -0.555979 2.151 138 127 120
0.106615 -0.213233 1.509 6 7 1
-0.619406 -0.64747 2.107 132 128 119
-0.214534 0.132718 2.459 109 99 97
0.450195 -0.6847 2.649 30 28 20
0.320953 0.228978 1.041 2 6 0
0.185595 -0.198557 1.473 5 13 0
0.710667 -0.874218 2.489 7 26 44
0.152397 0.522155 1.603 36 34 22
0.408853 0.28223 0.912 83 81 69
-0.926548 0.184668 2.356 110 107 104
-0.2066 0.279044 2.166 125 120 118
0.410257 0.169869 0.939 92 94 78
0.30017 0.0450249 1.372 8 18 36
0.287889 0.22624 1.044 4 8 1
-0.259873 0.560847 1.587 111 111 105
-0.519248 -0.758554 2.037 145 142 139
0.196584 0.154394 1.502 9 9 5
-0.835231 -0.634256 2.064 127 124 121
0.196853 0.131728 1.416 10 19 31
-0.233381 -0.693191 2.121 132 130 120
-0.283443 -0.433949 2.244 125 115 113
-0.147082 0.0930787 2.469 108 100 97
-1.04887 0.0158509 2.338 125 121 112
-0.81383 0.0199583 2.374 127 125 117
-0.606818 0.580451 1.543 108 115 109
0.529057 -0.11482 1.22 108 110 116
0.248032 0.21098 1.07 9 16 8
-1.01032 0.296426 2.114 102 107 97
-0.4769 0.424031 1.859 113 113 109
-1.13402 0.269338 2.173 98 107 87
-0.148103 -0.259263 2.42 116 107 102
-0.786641 -0.453531 2.114 135 131 124
-0.564143 -0.571836 2.158 134 132 124
0.467181 -0.219914 1.425 176 182 182
0.464549 0.0249923 0.95 202 207 214
0.223925 -0.0191861 1.505 15 11 0
-0.466035 -0.655045 2.143 140 135 133
-0.456913 -0.308732 2.347 111 103 102
-0.955314 -0.474224 2.099 136 132 125
-1.05939 -0.580863 2.03 119 129 117
0.377431 0.17963 1.102 1 5 0
-0.469567 -0.244585 2.392 121 116 112
-0.202976 -0.692016 2.128 133 128 124
0.290798 0.175723 1.1 11 18 10
0.427185 -0.062712 1.139 197 200 203
0.416116 0.285007 0.902 74 72 60
0.266955 -0.00672833 1.459 13 33 55
0.0332415 -0.102158 2.43 111 103 100
-0.727122 -0.114383 2.356 129 126 121
0.180478 0.326182 1.362 13 14 3
0.0285685 0.576442 1.539 94 91 88
0.0919204 0.0964681 1.595 4 8 3
-0.382149 -0.756071 2.085 141 138 133
0.364329 0.342651 0.931 62 21 0
-0.784775 0.530329 1.62 101 114 109
0.333595 0.103164 1.239 27 27 27
0.376589 -0.0182913 1.143 166 169 168
-1.035 0.273612 2.151 105 107 94
0.391779 0.238769 0.997 3 4 0
-0.583796 0.457894 1.779 110 111 100
-0.162634 0.567975 1.571 118 115 112
-0.661598 0.587026 1.502 110 121 117
0.289205 0.242359 1.055 4 9 0
-0.726361 0.475898 1.739 115 119 114
-0.77252 -0.208813 2.181 127 124 119
-1.21497 0.0545203 2.365 117 123 121
-0.508099 -0.414208 2.236 138 130 127
-1.0544 0.311402 2.099 103 104 91
-0.748251 0.544966 1.571 103 113 116
-0.810005 -0.396077 2.196 138 138 132
0.425028 -0.830665 2.365 13 16 17
-0.708976 -0.638558 2.078 129 130 121
-0.630414 0.532589 1.603 115 119 114
0.219915 0.0387458 1.387 10 16 27
-0.870688 0.269107 2.143 115 115 109
0.372726 -0.80355 2.236 134 129 125
0.109017 -0.0472912 1.543 8 9 3
0.926072 -0.481345 2.743 126 117 108
0.818754 -0.679736 2.884 7 11 6
-0.316243 0.283602 2.121 119 114 110
0.148372 0.208188 1.616 2 6 0
-0.28829 0.553099 1.587 111 112 103
-0.84861 -0.0495807 2.374 131 124 116
0.796326 -0.743281 2.805 3 7 0
0.479216 -0.0854355 1.171 157 157 159
0.412824 0.160846 0.931 92 97 85
0.732685 -0.781316 2.626 12 9 4
0.409898 0.215848 0.967 6 8 0
-0.655409 0.57084 1.551 105 113 100
-0.312666 -0.517938 2.244 125 117 114
0.403588 0.191465 0.897 96 99 81
0.120275 0.314563 1.664 0 4 0
-0.717845 -0.316646 2.166 128 125 122
-0.395529 -0.585883 2.158 138 130 127
0.399157 0.131406 1.02 73 78 66
-0.712165 -0.40047 2.181 139 137 127
-0.0453555 0.252574 2.212 110 101 96
0.447411 -0.00301113 1.009 205 208 209
-0.116521 -0.571184 2.196 134 120 116
-0.450099 0.203794 2.312 122 112 110
-0.220186 -0.631936 2.196 127 121 123
-0.793218 0.436107 1.821 107 111 104
0.243872 -0.306725 1.463 28 28 24
-0.574035 0.447441 1.831 110 108 100
-0.243311 0.587563 1.516 121 125 118
0.0719057 0.37616 1.673 4 8 1
0.306895 0.130331 1.229 4 8 3
0.155861 0.497183 1.668 29 31 20
-0.930194 0.369196 1.953 103 108 94
-0.328573 0.427909 1.876 125 118 112
-0.156682 0.479596 1.763 125 122 119
-1.17438 -0.0663432 2.286 122 123 114
-1.01461 0.00443686 2.338 123 123 119
-0.663569 -0.52984 2.173 134 132 122
0.171131 -0.342225 1.452 15 18 17
-0.827603 -0.445412 2.158 136 129 121
0.326867 0.0205995 1.381 14 17 18
-0.208904 -0.0469884 2.44 114 106 103
0.304017 0.0186046 1.4 8 26 49
0.0263814 -0.733226 2.189 139 128 132
-0.118658 -0.801765 2.107 139 132 122
-0.950032 -0.262051 2.181 126 126 120
0.88155 -0.738942 2.392 145 145 139
0.151256 0.103993 1.591 5 6 0
0.766239 -0.787304 2.953 2 6 0
0.0532409 0.0943433 1.603 12 11 11
0.241793 0.466086 1.396 11 12 3
-0.477267 -0.470737 2.228 136 132 125
1.25776 -0.64159 2.53 132 133 122
-0.351738 0.534859 1.642 115 116 105
-0.0304062 -0.267442 2.459 114 109 107
0.088876 0.0288374 1.587 8 9 3
0.425582 0.0117083 1.004 185 193 192
-0.916775 0.327644 2.051 117 110 100
-0.724897 -0.344844 2.166 129 124 122
0.255485 0.520638 1.384 5 5 0
-0.62793 -0.0228036 2.402 128 123 121
-0.80643 -0.435387 2.196 130 124 126
0.788511 -0.733472 2.911 6 7 1
0.468074 -0.00299621 1.004 192 197 202
-0.408599 0.57017 1.563 119 122 121
-0.625315 0.136887 2.392 122 120 110
1.08007 -0.528121 2.519 123 119 110
-1.1434 -0.00695037 2.329 122 123 114
-0.339162 0.30015 2.092 119 114 110
0.0526047 -0.211217 2.411 114 105 108
-0.689497 -0.0112523 2.44 128 124 117
0.312949 -0.0658942 1.509 13 14 8
0.5274 -0.812851 2.857 25 26 17
-0.710977 -0.0538492 2.392 132 124 123
0.965356 -0.571599 2.53 134 135 124
0.963329 -0.46485 2.649 128 125 120
-0.0940664 -0.146795 2.449 107 99 96
-0.747888 -0.475471 2.151 133 130 125
-0.15654 0.553099 1.587 119 114 110
0.275047 0.252132 1.06 2 6 1
-0.961213 0.103757 2.347 120 121 110
0.440131 -0.0944883 1.189 208 210 216
-0.843968 -0.441436 2.173 133 129 120
-0.379983 -0.791703 2.037 151 144 138
-0.579556 0.221739 2.303 114 110 103
0.237584 0.138042 1.322 46 18 0
0.870665 -0.788433 2.449 81 93 83
0.0847702 -0.0579296 1.559 21 12 15
-0.696027 -0.0192645 2.449 129 124 120
0.926476 -0.652932 2.449 141 139 129
-0.894347 -0.462971 2.158 130 131 125
-0.011754 0.565419 1.571 101 102 93
-0.646121 0.482942 1.744 113 113 109
-0.598445 0.402252 1.899 119 115 108
-0.469898 -0.161616 2.374 127 123 116
-0.0973704 0.49567 1.729 118 115 110
0.358238 -0.00933725 1.187 116 117 106
0.462577 -0.0943294 1.187 201 203 209
0.494922 -0.146393 1.27 174 173 180
0.367077 -0.127359 1.308 175 174 176
-0.879276 -0.682316 2.057 134 134 128
0.830149 -0.645302 3.102 16 18 7
0.135376 0.0830714 1.587 3 7 2
-0.631248 -0.733951 2.024 143 143 137
-0.0518444 0.457036 1.81 91 86 82
-0.504104 0.505529 1.696 114 115 109
0.0861879 -0.152356 1.539 12 8 11
0.402422 0.260438 0.935 4 9 0
0.17111 0.572314 1.583 42 38 27
0.141749 -0.164588 1.491 6 8 0
0.867866 -0.837678 2.43 72 68 59
0.358238 -0.0151322 1.187 116 116 110
0.416732 0.298883 0.913 68 65 51
-0.340411 0.283602 2.121 118 113 109
-0.156897 0.412823 1.905 116 111 109
0.119683 -0.353858 2.269 117 110 104
-0.832432 -0.0109894 2.383 128 124 117
-1.08494 -0.17687 2.181 123 124 115
0.203828 -0.786962 2.22 140 134 136
-0.527697 -0.221734 2.356 135 127 124
0.338525 0.294266 0.961 5 12 6
0.0439016 -0.0186037 2.365 151 141 139
0.169233 -0.371601 1.456 92 87 83
0.954898 -0.743653 2.42 148 144 137
-0.468916 -0.326702 2.312 130 125 121
-0.603465 -0.413362 2.212 139 136 133
1.25224 -0.46916 2.649 114 116 107
-0.271433 -0.385955 2.329 121 111 109
-0.247816 -0.39743 2.286 122 115 109
0.270777 0.30675 1.018 0 8 1
-0.034409 -0.159399 2.459 111 103 100
0.358223 0.334536 0.951 42 17 0
0.269186 0.108093 1.351 5 11 11
0.25462 -0.166231 1.484 4 8 3
0.431331 0.0892851 0.897 155 158 159
0.436059 -0.0859462 1.178 206 208 214
0.342529 0.207036 1.05 13 21 8
0.259337 0.0511575 1.357 13 28 52
0.009419 0.501189 1.7 103 101 93
-0.0514646 0.394223 1.905 72 63 56
0.442478 -0.797447 2.44 8 12 5
0.768442 -0.547852 3.181 20 23 22
-1.07486 0.248074 2.204 100 105 95
-0.0876262 0.346387 2.024 109 101 98
-0.445524 0.548101 1.595 116 116 116
-0.893736 0.362324 1.985 111 109 99
-0.952684 0.313988 2.071 108 109 103
-0.566606 -0.421766 2.181 135 131 124
0.239657 -0.650395 2.286 134 129 125
-0.827146 -0.33427 2.166 129 125 116
0.320942 0.351655 1.009 3 4 0
-0.124004 0.137974 2.411 112 103 96
1.29967 -0.482093 2.649 124 123 108
0.395667 0.327124 0.837 132 146 137
-0.883322 0.488581 1.714 96 108 98
-0.858993 -0.747185 1.972 137 138 129
-0.462772 0.198476 2.338 121 116 112
-0.0177619 -0.323873 2.374 118 110 109
-1.01643 0.357324 2.03 97 110 97
-0.967136 -0.287374 2.212 129 130 121
0.152469 -0.455947 2.158 125 117 116
0.265163 0.226907 1.055 6 6 0
0.258202 -0.62634 2.253 135 126 119
0.39407 0.106789 1.007 89 90 79
0.539465 -0.131249 1.244 109 109 111
1.12524 -0.869678 2.356 152 154 145
-0.69963 0.466579 1.779 113 117 110
0.62231 -0.696075 3.149 42 43 32
-0.342037 -0.275629 2.294 117 110 102
0.171542 0.555682 1.587 35 33 21
0.267373 0.310224 1.024 4 6 0
-0.376667 -0.791703 2.037 149 142 136
-1.11948 0.0588132 2.383 118 119 108
0.228055 0.156181 1.154 8 9 3
-0.138861 0.233235 2.269 117 107 107
-0.933468 -0.626924 2.051 124 125 116
0.412402 -0.0676436 1.16 196 202 204
-0.824777 -0.706395 2.03 132 134 125
0.50045 -0.0378759 1.066 124 130 130
0.663887 -0.218206 1.429 210 217 225
-0.586304 0.314818 2.099 115 112 107
0.415904 -0.0672937 1.154 198 201 202
0.218158 -0.0439966 1.516 4 8 1
-0.211387 0.125222 2.469 111 102 97
-0.397303 -0.2179 2.356 129 122 116
0.318645 0.235301 1.039 4 9 0
0.861634 -0.646177 2.78 22 24 13
-0.60343 -0.372689 2.294 135 130 126
0.390004 0.188662 1.092 2 6 1
0.21351 0.0143993 1.435 25 22 41
0.512524 -0.807831 2.615 10 14 9
-0.906989 -0.0109064 2.365 124 122 112
1.2352 -0.499328 2.604 129 125 114
0.404127 0.254358 0.805 107 115 112
0.223496 -0.723498 2.236 139 130 125
0.392009 0.13643 1.059 61 62 49
-1.0655 -0.470387 2.128 120 124 117
0.347834 0.338109 0.948 53 26 0
0.203797 -0.542438 2.181 131 121 119
0.331552 0.0593113 1.294 71 68 65
-0.591159 -0.683713 2.092 132 127 123
0.666315 -0.197393 1.381 206 211 218
0.239994 0.290147 1.073 1 8 2
0.733862 -0.80453 2.499 10 25 38
0.0895691 -0.746671 2.166 139 129 127
0.320986 0.264953 1.004 6 10 3
0.249145 -0.300197 1.466 34 37 36
-0.743284 -0.469622 2.189 134 132 122
-1.07742 -0.239873 2.173 127 128 119
1.25448 -0.743633 2.459 140 141 135
-0.228763 -0.0231644 2.44 124 117 111
0.33516 -0.651484 2.303 134 125 128
0.345182 -0.0899983 1.322 134 128 132
0.216325 -0.174231 1.47 5 6 2
-0.801781 -0.506915 2.136 136 134 126
0.166775 -0.0342186 1.52 4 8 3
1.18239 -0.808481 2.402 147 148 142
0.58496 -0.102411 1.169 142 126 119
0.330008 0.0281319 1.313 72 73 67
-0.607656 0.515983 1.633 114 115 111
0.33507 0.107024 1.237 16 16 16
-0.107048 -0.429805 2.383 121 113 112
0.299463 0.209535 1.037 9 9 9
-0.767603 0.301853 2.128 112 112 106
-0.120531 0.42654 1.87 100 95 91
0.157426 0.069628 1.575 3 4 0
-0.969902 0.423152 1.882 102 106 101
0.225382 0.150713 1.339 33 15 4
-0.858895 -0.695307 2.017 134 134 130
0.578349 -0.661948 3.133 56 57 48
-0.538272 -0.637317 2.085 118 116 106
-0.149234 -0.508706 2.204 126 120 122
0.897125 -0.898537 2.392 154 153 153
0.203192 0.0578265 1.412 10 19 29
-0.354221 0.283602 2.121 115 110 106
-0.849395 -0.583528 2.099 134 131 126
0.338664 -0.0646779 1.289 142 134 133
-0.760527 -0.612816 2.071 143 143 137
0.340416 -0.0174376 1.213 162 161 161
0.405286 0.17427 0.914 89 94 82
0.416564 0.0485367 0.957 171 174 173
0.508604 -0.188028 1.362 210 209 216
0.409353 0.328663 0.93 80 82 66
0.352598 -0.0845522 1.242 179 178 185
0.373143 0.165567 1.116 1 5 0
0.262197 0.278801 1.05 4 9 0
0.596469 -0.112185 1.192 154 137 123
0.966755 -0.723 2.43 143 143 137
0.186078 0.123761 1.516 12 10 0
0.424072 0.187947 0.842 91 96 86
0.0797104 0.446543 1.724 0 7 0
0.998062 -0.593709 2.519 140 141 130
-1.13539 0.152457 2.392 92 92 88
0.390283 -0.105495 1.227 189 189 193
0.0165733 -0.368088 2.312 122 112 110
-0.350594 -0.333031 2.253 118 114 107
-0.419312 -0.611194 2.136 138 131 125
-0.773747 -0.458887 2.107 135 131 122
-0.589721 -0.675754 2.099 132 130 122
0.368302 0.118416 1.152 28 33 23
-0.98015 -0.592811 2.037 131 134 133
1.06292 -0.656896 2.479 134 139 129
0.0233237 0.344511 1.705 34 29 25
0.895791 -0.54939 3.102 11 16 6
0.540913 -0.155999 1.281 185 185 185
-0.839318 -0.305047 2.236 128 121 115
-0.6907 0.501189 1.7 101 107 90
-0.702474 -0.634764 2.099 145 143 133
0.00548852 0.110097 2.402 118 109 104
-1.14231 0.101087 2.374 118 118 114
0.256334 0.192394 1.083 10 14 7
-0.433058 -0.752678 2.085 134 130 121
0.106151 0.574547 1.575 42 43 30
-0.999913 -0.580863 2.03 129 130 124
0.0777509 -0.0251406 1.571 20 8 19
-0.566928 -0.521154 2.196 137 130 122
0.30865 0.408413 1.081 29 19 7
-0.088742 0.441136 1.842 91 87 78
-1.06754 -0.245201 2.189 125 125 121
0.527182 -0.721022 3.102 42 43 34
1.1408 -0.825814 2.43 153 155 139
0.250163 0.152161 1.152 6 14 3
0.923027 -0.459765 2.695 132 128 117
0.0577302 0.0364929 1.583 66 54 52
0.337235 -0.115482 1.396 99 95 96
-0.554724 -0.288534 2.278 134 127 119
0.314075 0.168563 1.1 20 24 19
-0.863692 0.52832 1.655 98 110 100
0.138931 -0.820691 2.166 141 136 132
-0.248786 -0.41148 2.261 122 114 113
0.401941 0.118166 0.941 96 100 93
0.247446 0.552462 1.456 28 22 7
0.385494 0.047944 1.046 95 95 89
-0.525925 -0.405502 2.189 137 129 126
0.0168242 -0.49588 2.347 127 120 114
-0.774258 -0.214427 2.166 126 127 116
0.187676 0.113811 1.452 7 13 11
0.107498 0.568865 1.595 46 45 30
-1.16919 -0.0371267 2.32 117 118 112
-0.900779 -0.66345 2.03 134 134 128
-0.910098 0.327644 2.051 114 110 99
-1.07581 -0.254842 2.121 124 125 119
0.37975 0.339248 0.879 72 64 52
-0.669543 0.408433 1.899 109 111 98
-0.58012 0.568711 1.559 113 120 112
0.314824 0.333873 1 0 4 0
0.397087 0.0949348 0.986 91 94 93
0.503941 -0.021595 1.034 123 131 130
0.290262 0.0599906 1.357 10 26 45
-0.884804 0.0235506 2.347 126 127 116
0.380902 -0.106785 1.242 189 189 191
0.127187 -0.120914 1.491 6 7 3
0.41533 -0.0552008 1.137 177 180 181
-0.726366 0.26678 2.181 116 112 101
-1.13071 0.0894973 2.374 123 119 112
-0.134478 -0.11138 2.459 117 105 103
-0.952336 -0.545706 2.085 129 130 126
-0.810986 -0.248764 2.189 124 122 114
-0.525125 -0.605442 2.128 140 136 127
0.114511 -0.265244 1.484 22 16 20
0.118309 0.443953 1.714 1 4 3
-0.675934 -0.197874 2.392 130 123 117
-0.458665 -0.773822 2.078 134 130 121
-0.12496 -0.00748754 2.509 141 136 134
0.211241 0.269613 1.096 2 9 1
-0.247189 0.499738 1.714 113 111 103
-0.848898 0.437305 1.826 109 111 100
-0.551713 0.207556 2.312 123 116 110
0.036202 -0.465045 2.365 125 115 113
0.172111 0.167983 1.12 14 15 6
-0.540605 -0.268464 2.329 135 125 123
0.213234 0.483782 1.449 20 25 11
-0.0354778 0.537807 1.603 99 97 85
-0.670724 -0.228316 2.269 129 126 121
0.219421 0.369665 1.158 1 5 0
0.402439 -0.168546 1.348 202 204 212
0.727988 -0.92315 2.479 10 29 58
-0.667138 0.587306 1.509 109 117 114
-0.660032 -0.540449 2.173 138 131 123
-0.188449 0.34072 2.01 130 122 121
-0.432889 -0.162228 2.383 132 118 110
-0.796933 0.187782 2.347 118 116 108
-0.579254 -0.600766 2.136 118 120 109
0.368972 0.269352 0.967 2 10 0
0.0067652 0.490043 1.729 82 82 76
-0.624542 0.221739 2.303 117 110 104
-0.795116 0.345016 1.997 119 114 110
-0.870437 -0.342456 2.151 132 129 126
0.886479 -0.499456 2.54 133 130 125
0.398538 0.0839232 0.97 133 130 127
-1.09157 -0.296452 2.173 127 124 119
0.187985 0.218461 1.595 4 5 0
0.233706 -0.222787 1.459 12 14 5
-1.13037 -0.355419 2.166 121 129 116
-0.32848 0.530804 1.646 122 118 111
-0.70237 -0.583983 2.151 135 133 125
0.257371 0.323555 1.024 9 13 6
-0.853034 -0.300033 2.253 130 131 118
0.224236 0.0539557 1.372 3 11 12
0.0317367 -0.350485 2.32 120 112 111
0.4683 -0.0324878 1.06 190 196 194
-0.135778 -0.140594 2.411 110 100 98
-0.754963 -0.277413 2.278 133 128 124
-0.504317 -0.744254 2.071 134 130 121
-0.898232 0.433551 1.848 102 111 104
-0.349326 0.391689 1.923 127 122 118
