ply
format ascii 1.0
comment Created by Open3D
element vertex 1348
property double x
property double y
property double z
property uchar red
property uchar green
property uchar blue
end_header
0.0529544 0.242408 1.39 153 145 144
0.377789 0.0979586 1.053 39 22 6
0.368317 -0.35039 1.036 139 141 132
0.308096 -0.222903 1.055 20 19 19
0.229203 0.246505 1.375 114 107 99
0.132672 0.197916 1.445 135 131 124
-0.169613 0.0559766 0.324 6 17 15
0.138471 0.205457 1.432 138 131 125
-0.00938404 0.06304 1.603 146 136 136
-0.0871924 -0.214263 1.941 155 150 148
-0.382434 -0.75977 2.204 158 150 149
0.395899 0.195195 1.079 25 19 6
-0.56909 0.280712 1.412 131 138 130
-0.235025 -0.113101 1.837 153 143 143
-1.1369 -0.433109 2.278 131 130 113
0.305797 -0.251185 1.096 5 12 16
-0.724491 0.260434 1.466 127 139 141
-0.166035 0.134325 0.351 5 13 12
0.295552 -0.443672 1.275 22 47 83
0.0875243 -0.449067 1.477 137 129 126
0.343329 0.256006 1.366 48 50 32
0.416939 0.175279 0.847 36 18 9
-0.578999 -0.639234 2.286 154 150 141
0.412587 -0.0236282 0.917 40 43 25
0.000798465 0.405655 1.215 132 128 121
-0.0325986 0.286156 1.372 145 141 142
-0.273394 0.169397 1.505 142 138 131
-0.244864 0.419646 1.227 136 140 135
0.314977 0.098345 1.543 39 37 27
-0.0311841 0.238843 1.409 148 140 137
0.398956 0.299368 1.294 38 41 23
0.124547 -0.52101 1.381 8 11 12
0.103723 -0.475996 1.435 17 15 22
0.053183 0.234368 1.396 147 143 144
-0.332236 -0.677775 2.278 176 166 166
0.164958 0.277421 1.362 111 106 104
-0.0928881 -0.743127 2.32 137 128 131
0.443888 -0.140483 0.92 22 25 24
0.335517 -0.277366 1.13 4 15 11
-0.326875 0.429164 1.22 149 152 153
0.109384 -0.384951 1.48 4 11 5
0.132727 0.339372 1.286 117 115 107
0.410702 0.170375 0.857 27 20 3
0.3284 0.240316 1.378 56 53 39
-1.02779 -0.722425 2.136 149 153 146
-0.258502 0.301802 1.362 140 141 137
-0.0228406 0.41777 1.21 134 134 130
0.190908 -0.393785 1.477 2 6 1
-0.389168 0.190549 1.498 139 139 135
-0.120745 0.449634 1.185 124 130 128
-0.136303 0.230606 1.429 151 146 144
0.36841 0.0686466 1.135 43 27 6
0.392891 0.0436557 0.834 88 41 17
0.40437 0.1529 0.902 35 24 1
-0.151274 0.0458692 1.642 152 143 146
0.436697 -0.196181 0.856 121 120 103
-0.711066 -0.112089 1.87 138 140 129
-0.231543 0.338116 1.322 141 140 142
0.228828 -0.195092 1.646 3 4 0
-0.749328 -0.121996 1.882 131 134 133
-0.0529334 -0.352306 2.085 146 136 134
-0.960674 -0.0725289 1.87 117 141 127
-0.775353 -0.715415 2.189 147 148 137
0.372656 0.197495 1.262 25 24 26
-0.981127 -0.433949 2.244 136 138 129
0.407334 0.0301969 0.801 143 145 136
0.352172 0.29835 1.308 51 49 30
-0.431924 0.0538854 1.642 138 137 137
-0.179462 -0.320796 2.057 158 150 147
0.335721 -0.344504 1.232 5 16 12
-0.380919 0.327217 1.348 124 131 125
0.291363 0.0963309 1.551 45 41 32
0.0833936 -0.832968 2.189 136 129 121
0.295754 0.438948 1.147 100 109 100
-0.317914 0.142128 1.555 145 137 134
-0.0390122 0.297369 1.362 143 140 135
0.00401699 -0.08535 1.758 118 113 111
-0.422249 -0.671311 2.244 157 150 142
0.330509 0.0423867 1.359 13 11 0
0.113228 -0.326178 1.532 2 8 6
0.404239 -0.338309 0.95 184 192 189
0.448418 0.323171 0.902 16 9 1
0.0241482 0.422667 1.196 140 140 140
0.367435 0.0148716 0.997 2 6 0
-0.388243 -0.163272 1.899 141 140 140
0.179663 0.237884 1.39 119 115 116
0.357192 0.387945 1.203 51 54 38
-0.462253 -0.650641 2.261 157 154 149
-0.560626 0.087435 1.62 147 144 139
-0.453313 0.109446 1.595 148 145 142
0.420911 -0.0557807 0.906 4 11 3
0.418589 -0.105742 0.944 0 6 0
-0.33229 -0.755391 2.181 143 135 121
-0.510836 -0.260352 2.004 146 138 135
-0.113769 -0.820122 2.212 133 129 120
-0.15647 -0.253755 1.978 154 149 145
0.40347 0.335093 1.262 45 48 32
0.0757319 0.351819 1.278 139 139 133
0.429902 0.240811 0.84 34 24 10
-0.12207 0.330882 1.302 137 139 130
0.0444224 0.357218 1.275 142 137 135
-0.0737609 0.037853 1.642 160 149 153
0.318541 0.109534 1.524 35 36 25
-0.619649 0.192457 1.513 137 141 136
0.322027 0.340085 1.273 60 54 39
-0.205975 -0.197243 1.929 156 147 140
-0.0223096 -0.668873 2.449 150 142 141
0.203778 -0.0755011 1.729 3 7 2
-0.16307 0.135853 0.352 5 13 10
0.423948 -0.225198 1.004 74 74 68
-0.934254 -0.741513 2.121 150 154 149
0.286143 0.254341 1.369 55 57 39
0.00467969 0.430452 1.196 132 131 131
-0.687041 -0.826704 2.136 154 156 147
0.425804 -0.09588 0.923 3 4 0
-0.917625 -0.505312 2.286 134 135 124
0.412746 0.318544 1.278 38 40 24
-0.569823 -0.626539 2.294 154 149 145
0.279065 -0.154531 1.012 13 22 15
-0.569702 0.00885693 1.719 141 141 137
0.147231 0.172986 1.473 136 128 127
-0.659869 -0.753439 2.196 153 153 153
-0.145118 -0.460402 2.196 139 134 130
0.236509 0.41176 1.187 104 105 99
0.413628 -0.0221118 0.916 37 47 24
-0.506425 0.099809 1.607 152 149 144
0.304643 -0.00953156 1.004 4 4 0
-0.270829 0.425636 1.227 138 138 134
-0.613458 -0.0194394 1.748 143 145 136
0.0971084 -0.0870066 1.734 68 66 58
0.184866 0.40948 1.203 137 141 134
0.439707 0.355591 0.988 23 14 5
0.372238 0.385346 1.201 43 46 30
-0.154095 0.09525 0.346 7 14 6
-0.439772 -0.499836 2.278 151 143 140
-0.242999 -0.0335852 1.744 151 143 142
-0.129584 -0.124309 1.826 149 141 138
-0.396426 0.0487778 1.65 142 136 138
-0.701849 0.224077 1.494 126 137 133
-0.539407 0.187037 1.509 138 139 133
-0.1934 0.288389 1.372 141 138 135
-0.719932 -0.00236651 1.744 138 138 138
-0.79737 0.102231 1.646 131 133 122
-0.0421431 0.384904 1.257 138 136 128
-0.773218 0.0559529 1.705 130 132 123
0.084936 -0.76875 2.329 142 137 133
0.426955 0.290844 0.992 25 16 0
-0.808608 0.162309 1.579 126 127 123
-0.775633 -0.0255023 1.774 127 131 124
-1.01662 -0.234805 2.037 119 122 121
-0.96671 -0.599782 2.236 152 152 154
-0.203977 -0.707041 2.338 177 173 162
-0.314557 0.42204 1.234 141 144 143
0.41883 -0.270821 0.886 137 142 132
-0.427484 0.418369 1.247 133 143 131
0.298528 0.345484 1.27 43 51 36
0.404762 0.192077 1.043 30 15 5
0.354491 -0.344182 1.126 100 108 97
0.40611 0.122395 0.825 29 26 10
-0.295005 0.369531 1.289 124 123 130
-0.351712 0.196013 1.484 139 138 140
-0.0531125 -0.258614 1.966 138 129 124
0.373433 -0.27961 1.075 15 14 21
-0.76711 0.0118509 1.748 130 131 122
-0.034269 -0.672858 2.449 150 142 141
0.065787 -0.546169 2.196 145 136 131
0.0760565 -0.412954 1.705 149 140 135
-0.578743 0.136959 1.583 133 134 128
0.0328713 -0.245849 1.941 132 122 120
0.265961 -0.351088 1.234 17 27 41
-0.524846 0.26321 1.442 133 140 134
-0.437682 -0.42083 2.158 155 148 142
0.355775 0.0845376 1.232 26 16 2
-0.329364 0.0383602 1.664 151 145 147
-0.970173 -0.243908 2.03 131 129 119
-0.315176 0.282513 1.387 142 143 139
0.41883 -0.280914 0.886 152 160 159
-0.848832 -0.709557 2.204 146 143 140
0.158463 -0.407552 1.466 1 9 0
-0.435303 -0.66164 2.236 162 151 146
0.41064 0.172009 0.887 25 23 11
-0.372703 0.041068 1.664 142 139 136
0.0801753 -0.363199 1.52 19 16 37
0.260256 -0.476837 1.339 5 16 14
0.354102 -0.398494 1.167 115 112 109
-0.217351 0.230357 1.442 143 143 139
-0.207262 0.0610723 1.62 148 143 141
0.400176 -0.287357 1.01 97 98 87
-0.176725 -0.829406 2.189 136 136 130
-1.13048 -0.582883 2.173 149 159 147
-0.199898 0.164499 1.505 152 143 138
-0.590868 -0.0921748 1.837 140 141 132
0.153917 0.430909 1.176 126 129 130
0.416958 0.237623 0.999 9 10 0
-0.515034 0.0171989 1.714 143 143 137
0.425321 0.341821 1.213 40 38 26
-0.192147 0.413958 1.222 134 133 133
0.299273 -0.0191998 0.997 4 11 5
-0.271433 -0.628518 2.329 153 148 144
-0.281404 0.352012 1.294 123 125 116
-0.428617 -0.0824819 1.821 143 140 137
-0.482742 0.40079 1.275 132 149 150
-0.547418 -0.488415 2.294 150 146 139
0.247717 0.417513 1.176 104 102 94
0.153997 -0.322771 1.516 5 7 0
-0.640142 -0.0609924 1.799 152 145 139
-0.424805 0.327217 1.348 131 134 135
0.312595 0.322532 1.294 53 53 33
-1.04688 -0.561759 2.244 145 150 138
-0.205595 0.365153 1.281 129 129 125
0.385288 -0.364781 0.997 154 160 162
0.0935909 -0.731654 2.356 154 149 147
0.16331 -0.44949 1.425 2 5 6
-0.18306 -0.162241 1.887 157 147 147
-0.750007 0.140241 1.591 133 133 129
-0.690245 0.0841405 1.659 138 139 135
0.112851 0.15114 1.494 144 139 135
0.130801 -0.396189 1.477 4 9 0
-0.00881172 -0.362485 2.085 144 137 131
0.18215 0.154958 1.484 93 86 78
-0.12733 -0.507145 2.261 142 134 131
-0.026493 -0.0105812 1.696 145 137 134
0.44345 0.322224 0.916 16 13 0
-0.242139 0.317733 1.345 131 129 121
-0.271161 -0.0844129 1.799 151 141 141
-0.510921 0.371288 1.31 131 137 139
0.0086821 0.107525 1.567 141 138 135
-0.565121 -0.829406 2.189 160 159 159
0.421753 0.234819 0.924 28 19 0
0.262041 -0.331665 1.244 15 37 63
-0.564032 0.21672 1.477 144 145 134
0.443033 -0.110332 0.906 6 10 5
-0.60952 -0.12466 1.876 143 139 130
0.0681968 -0.276417 1.87 140 131 124
-0.00138703 0.22363 1.429 138 127 131
0.100508 0.391053 1.225 143 143 143
-0.324898 0.182746 1.494 146 141 137
-0.585658 0.235447 1.459 146 145 145
0.0921338 0.431676 1.194 143 141 133
-1.01701 -0.314554 2.128 128 128 128
-0.850988 -0.0463546 1.799 134 134 130
0.431147 0.337216 1.025 25 10 0
-0.140582 0.0431972 1.642 151 142 145
-0.425629 0.389254 1.278 123 135 139
0.252334 0.431452 1.162 115 124 106
0.379037 -0.330426 1.081 78 82 77
0.262952 0.20948 1.412 61 54 44
-0.260092 0.326478 1.336 139 137 129
0.249084 0.130557 1.509 54 52 40
0.353665 0.137284 1.275 15 12 9
-0.114802 0.234105 1.422 138 135 130
-0.52745 -0.387142 2.166 143 139 132
-0.171296 0.11829 0.341 7 13 15
0.30101 0.202701 1.429 48 47 32
-0.863711 -0.334208 2.143 137 137 131
-0.668984 0.269688 1.439 131 135 130
-0.114269 0.435071 1.198 130 130 130
-0.0489562 -0.460157 2.212 146 139 131
-0.422013 0.38332 1.286 129 140 138
0.163425 -0.0778618 1.719 6 8 0
0.240912 -0.236304 1.085 63 59 50
0.418884 0.22041 0.908 29 22 3
-0.518003 0.339621 1.345 128 134 132
-1.08018 -0.692359 2.057 144 153 144
-0.150244 0.427809 1.205 139 139 135
0.443365 0.350012 0.951 19 12 2
0.196743 0.31325 1.308 113 108 104
-0.244846 0.413001 1.237 139 140 136
0.070079 0.107799 1.571 145 137 136
0.142757 -0.214671 1.612 0 7 1
0.397444 -0.176931 0.999 6 8 14
-0.267581 0.211339 1.473 137 137 131
-1.01019 -0.660525 2.196 153 157 150
0.157707 0.190336 1.459 122 122 122
0.159299 -0.504047 1.39 2 8 8
0.031916 -0.37945 2.085 136 131 129
0.234501 -0.101447 1.158 13 19 19
0.298373 -0.419369 1.252 20 52 82
-0.940861 -0.791945 2.136 148 154 152
0.0921064 -0.801515 2.143 135 132 127
-0.40248 -0.0951642 1.837 143 137 139
-0.307325 0.336473 1.324 136 136 138
0.377238 0.302639 1.299 43 43 23
-0.805722 -0.159573 1.929 134 137 136
0.382434 0.0447101 0.942 32 26 13
-0.418187 0.345873 1.327 123 134 130
0.386905 0.0631762 0.879 20 29 11
-1.04817 -0.694343 2.114 145 155 158
-0.815217 0.186575 1.567 124 135 135
-0.498118 -0.13731 1.882 138 135 130
0.167257 -0.437514 1.439 8 8 8
-0.0329206 -0.0506135 1.744 149 139 137
0.293688 -0.180119 1.017 9 12 11
-0.225122 -0.229002 1.959 157 147 145
-0.252417 -0.514546 2.294 147 142 138
0.105343 -0.378107 1.491 6 9 8
-0.585544 -0.348035 2.121 143 135 132
-0.0649917 -0.778485 2.269 139 130 133
0.26797 -0.343055 1.234 14 38 52
0.432085 0.244309 0.872 32 22 8
0.422311 -0.134512 0.963 19 9 7
-0.845245 -0.404694 2.204 140 141 135
0.437148 -0.321648 0.891 175 181 183
0.144126 -0.325238 1.516 6 11 1
-0.684878 -0.108755 1.865 142 142 144
-0.595158 -0.615142 2.365 154 149 145
0.403704 0.155126 0.924 37 23 8
0.0902761 -0.222541 1.612 10 9 16
0.0526308 -0.405908 2.099 144 136 133
-1.00359 -0.169033 1.966 122 122 122
-0.804313 -0.0678508 1.826 136 138 125
-0.088001 -0.244941 1.959 158 148 146
0.333671 0.250433 1.372 49 49 27
-0.17119 0.0796645 0.326 7 16 7
-0.23883 0.136715 1.551 149 141 140
0.12048 -0.233172 1.595 4 7 6
-0.636578 0.105366 1.612 130 130 132
-0.257164 0.137067 1.555 143 140 137
-0.35014 -0.291158 2.037 151 143 140
-0.773223 -0.614709 2.173 151 153 144
0.347021 -0.419818 1.108 139 132 122
-0.108703 -0.167401 1.876 154 148 150
-0.291928 -0.14603 1.876 151 143 142
-0.0249127 0.415541 1.215 130 129 131
-0.356298 0.206545 1.473 144 144 144
0.144465 -0.519878 1.378 13 10 5
0.417904 -0.264611 0.875 150 157 149
0.31199 -0.146486 0.991 10 10 6
0.235301 -0.313564 1.286 10 22 40
0.117598 -0.336875 1.524 4 8 1
-0.0425494 0.0978215 1.575 152 148 151
0.435492 0.292133 0.944 9 7 0
-0.896966 -0.0469215 1.821 138 136 124
0.39244 0.382072 1.203 43 50 28
0.0688416 -0.691365 2.43 150 146 139
0.00512749 -0.81738 2.244 135 132 127
0.0973884 -0.0815976 1.739 68 65 60
0.168803 -0.317837 1.516 4 5 1
0.435659 -0.186999 0.906 98 108 94
0.283486 -0.181005 1.022 12 11 11
-0.229568 -0.732665 2.253 139 134 130
0.373606 0.291609 1.316 46 48 32
0.198957 -0.208177 1.05 20 24 19
0.39312 0.142044 1.013 35 19 12
0.391555 0.14639 1.044 30 21 12
0.318034 -0.0111765 1.005 3 4 0
0.420329 0.366574 1.21 41 38 22
-0.316766 -0.566793 2.356 147 138 129
0.177583 -0.167841 1.668 3 4 0
0.341309 0.104359 1.452 31 32 21
0.243061 0.386264 1.21 104 105 92
0.0986156 0.351819 1.278 137 137 131
0.356247 -0.10531 0.954 1 14 11
0.408779 0.167987 0.991 36 19 3
-0.21599 0.455022 1.189 135 141 139
0.418859 -0.268987 0.88 145 150 140
0.278257 0.180467 1.456 57 55 43
-0.150167 0.125104 0.354 9 12 11
0.00280367 0.391691 1.227 144 145 139
0.309457 -0.50201 1.354 11 17 19
-0.33931 0.313803 1.366 131 130 130
-0.222324 0.426701 1.213 145 144 144
-0.20351 0.363068 1.281 133 133 129
-0.220704 -0.817167 2.166 133 133 127
0.403876 0.144747 0.888 28 22 7
-0.266974 -0.270944 2.01 153 142 137
0.221593 0.192812 1.442 61 57 50
0.258553 0.370728 1.237 107 104 99
0.352693 0.0296111 1.06 34 31 15
0.228457 -0.403175 1.319 33 23 11
0.0186864 0.276013 1.366 133 129 130
0.221182 -0.22482 1.591 4 5 0
-0.29486 0.133025 1.567 143 140 135
0.209189 -0.14702 1.104 15 16 10
0.388851 -0.384547 1.002 185 196 192
-0.39974 0.29797 1.375 139 141 132
-0.289455 0.376162 1.283 128 131 130
-0.874344 -0.233998 2.03 139 137 127
-0.0318022 0.119047 1.551 148 143 139
0.24271 -0.415065 1.27 12 30 55
-0.815122 -0.361429 2.181 144 139 135
0.423778 0.388277 1.192 44 46 30
-0.515231 -0.184112 1.923 140 137 132
0.356832 0.0500752 1.176 36 19 3
0.402734 0.214074 1.051 37 22 12
-0.31121 0.387175 1.278 133 139 141
-0.502693 -0.541347 2.329 153 150 145
-0.161799 0.0685748 0.334 39 29 41
-0.332236 -0.69631 2.278 142 132 130
0.348832 0.0765092 1.265 26 12 6
-0.0143366 -0.668873 2.449 152 144 141
0.378134 -0.052378 0.924 10 18 17
-1.11743 -0.35563 2.189 118 131 118
0.223516 0.0796773 1.571 57 50 42
-0.200117 0.3603 1.286 142 138 139
-0.524621 -0.177853 1.923 139 136 131
-0.786179 -0.163219 1.935 137 140 139
0.329606 0.169431 1.463 39 41 30
0.220334 -0.202277 1.046 24 25 21
0.399321 -0.194055 1.012 0 7 4
0.421955 0.311088 1.232 34 36 18
0.271631 -0.118651 1.015 11 18 10
0.0943333 0.140379 1.509 142 134 133
0.251045 -0.0692307 1.068 5 7 0
-0.347534 0.274076 1.39 138 138 140
-0.68381 0.110613 1.612 130 135 125
-0.249968 0.426701 1.213 139 139 135
-0.847505 -0.674824 2.173 165 162 159
0.390387 0.111802 0.939 32 25 6
0.331975 0.215729 1.393 48 46 36
-0.362551 0.384514 1.283 135 146 144
0.366148 -0.352934 1.064 130 134 127
0.343074 -0.137305 0.983 2 8 6
0.343392 0.071779 1.291 12 8 1
0.449191 0.338767 0.889 11 14 0
0.344713 0.057982 1.265 24 14 0
-0.116956 0.325874 1.316 144 139 135
-1.05362 -0.745097 2.064 150 154 149
0.437579 -0.195951 0.855 122 121 104
0.409069 0.223896 1.041 29 24 4
-0.380503 -0.568447 2.347 136 131 127
0.415119 -0.30086 0.916 156 160 153
0.365568 0.0856724 1.192 21 13 10
0.356412 0.339283 1.27 53 52 37
0.269707 -0.389745 1.242 23 28 62
0.123355 -0.479926 1.419 7 10 9
0.173857 -0.20418 1.633 1 5 0
0.160421 -0.164235 1.659 1 5 0
-0.152648 -0.422965 2.151 152 144 143
-0.0359635 -0.362485 2.085 148 140 137
-0.124467 -0.676705 2.42 132 122 120
-0.169066 0.13356 0.349 3 18 4
-1.03649 -0.753713 2.024 158 155 150
0.234721 -0.18189 1.027 16 12 5
-1.07378 -0.701433 2.064 141 150 143
-0.538881 0.325464 1.359 133 140 132
0.412209 0.189731 0.869 34 22 4
-0.231518 0.362393 1.286 132 128 131
-0.336931 0.396018 1.273 131 139 136
-0.370987 -0.120506 1.859 145 141 144
0.391343 0.0694577 0.945 19 16 0
-0.382718 -0.143816 1.887 146 135 139
0.203307 -0.197171 1.046 17 18 12
-0.124051 0.18307 1.477 144 136 133
0.402706 0.0469068 0.797 139 143 122
-0.343383 0.118626 1.579 149 146 141
-0.152591 0.0983476 0.349 13 15 21
0.146453 -0.466071 1.419 4 8 1
0.1364 0.0628827 1.599 89 82 76
-0.728141 -0.770027 2.114 154 154 148
-0.540857 -0.679834 2.236 157 148 143
0.174526 -0.00779822 1.691 56 54 44
-0.00514334 0.404343 1.217 136 131 127
-0.529546 0.355313 1.33 133 136 137
0.0148478 0.391283 1.232 131 131 125
-0.0927512 0.000458574 1.696 152 142 142
0.416205 0.234359 1.013 14 11 0
-0.5991 -0.782028 2.196 156 154 146
0.262041 -0.301299 1.244 29 10 6
-0.00323246 0.384972 1.244 132 131 131
-0.522677 0.257414 1.449 142 146 139
-0.0707892 0.382858 1.257 141 137 130
-0.536234 0.378739 1.299 133 139 139
-0.826843 0.102231 1.646 130 134 127
-0.515682 0.321749 1.362 137 138 134
0.455543 0.419743 1.083 30 38 23
0.428223 -0.206848 0.909 89 92 74
-0.889321 -0.796129 2.057 148 156 143
-0.161193 0.0715059 0.335 28 23 33
-0.0264034 -0.743633 2.459 156 151 149
0.163614 0.0139893 1.664 62 59 45
0.259318 0.0720077 1.571 50 48 36
0.224993 0.31955 1.299 104 97 91
-0.73921 0.1546 1.579 133 137 132
-1.07844 -0.601958 2.204 147 148 142
0.166376 -0.242333 1.587 2 6 0
-0.759074 -0.625317 2.173 151 153 159
0.404763 -0.16522 0.997 76 84 71
-0.154095 0.0907455 0.346 37 30 24
0.271987 -0.395267 1.234 21 52 91
0.397324 0.175167 1.064 28 14 10
0.327309 0.0693154 1.412 1 8 2
-0.164343 0.153366 1.516 150 145 141
-1.02192 -0.516565 2.303 142 150 139
0.237317 -0.0266928 1.668 39 40 27
0.216245 0.244801 1.378 109 109 105
0.399296 0.212927 1.098 26 17 0
0.239312 0.15114 1.494 55 54 39
0.115272 0.190858 1.463 148 148 142
-0.985163 -0.667672 2.196 161 162 158
0.416446 -0.245754 0.884 112 113 107
0.43502 -0.204488 0.85 117 126 117
0.418745 0.280606 1.044 13 11 0
-0.548444 -0.127713 1.876 150 141 136
0.157341 -0.171919 1.655 2 6 1
0.195501 -0.163775 1.682 1 5 0
-0.151476 -0.650647 2.411 129 124 120
0.381541 0.125387 1.114 30 16 8
-0.00412372 0.0856539 1.587 150 144 146
-0.235157 0.405603 1.239 130 130 124
-0.483796 -0.063387 1.784 139 136 131
-0.13796 -0.0449374 1.744 153 145 142
-0.144322 0.126403 0.361 11 15 8
-0.446714 0.408584 1.267 132 133 122
-0.204487 -0.0964438 1.805 157 149 146
0.0282988 0.331722 1.297 143 143 139
-0.378938 -0.501554 2.269 153 146 140
0.382721 0.330245 1.275 44 46 30
-0.390475 0.413934 1.252 134 141 135
0.407094 0.126729 0.827 32 22 8
-0.141927 0.209904 1.463 146 141 139
-0.259662 -0.474363 2.228 155 148 138
0.43224 -0.197327 0.861 119 120 111
-0.532692 -0.391929 2.173 142 138 131
-0.195782 0.0936371 1.591 147 143 136
-0.48262 -0.654363 2.236 153 153 147
-0.0362404 -0.77333 2.32 139 132 122
-0.166618 0.380618 1.27 140 139 141
-0.389593 -0.0729452 1.805 147 143 136
-0.114806 -0.697382 2.383 139 128 132
-0.427147 0.242594 1.445 141 141 135
-0.152023 0.100619 0.349 12 12 12
-0.339207 0.0278926 1.686 149 146 143
0.0720864 0.0451429 1.616 123 118 114
-0.437735 0.109446 1.595 151 145 149
0.339111 -0.237225 1.05 17 29 21
0.0460957 -0.268212 1.966 129 121 118
0.275384 -0.227388 1.068 16 12 5
-0.237985 0.243874 1.425 144 138 140
-0.253323 0.141397 1.547 146 143 138
0.426854 -0.216039 1.007 66 66 60
0.280583 0.344228 1.273 55 57 39
-0.627802 -0.636098 2.329 154 152 144
0.305284 0.335968 1.281 56 54 46
-0.0730511 -0.347742 2.078 144 139 135
0.272175 -0.02186 1.366 4 5 1
-0.41576 0.0225382 1.696 139 139 133
-0.188273 -0.427853 2.158 156 148 147
-0.0281957 -0.117005 1.805 117 110 104
-0.227435 0.202299 1.477 148 146 138
0.379976 -0.390559 1.022 157 164 156
0.388497 0.409138 1.185 43 48 36
-0.0835528 0.427809 1.205 133 130 125
-0.343049 0.00326217 1.719 150 145 141
0.28509 -0.154225 1.01 17 24 28
0.419382 0.437418 1.143 47 45 33
0.441458 -0.345131 0.888 210 230 243
0.262447 -0.0886526 1.051 2 6 1
-0.931299 -0.002414 1.779 124 128 123
0.0655117 0.388395 1.242 138 139 135
0.215796 0.430247 1.169 126 133 125
-0.948064 -0.744964 2.121 145 157 147
-0.0208709 0.419739 1.21 133 133 129
0.387287 0.114244 1.015 28 26 5
-0.165661 0.434929 1.203 138 143 133
-0.439836 -0.673691 2.204 156 154 142
0.315534 -0.060152 0.977 11 14 13
-0.0861143 -0.192896 1.917 155 151 144
-0.21219 0.287407 1.378 147 143 144
-0.370327 0.388083 1.281 133 141 140
0.19382 0.402017 1.21 131 132 128
0.258884 0.307333 1.31 83 81 62
0.247275 0.310408 1.305 98 97 82
0.381835 -0.215316 1.027 2 13 11
-0.304762 -0.302137 2.044 150 142 139
0.390038 0.412472 1.178 44 46 28
-0.0953404 0.280069 1.375 149 141 140
-0.272693 0.383588 1.273 125 131 129
0.0767252 -0.265645 1.603 20 19 19
-0.492031 -0.11748 1.859 140 137 134
0.19086 0.285236 1.357 107 105 97
0.245345 -0.0670477 1.089 6 10 3
0.328943 -0.405107 1.252 6 30 60
-0.193775 0.197492 1.477 145 135 135
-0.520768 -0.270336 2.03 142 136 138
0.264824 0.348791 1.267 84 88 83
-0.545798 0.0596985 1.655 143 140 137
0.345363 0.077114 1.275 16 9 3
0.104902 0.0679166 1.595 119 113 115
0.446469 -0.0232933 0.904 80 81 54
0.415276 0.323512 1.273 39 38 23
-0.525941 -0.680864 2.204 155 156 147
-0.465276 -0.0981536 1.837 156 147 142
0.365635 -0.399771 1.083 122 124 113
-0.0989921 0.163734 1.498 141 141 137
-0.561557 -0.83653 2.189 159 160 149
0.0178421 -0.724352 2.489 149 145 146
0.210822 0.059979 1.591 55 51 42
0.399522 0.00170984 0.901 83 28 0
-0.650738 -0.169516 1.935 140 136 137
-0.230617 0.367237 1.281 124 125 119
0.108463 -0.0050464 1.691 116 110 112
0.258972 0.381515 1.22 102 102 96
0.289062 0.194752 1.439 53 47 32
0.36183 -0.467437 1.239 89 97 82
0.397587 0.123158 0.91 24 22 3
0.353914 0.432238 1.154 58 56 37
-0.439836 -0.777703 2.204 156 153 150
0.335721 0.0384901 1.302 28 14 6
0.392582 0.0627692 0.854 34 27 8
-0.100226 0.375595 1.267 139 133 139
-0.383759 -0.190371 1.923 135 130 128
-0.970169 -0.565411 2.244 147 149 140
0.246364 0.358312 1.257 102 103 97
-1.16878 -0.402563 2.212 127 136 129
0.428605 -0.273972 0.851 160 171 169
-0.839751 -0.772227 2.092 151 153 142
0.405215 0.221336 1.053 28 18 6
-0.52775 0.0255069 1.71 141 139 129
-0.493613 0.116939 1.591 147 144 141
0.0414979 0.00852717 1.655 128 121 115
0.130319 0.200267 1.445 140 136 127
0.399871 0.184335 1.057 18 16 6
0.403853 0.174937 1.032 26 19 0
-0.462449 0.16571 1.539 141 141 137
0.417388 -0.239101 0.886 110 111 105
0.252909 -0.18271 1.563 6 7 0
0.358604 -0.215085 1.018 18 26 23
0.053744 -0.12797 1.794 87 78 69
-0.177318 -0.138657 1.859 162 153 148
-0.855418 -0.0869467 1.853 139 136 131
0.38073 -0.0673415 0.923 9 10 4
0.428973 -0.20723 1.012 46 52 54
0.0165733 -0.778188 2.312 138 131 121
0.399433 -0.182718 1.004 3 7 0
-0.495153 0.169055 1.524 145 146 135
0.098703 0.419268 1.203 133 135 126
-0.304422 0.247403 1.432 145 142 139
-0.280093 -0.668994 2.338 158 151 145
0.316961 -0.484454 1.33 11 19 20
0.387101 0.169176 1.104 37 22 12
0.0566387 0.397033 1.225 141 138 135
-0.342527 0.0836995 1.599 150 146 139
-0.769956 0.0118509 1.748 134 135 126
0.345138 0.0446206 1.237 19 16 0
-0.179879 -0.0929366 1.794 147 142 138
0.429703 -0.206848 0.909 84 87 69
-0.170281 0.132611 0.348 6 15 6
-0.117686 -0.199759 1.923 153 143 141
-0.423412 -0.0951642 1.837 137 136 138
-0.217926 0.455022 1.189 136 142 140
0.228333 0.434462 1.165 133 140 132
-0.198732 0.282922 1.378 142 136 138
-0.826532 -0.166883 1.941 127 128 117
0.198868 -0.233757 1.599 1 5 0
0.320046 -0.156979 0.986 14 21 13
-0.458655 0.192471 1.494 134 135 124
-0.228566 0.000459655 1.7 145 137 136
0.365476 -0.00136373 1.005 3 3 5
-0.735023 -0.811309 2.114 158 154 147
0.274312 0.170589 1.473 54 53 38
-0.350919 -0.832901 2.143 153 153 147
0.0916762 -0.124762 1.637 9 13 8
0.366812 0.125612 1.222 16 12 3
0.0993225 0.431076 1.187 136 134 126
-0.71138 -0.343544 2.136 141 141 135
0.420362 -0.235778 0.948 98 100 91
0.00287222 0.378767 1.257 137 136 140
0.442109 0.399308 1.039 25 27 14
0.39534 0.174087 1.068 16 8 5
0.288757 0.376767 1.237 76 77 68
-0.241605 -0.027749 1.734 150 142 139
-0.717429 0.230906 1.491 131 139 126
0.418973 0.341256 1.247 38 39 26
0.43404 0.380843 1.044 25 27 9
0.140703 -0.392177 1.48 6 10 3
0.434995 -0.188111 0.981 74 77 80
-0.143349 0.131829 0.363 12 18 20
-0.139711 0.141814 0.369 8 21 4
0.205475 -0.516515 1.381 9 15 15
0.289005 -0.0577065 1.018 6 10 3
0.230604 -0.126284 1.319 13 17 10
0.0777394 0.436955 1.182 134 137 136
-0.352737 0.30692 1.375 133 136 135
0.1822 -0.520984 1.375 8 13 3
-0.283156 0.446676 1.203 130 134 129
0.379228 -0.0478152 0.923 11 11 5
-0.937345 0.000479664 1.774 127 135 122
-0.135781 0.409991 1.234 121 123 114
-0.579374 -0.793784 2.189 154 152 144
0.299143 -0.0633218 1.002 4 11 3
-0.499252 -0.295017 2.064 144 139 137
0.353301 0.433363 1.152 55 52 38
-0.155208 -0.0805795 1.779 151 143 140
0.0536334 0.451474 1.16 131 131 133
-0.509846 -0.834521 2.212 157 155 145
-0.130208 -0.199759 1.923 159 149 147
0.421543 -0.234037 0.917 98 111 98
-0.266741 -0.0722986 1.789 153 146 140
-0.417733 -0.754448 2.22 153 148 144
-0.173678 0.284544 1.375 144 144 140
0.384476 -0.271044 1.062 9 14 4
-0.369149 -0.126964 1.865 142 138 139
0.332757 -0.0177184 1.005 3 7 0
-0.439542 -0.0729452 1.805 143 135 134
-0.938524 -0.404694 2.204 139 137 127
0.333484 -0.0512942 0.96 10 14 9
-0.085425 0.397297 1.232 144 139 135
0.443128 -0.330866 0.877 200 218 227
0.242272 0.360357 1.257 101 102 89
-0.364183 0.417346 1.232 124 132 129
-0.959116 -0.503465 2.261 144 149 139
0.0069479 0.379904 1.254 137 140 141
0.350908 0.36633 1.229 45 47 31
0.403082 0.27463 1.139 25 19 4
0.307802 -0.111381 1.009 4 8 1
-0.664505 0.0985244 1.629 135 139 134
-0.121587 0.0682572 1.603 144 139 137
-0.325801 0.399218 1.27 136 143 137
-0.312159 -0.319609 2.071 144 139 135
0.386447 0.110929 1 35 23 7
-0.558966 0.225262 1.47 133 139 139
0.13818 -0.362064 1.505 8 9 3
-0.700057 -0.11179 1.865 137 140 139
-0.163599 0.108537 0.34 8 11 10
-0.410646 -0.186657 1.917 146 136 134
0.346065 0.000278497 1.03 25 26 15
0.140659 -0.313712 1.532 6 11 1
-0.183149 0.327176 1.33 141 138 133
0.0100285 -0.126166 1.81 114 107 101
-0.690374 0.149461 1.579 127 136 127
0.172014 0.352915 1.267 114 112 100
-0.407248 0.366056 1.299 135 143 142
0.430934 0.355143 1.185 32 34 21
-0.045324 0.447737 1.18 127 127 123
0.43154 0.382458 1.192 36 43 21
-0.0652014 -0.325421 2.044 146 136 136
0.238428 -0.10553 1.066 7 12 2
-0.141525 -0.0565802 1.753 157 150 144
-0.0794844 -0.503465 2.261 143 135 134
-0.404918 -0.130766 1.876 142 137 135
-0.274765 0.389803 1.273 128 130 121
-0.300967 0.13742 1.559 144 144 140
-0.2305 0.130142 1.563 145 137 134
-0.106953 -0.815863 2.22 140 138 130
0.0335975 0.00586567 1.664 127 120 114
-0.056194 0.200381 1.463 144 143 143
0.36658 -0.127465 0.969 11 18 22
-0.778917 -0.38769 2.189 146 142 133
0.251553 -0.192604 1.603 4 5 0
0.442026 -0.0278905 0.91 51 59 44
0.354744 0.0514378 1.208 25 19 6
0.442481 -0.141054 0.914 37 39 30
-0.10869 0.428343 1.201 131 129 121
0.112137 -0.0217358 1.705 96 98 89
0.108079 0.361162 1.267 140 140 134
0.274143 -0.0638461 1.037 6 7 3
-0.778917 -0.715415 2.189 144 145 134
-0.369872 0.364647 1.294 128 130 136
-0.234377 -0.354672 2.099 152 145 139
0.442545 -0.0188382 0.902 85 94 76
0.416347 -0.150561 0.986 6 14 13
-0.59797 0.0280581 1.696 131 133 122
-0.133959 -0.0304827 1.729 159 151 148
0.243283 -0.387043 1.273 7 19 23
0.241098 0.381515 1.22 103 101 93
0.426434 0.440672 1.137 45 45 41
0.265251 0.20948 1.412 60 54 41
0.431093 0.369338 1.017 23 25 7
-0.825279 -0.0167942 1.769 133 134 121
-0.368943 0.406972 1.262 134 140 142
-0.452717 -0.626688 2.365 159 153 140
0.408306 0.122241 0.852 25 20 2
-0.684482 0.262672 1.452 132 139 143
-0.953303 -0.147017 1.929 123 128 116
-0.835138 -0.537892 2.347 147 144 141
-1.09111 -0.49588 2.347 133 132 115
-0.0614583 0.130308 1.535 152 144 143
0.0576086 -0.334321 1.923 139 134 132
-0.115507 0.407322 1.232 134 131 126
0.145709 -0.242333 1.587 3 7 2
0.343353 0.0567192 1.283 27 15 0
-0.166235 0.361547 1.283 133 132 132
0.423833 0.411772 1.176 48 50 32
0.423068 0.373619 1.201 39 41 28
-0.956939 -0.788388 2.037 149 158 151
-1.03524 -0.666661 2.181 138 142 135
-0.961257 -0.213302 1.991 126 127 123
0.17957 0.261596 1.372 125 121 114
0.341016 -0.382275 1.244 3 18 35
-1.057 -0.673651 2.051 143 154 152
0.0711496 0.0679166 1.595 129 121 120
-0.489743 -0.652943 2.269 155 153 145
0.441037 0.27635 0.893 29 21 9
0.410603 0.404255 1.182 38 44 25
-0.199549 -0.820691 2.166 139 139 133
0.16764 0.219561 1.403 128 120 119
0.172135 0.137284 1.502 102 93 88
-0.127747 0.409991 1.234 129 126 123
-0.247629 0.338723 1.316 140 144 139
-0.377439 0.00881055 1.71 143 143 139
0.395961 0.0937797 0.927 27 24 10
-0.996225 -0.318017 2.128 135 133 125
-0.567385 -0.238502 1.985 146 141 137
-0.234445 0.179953 1.491 141 136 134
0.231942 -0.146536 1.037 8 15 9
-0.159862 -0.214263 1.941 162 152 150
-0.515231 -0.180983 1.923 142 139 134
-0.196404 -0.716133 2.294 144 135 130
-0.500945 -0.299388 2.071 144 139 137
-0.166339 0.0771853 0.329 14 22 21
-0.67204 -0.459312 2.261 149 146 143
-0.320538 0.219427 1.463 143 138 136
0.245291 -0.0846703 1.744 23 23 23
0.318914 0.000349879 1.294 28 13 3
0.380571 0.232571 1.372 43 41 29
0.28619 -0.018406 1.044 1 8 0
0.0617373 0.248119 1.384 149 144 140
0.335646 -0.171971 0.98 27 28 17
-0.0865349 -0.153783 1.859 144 136 135
0.14024 0.116823 1.555 115 113 105
-0.449495 -0.1935 1.923 143 140 137
-0.27344 -0.027829 1.739 159 149 147
-0.276496 -0.726102 2.189 135 132 127
0.323344 0.00646107 1.254 16 10 0
0.441277 -0.328759 0.879 190 204 208
0.340105 0.298713 1.319 51 49 37
-0.405426 -0.758928 2.212 137 123 134
-0.192299 0.0380374 1.65 144 139 137
0.135957 0.22003 1.406 145 136 139
0.321617 -0.0923265 0.981 13 13 17
-0.126373 -0.49968 2.244 142 134 131
-0.364173 -0.634385 2.365 146 143 129
-0.493137 -0.221262 1.947 146 141 139
-0.199335 0.400522 1.242 133 140 132
-0.912642 -0.206822 1.991 129 131 122
0.428379 -0.319039 0.9 176 184 181
-0.245597 0.363635 1.283 126 130 125
0.244849 -0.0945262 1.079 4 8 3
-0.681135 -0.152818 1.923 140 138 128
0.168467 0.17981 1.47 120 112 109
0.444712 -0.151828 0.944 55 65 49
-0.00726491 -0.0331037 1.719 148 144 137
0.340371 0.0941442 1.372 23 16 6
0.391896 -0.00867714 0.914 61 22 0
-0.856555 -0.503534 2.312 139 140 131
-0.15118 0.106908 0.351 7 21 10
0.362892 -0.327181 1.118 110 111 102
0.393075 0.126253 0.98 33 26 9
-0.157767 0.073578 0.337 133 138 143
-0.731148 -0.213302 1.991 144 145 134
-0.221319 -0.163272 1.899 149 146 141
0.41557 0.363144 1.225 45 48 27
0.440278 -0.139741 0.925 29 23 27
0.436622 -0.18096 0.96 64 72 69
0.437122 -0.31912 0.888 175 183 182
-0.766969 -0.0255023 1.774 121 125 120
-0.246986 -0.110111 1.837 149 138 131
-0.1232 0.392617 1.249 146 143 138
-0.220704 -0.813642 2.166 132 133 127
-0.629897 0.304424 1.384 138 150 142
-0.075656 0.366151 1.27 142 145 144
0.428535 0.227142 0.84 26 24 5
0.0844861 0.181707 1.466 150 140 140
0.0730176 0.367348 1.267 144 148 143
0.361823 0.0516109 1.126 36 23 12
0.39407 -0.299613 1.007 122 126 121
0.354065 -0.154114 0.978 17 21 16
0.336759 -0.231657 1.048 14 21 15
-0.102413 0.190281 1.477 136 131 127
-0.889876 -0.735625 2.114 148 152 147
-0.187399 0.414245 1.217 136 132 135
-1.02267 -0.191197 1.997 123 125 112
-0.181468 -0.716133 2.294 154 143 134
-0.508001 0.0922498 1.612 149 147 139
0.32586 0.389903 1.203 51 53 44
-1.06773 -0.274268 2.085 122 123 119
0.377029 0.20975 1.313 33 35 22
0.160077 0.111475 1.551 87 90 74
0.324266 -0.110278 0.999 3 4 0
0.415733 -0.107733 0.948 0 5 0
0.197584 -0.385528 1.473 2 6 1
-0.98767 -0.154249 1.941 118 129 125
0.414195 0.191669 0.941 30 21 16
-0.156109 0.10168 0.343 13 23 9
-0.169054 0.0692662 0.327 12 24 14
0.31149 -0.117482 1.005 3 7 2
0.206368 0.239628 1.387 108 103 99
0.286208 0.323383 1.289 58 61 40
0.293234 0.354416 1.265 65 64 47
0.30101 0.205026 1.429 51 50 35
-0.28997 0.396213 1.267 135 136 132
0.396117 0.353181 1.239 34 39 25
-0.458268 -0.0337585 1.753 144 136 133
-0.0217592 0.119354 1.555 139 134 132
-0.22983 0.238081 1.432 150 144 148
0.225382 -0.10423 1.339 14 19 9
0.326256 -0.514255 1.369 16 17 8
-0.285422 0.239744 1.442 147 144 141
0.30808 -0.155017 0.994 12 12 14
0.432309 -0.189309 0.896 114 110 99
-0.304628 -0.116406 1.842 150 143 137
-0.374353 0.249733 1.432 146 147 143
-0.794468 -0.149222 1.917 135 138 139
0.340353 0.358064 1.249 53 53 33
-0.288297 0.066181 1.616 153 148 146
0.322415 -0.0501982 0.969 6 15 8
-0.770431 -0.0932787 1.859 139 139 141
-0.157881 0.0935923 0.342 10 23 8
0.396643 -0.316126 0.977 136 143 135
-0.60487 -0.702384 2.204 160 153 145
0.246899 0.194752 1.439 63 63 43
-0.377965 -0.814148 2.158 153 150 145
-0.164073 0.0649225 0.332 27 28 17
0.316324 0.413873 1.182 50 53 35
0.0670001 -0.638233 2.365 153 145 144
0.051676 -0.47284 2.204 136 131 127
0.289573 -0.0810581 1.02 8 12 5
-0.800922 -0.364978 2.181 143 139 132
0.305303 -0.520984 1.375 17 20 21
0.3889 -0.0267288 0.921 4 8 1
-0.222624 0.363635 1.283 133 132 134
0.0707959 0.320288 1.302 144 144 138
-0.796088 0.212574 1.516 116 129 124
-0.576468 -0.0194394 1.748 136 136 132
0.157248 -0.391382 1.477 1 8 0
-0.0330905 -0.0594329 1.753 146 136 136
0.340283 0.363804 1.234 45 47 36
-0.117022 0.0607707 1.612 151 147 140
-0.283392 -0.0393514 1.748 158 148 148
0.354789 -0.127318 0.98 4 5 0
0.193753 0.388107 1.222 131 131 131
0.419588 0.221397 0.9 28 23 1
-0.335343 0.334318 1.324 139 139 135
0.0563691 0.219756 1.419 152 150 140
-0.611724 -0.788978 2.128 159 159 155
-0.917884 -0.679793 2.189 148 151 152
-0.473969 -0.0484603 1.769 141 137 138
0.245714 -0.0805311 1.308 18 20 9
-0.422939 0.172436 1.532 139 138 140
0.0738949 0.381842 1.247 139 136 133
0.398814 0.404034 1.187 46 46 24
0.157036 -0.497261 1.39 7 11 6
-0.821078 0.116722 1.624 130 139 132
0.0269897 0.390858 1.237 149 141 140
0.0088155 -0.501684 2.253 136 131 127
-0.558169 0.208508 1.487 137 141 136
0.427402 0.335845 1.242 33 36 20
0.120074 -0.461985 1.435 5 5 7
-0.0302825 -0.744594 2.449 153 150 147
-0.842276 0.148752 1.599 126 134 135
-0.30436 0.454992 1.194 124 130 128
0.442044 -0.126894 0.898 8 9 3
0.28265 -0.0564353 1.025 4 8 1
-0.113357 -0.831503 2.204 140 136 125
0.304036 -0.166049 1.002 20 28 17
-0.513934 -0.485008 2.278 153 146 138
-0.802977 -0.00238551 1.758 135 137 128
0.342274 0.126234 1.487 42 41 24
0.249789 0.169448 1.484 56 52 41
-0.718709 0.0367236 1.714 139 140 131
0.196746 -0.440046 1.432 5 6 2
-0.171683 0.125488 0.344 1 12 8
0.0545529 -0.159529 1.821 83 75 61
0.335905 0.266978 1.354 55 48 31
0.17401 -0.120266 1.686 3 6 5
-0.43365 -0.82688 2.173 161 158 153
0.401381 0.0975861 0.867 37 22 10
0.260988 -0.352511 1.239 9 19 35
0.346105 -0.152522 0.978 11 16 6
-0.174222 -0.427853 2.158 154 151 146
0.355329 0.144184 1.281 22 14 11
0.443481 -0.141035 0.895 86 93 87
0.433226 -0.0644842 0.904 2 8 8
-0.310594 0.396213 1.267 127 133 135
-0.31448 -0.0718944 1.779 149 144 140
0.413048 0.408638 1.178 42 48 31
0.390528 -0.277842 1.055 54 47 37
0.423641 -0.212668 0.884 93 101 90
0.419898 0.386338 1.192 39 41 25
0.423878 0.257268 0.963 16 14 4
-0.153411 0.0927018 0.347 30 29 29
0.123238 -0.0161866 1.705 89 87 79
-0.996501 -0.268146 2.064 127 126 126
-0.419497 -0.203521 1.929 147 142 138
0.408599 0.159915 0.892 31 22 3
-0.388839 0.286407 1.384 133 136 139
-0.102289 0.377657 1.267 130 126 119
-0.500313 0.298313 1.387 143 144 138
0.27192 0.333884 1.281 77 63 57
0.435598 0.347473 0.997 18 17 0
-0.425623 0.373935 1.297 134 140 140
0.288182 -0.421407 1.252 27 57 91
0.443289 -0.174362 0.925 81 93 83
-0.594107 -0.40828 2.204 146 144 134
-0.663792 0.176642 1.547 133 133 127
-0.354322 0.276338 1.39 143 142 142
0.384679 -0.323416 1.087 67 74 66
-0.788684 0.212574 1.516 121 133 125
0.292032 -0.0824747 1.017 9 13 8
-1.0172 -0.323746 2.143 129 130 124
-0.177312 -0.33309 2.071 156 148 147
0.258763 -0.0348883 1.354 8 11 12
-0.400931 0.424048 1.234 133 140 148
-0.40269 -0.670361 2.278 118 105 92
0.0696144 -0.820743 2.204 135 131 124
0.230079 -0.128138 1.316 13 17 12
-0.264654 -0.516565 2.303 149 144 140
0.24582 -0.0660108 1.132 4 5 0
-0.992859 -0.718472 2.166 143 149 149
0.277861 -0.0618589 1.032 4 8 3
0.331057 0.112842 1.502 38 39 28
0.18016 0.302684 1.327 112 110 98
-0.490351 0.0520243 1.668 142 138 139
0.185218 -0.333559 1.509 1 8 2
0.434341 0.255901 0.868 41 15 11
-1.05509 -0.644869 2.121 148 154 152
0.088204 -0.261005 1.575 14 15 6
0.272334 -0.0760967 1.043 8 9 5
-0.4018 0.39249 1.275 127 142 139
-0.281758 0.370764 1.286 134 133 133
0.386535 0.0378423 0.856 46 22 6
-0.831922 -0.636488 2.151 153 154 148
0.419807 0.225338 0.91 22 20 1
0.18143 0.134481 1.498 71 66 48
0.131075 0.357884 1.27 139 140 136
0.292732 0.381515 1.22 68 66 73
0.304495 0.397366 1.196 53 60 52
0.200964 -0.0895693 1.729 3 7 0
0.168533 -0.246874 1.583 2 7 0
-0.287738 -0.718553 2.278 137 133 126
-0.970202 -0.781758 2.037 150 159 150
0.344903 -0.435337 1.281 18 16 30
-0.572063 0.329887 1.359 131 140 133
-0.318363 0.304018 1.362 133 134 130
-0.153627 0.179108 1.484 143 138 136
-0.151313 -0.2283 1.953 159 152 144
-0.170665 0.0751891 0.325 13 18 8
-0.381223 -0.0423166 1.753 154 148 150
-0.872677 -0.0589363 1.826 127 135 124
0.244199 -0.401713 1.267 13 28 43
-0.373572 0.340267 1.322 140 139 139
0.0622726 0.234368 1.396 153 147 149
-0.332788 -0.0749996 1.784 149 145 136
0.275869 -0.253042 1.112 19 15 8
0.337488 0.415796 1.182 56 50 35
0.109017 0.123455 1.543 123 118 116
0.313603 -0.148099 0.991 16 7 10
0.301674 -0.0864079 1.005 5 13 10
0.134688 0.321026 1.305 103 103 99
-0.543037 -0.559125 2.356 133 128 124
-0.104146 0.156838 1.502 146 143 138
-0.766033 -0.12579 1.893 137 138 134
0.301801 -0.160835 1 15 23 20
0.366375 -0.323616 1.112 91 92 83
-0.612045 -0.734664 2.204 148 145 142
-0.168717 0.358207 1.286 137 138 134
0.228071 -0.414573 1.342 31 11 3
-0.398319 0.4577 1.196 121 136 131
-0.0767528 -0.196016 1.917 154 150 141
0.338729 -0.0222646 0.989 4 5 1
-0.528089 0.374118 1.305 127 135 132
-0.432383 -0.0921748 1.837 141 137 138
-0.297332 0.219877 1.466 147 142 140
-0.156004 0.0907808 0.344 6 14 3
0.352784 0.0242056 1.05 34 27 6
-1.16216 -0.414857 2.22 135 140 128
0.420249 -0.234124 0.889 112 117 107
-0.651562 -0.207425 1.966 141 139 131
-0.00408215 0.102686 1.571 146 141 139
-0.364954 0.442635 1.208 135 147 149
0.373151 0.0664747 1.017 23 20 6
-0.540352 0.205175 1.498 145 147 138
0.116175 0.390095 1.222 139 139 139
-1.09982 -0.436817 2.278 135 139 134
-0.0848731 -0.317677 2.037 146 137 140
-0.810986 -0.729664 2.189 151 151 147
-0.372841 0.361271 1.297 123 135 137
-0.375997 0.0224717 1.691 138 137 139
-0.605866 0.289903 1.412 134 144 132
-0.248911 0.10347 1.583 136 128 127
0.288721 -0.0692347 1.017 6 7 3
0.324528 0.214535 1.4 50 46 35
-0.0418749 0.394649 1.249 136 138 129
-0.305632 0.319922 1.345 140 140 134
0.442055 -0.0939063 0.904 3 8 0
-0.68163 0.167864 1.559 127 136 129
-0.888632 -0.794807 2.071 153 158 148
-0.426966 0.301125 1.369 131 137 135
-0.0886822 -0.682035 2.411 143 136 126
0.424014 0.244744 0.939 37 20 6
0.414906 0.201423 0.909 36 19 1
-0.434596 0.0512134 1.642 141 140 140
0.238648 -0.449373 1.316 62 22 7
0.041012 0.283302 1.369 143 143 143
0.110371 -0.21294 1.599 6 10 5
0.386447 -0.378897 1 178 185 179
-0.13905 0.423677 1.21 131 133 122
0.314853 -0.0423575 0.97 9 10 4
-0.804615 -0.76062 2.107 156 153 150
-0.971707 -0.161062 1.947 121 129 116
0.354843 0.144118 1.359 18 21 5
0.398538 -0.323332 0.97 140 142 131
0.40821 -0.00269778 0.904 82 26 0
-0.152756 0.130698 0.352 5 12 6
0.256995 0.364161 1.249 106 104 94
0.278887 -0.335666 1.229 4 22 45
0.412606 0.263423 1.05 17 10 0
0.401023 0.181578 1.051 25 16 11
0.15111 0.395769 1.215 130 129 129
-0.756368 0.0663041 1.686 133 134 128
-1.00315 -0.4091 2.228 129 130 121
0.325693 -0.356534 1.232 3 15 33
0.112718 0.040303 1.633 114 108 112
-0.610614 -0.121219 1.87 141 138 133
-0.227396 0.291257 1.375 143 144 135
-1.07702 -0.321454 2.151 125 132 124
0.373275 -0.137068 0.97 6 14 11
0.399533 -0.335971 0.961 167 167 167
0.348598 -0.012914 1.013 2 3 0
0.0367438 0.333833 1.297 141 141 135
-0.756332 -0.28011 2.078 141 141 137
0.390249 0.0480706 0.84 54 26 7
-0.218348 0.0559375 1.624 152 144 143
0.379037 -0.112006 0.945 7 17 5
-0.362219 0.417701 1.239 125 140 135
0.285959 -0.00984485 1.037 0 7 1
-0.721968 -0.185029 1.966 142 138 131
-0.836555 0.133472 1.603 126 134 131
-0.113191 0.0757034 1.595 144 140 133
0.276436 -0.349096 1.227 8 29 48
0.231188 0.0259901 1.571 49 50 41
-0.906461 -0.516472 2.286 150 148 140
-0.143967 -0.0535742 1.748 158 148 146
-0.844712 -0.413362 2.212 137 137 131
0.414561 0.211938 0.978 22 19 5
0.42125 0.313485 1.046 17 11 0
-0.156211 0.0830179 0.342 45 46 61
0.403931 0.235144 1.077 15 13 1
-0.990226 -0.780647 2.017 156 157 148
-0.656787 0.055034 1.677 135 136 130
0.0891943 0.38991 1.234 135 131 120
-0.163483 0.0786656 0.333 19 18 18
-0.15825 0.356114 1.286 133 129 130
-1.12474 -0.407801 2.261 132 130 120
-0.447159 -0.578295 2.356 112 97 96
-0.420913 -0.159676 1.893 144 138 140
0.290119 -0.484466 1.336 16 30 21
0.323297 0.194211 1.435 47 44 30
0.0418225 -0.54568 2.253 136 128 125
-0.893317 -0.780348 2.114 151 155 148
0.202866 0.388499 1.217 131 135 128
-0.598212 0.0852699 1.629 135 130 128
-0.035331 0.172211 1.487 155 146 151
-0.981199 -0.525541 2.261 144 146 133
0.286412 -0.0236069 1.339 3 4 0
-0.496649 -0.0785578 1.799 139 135 128
-0.394377 -0.200382 1.929 146 142 135
0.146463 0.34766 1.278 119 126 120
-0.260092 0.328652 1.336 139 136 133
0.439064 -0.0308522 0.91 39 46 24
-0.627874 -0.462992 2.261 157 149 146
0.323778 0.0537828 1.491 28 21 13
0.432785 -0.311895 0.888 178 186 183
-0.486859 0.204216 1.491 137 140 141
0.0125716 -0.804332 2.269 141 129 127
-0.430086 0.221808 1.463 150 143 137
0.379638 -0.0358378 0.924 7 11 4
-0.860699 -0.790001 2.085 159 151 150
0.0995235 0.404988 1.213 127 131 126
-1.00668 -0.353031 2.173 132 132 126
0.413427 -0.0530069 0.909 4 12 9
-0.169301 -0.179288 1.905 158 149 144
-0.0171263 0.0808945 1.595 160 151 154
0.373295 -0.408094 1.05 142 144 133
0.395536 0.080011 0.831 33 25 11
0.0648072 0.293419 1.354 139 136 131
-0.627953 -0.26295 2.024 146 141 139
0.327073 -0.175697 0.983 10 14 9
-0.500131 0.221977 1.48 142 143 139
-0.312325 0.0962261 1.591 150 145 143
-0.543741 -0.765286 2.189 152 154 143
0.214229 -0.437564 1.409 1 4 3
-0.723702 -0.38132 2.173 144 143 143
0.0883539 -0.38296 1.491 15 15 15
-0.0272428 -0.0506135 1.744 151 141 141
0.199303 0.356266 1.257 107 105 97
0.156955 0.363844 1.262 132 133 127
-0.668375 -0.193934 1.959 136 132 133
0.427682 -0.215536 0.954 102 104 91
-0.0263368 0.00045587 1.686 147 136 140
-0.428758 -0.367527 2.114 149 141 140
0.318106 0.00461076 1.308 21 13 10
0.187679 0.267121 1.366 115 106 101
0.430065 0.2403 0.843 31 24 5
-0.929039 -0.120387 1.905 129 129 123
0.230306 -0.338597 1.27 14 29 44
-0.439788 0.350192 1.327 132 131 133
0.0851465 0.43931 1.178 125 125 127
-0.441316 -0.661555 2.286 154 151 146
-0.162724 0.118211 0.344 11 10 10
-0.495281 0.393784 1.286 137 145 142
0.37302 -0.0723925 0.93 6 11 1
0.378109 0.218587 1.302 40 38 28
0.365825 0.0627157 1.162 35 23 5
-0.414368 0.10685 1.595 143 143 137
-0.222624 0.365723 1.283 132 131 133
0.413853 0.187406 0.852 35 23 3
0.382118 -0.305803 1.1 60 61 55
0.227817 0.41772 1.182 104 116 108
-0.649099 -0.218347 1.978 143 137 139
-0.592884 0.21672 1.477 136 148 140
-0.433631 -0.379099 2.121 147 142 140
0.404338 0.272882 1.102 14 7 0
-0.4917 0.329401 1.357 147 153 151
0.316898 -0.363665 1.229 5 40 73
-0.123683 0.137533 1.532 149 140 145
0.0592543 -0.240669 1.876 123 114 109
0.39564 0.0522637 0.82 81 40 3
-0.406107 0.4577 1.196 128 141 140
0.186285 -0.162899 1.673 3 4 0
0.0205763 0.405655 1.215 138 139 130
-0.183285 0.434929 1.203 143 140 126
-0.674417 -0.627096 2.269 155 153 145
-0.873805 -0.288806 2.092 133 135 117
0.0742759 0.448811 1.158 134 138 131
0.201427 -0.300119 1.539 2 6 1
-0.199491 0.210335 1.466 135 129 131
0.280683 -0.0152913 1.375 5 7 0
-0.350594 -0.707 2.253 148 148 144
0.342942 0.0341365 1.222 18 16 6
0.433274 -0.332943 0.898 204 211 217
0.220665 -0.0895693 1.729 6 10 5
0.374044 -0.142096 0.972 10 14 9
-0.673295 -0.522397 2.329 149 146 141
0.0746514 0.301883 1.333 141 136 132
-0.130402 -0.458935 2.189 140 135 131
0.260803 0.399027 1.201 92 89 75
0.187017 0.388499 1.217 133 131 123
0.392122 0.036066 0.847 79 40 7
-0.0215256 0.26274 1.378 151 145 147
-0.00581011 -0.821743 2.236 136 134 124
0.392671 0.368221 1.222 45 48 32
0.368415 0.328141 1.283 52 50 31
0.0851239 -0.355779 1.52 15 13 5
-0.119113 -0.149865 1.848 152 143 146
-0.113582 0.203178 1.466 151 142 145
0.406781 0.163643 0.994 30 22 8
0.107498 -0.230576 1.595 4 11 5
0.357786 0.0611147 1.205 24 14 12
-0.217085 0.380041 1.275 129 129 123
-0.902946 -0.635509 2.196 149 153 148
0.360583 -0.0778427 0.941 11 11 11
-0.43139 0.377921 1.289 128 139 139
-1.12883 -0.313283 2.143 132 132 128
0.288591 0.290168 1.339 58 55 41
0.321617 -0.0891337 0.981 8 14 14
0.0418131 -0.730586 2.469 157 143 139
0.237977 -0.0154247 1.387 19 17 7
-0.385722 -0.71148 2.244 154 150 143
-0.0852095 0.327359 1.322 143 140 135
0.272886 -0.357665 1.229 9 21 27
0.26163 0.258796 1.369 59 61 45
0.311115 0.378164 1.222 51 56 46
0.229741 0.41772 1.182 105 108 107
0.42137 -0.243542 0.856 143 155 157
0.412421 0.205286 0.992 30 24 0
0.246096 0.287091 1.345 101 96 92
-0.580482 -0.0984208 1.842 143 139 142
0.0675334 0.386374 1.242 136 137 131
-1.09611 -0.436817 2.278 135 139 134
0.447535 0.373891 0.977 17 13 4
-0.75301 -0.588091 2.261 152 153 149
-0.793944 -0.33072 2.143 139 140 131
-0.23204 0.0988152 1.591 148 140 137
-0.434428 -0.0604839 1.784 140 137 134
0.200929 -0.185833 1.659 2 6 1
0.379663 0.116155 1.13 28 18 6
-0.114681 0.055662 1.616 148 140 137
-0.352218 0.219877 1.466 144 143 143
0.188929 0.27681 1.359 105 101 92
0.419232 0.213863 0.893 29 21 7
0.102958 -0.00229459 1.691 121 116 114
-0.164458 0.341476 1.302 139 135 140
0.392431 -0.297975 1.007 121 128 122
-0.399878 -0.287843 2.037 148 149 140
-0.00131715 0.294069 1.357 149 141 140
0.375721 -0.359805 1.015 154 162 159
-0.845978 -0.764563 2.099 156 152 145
-0.622658 -0.00517473 1.734 145 143 135
0.333614 0.0394952 1.336 15 6 0
0.273627 -0.0546102 1.299 2 7 0
0.371827 0.186903 1.381 29 31 18
-0.09034 0.371159 1.273 138 137 139
-0.930409 -0.716256 2.128 144 153 146
-0.522353 -0.853023 2.204 161 156 152
-1.16843 -0.50535 2.253 143 156 153
0.0859844 0.406323 1.217 139 139 135
-0.164773 0.109321 0.339 8 12 7
0.369276 0.186602 1.286 21 26 12
0.436445 -0.170705 0.861 111 118 110
-0.424839 -0.327452 2.078 141 140 142
-0.497239 -0.842263 2.204 160 157 152
0.399539 0.0927244 0.888 26 19 2
-0.570502 -0.753439 2.196 149 151 138
0.199595 -0.482645 1.387 6 11 16
-0.685251 -0.433949 2.244 149 147 139
0.340808 0.0228398 1.066 5 13 2
0.400704 0.264143 1.247 35 34 19
0.376061 -0.296313 1.098 51 52 43
-0.622391 0.0199415 1.71 133 134 125
0.440948 0.286762 0.917 32 18 3
-0.155348 -0.0535742 1.748 159 150 145
-0.533492 0.0699179 1.642 139 131 130
-0.559763 0.117233 1.595 136 138 129
0.347409 0.00532755 1.034 27 26 11
-0.169054 0.0628805 0.327 18 19 8
-0.919048 -0.512683 2.253 153 150 145
-0.146067 0.448461 1.187 137 138 132
0.114676 0.376356 1.249 136 136 130
-0.859186 -0.257195 2.057 127 134 126
0.324099 0.340085 1.273 54 48 33
-0.315252 0.377042 1.286 129 132 135
-0.136352 -0.822429 2.228 140 135 131
0.12854 0.333094 1.286 114 111 106
0.436137 -0.314076 0.886 180 191 189
-0.689292 -0.358619 2.143 144 140 131
-0.986425 -0.776044 2.057 151 151 151
0.174432 -0.368092 1.48 4 9 0
-0.55571 0.180979 1.52 133 133 135
0.415727 -0.144417 0.977 14 22 19
-0.0906656 0.281691 1.372 149 144 142
0.104113 0.082862 1.583 122 114 111
-0.0853724 0.429056 1.203 133 134 128
0.175811 -0.127811 1.677 2 6 0
-0.162452 0.0660031 0.332 38 36 50
-0.0365329 0.222853 1.439 142 136 138
-0.311065 0.374949 1.286 132 132 134
0.238709 0.0494979 1.587 49 47 37
-0.147372 0.137202 0.357 8 11 14
-0.278626 0.45423 1.192 126 126 128
0.396964 0.0409413 0.834 81 39 9
0.389605 0.424726 1.154 48 51 33
-0.438123 0.124392 1.587 143 144 140
-0.395789 0.118927 1.583 153 150 145
-0.171066 0.288389 1.372 147 144 141
0.120074 0.205887 1.435 144 139 137
0.358431 0.0351798 1.072 40 28 12
-0.858608 -0.43292 2.22 140 137 134
0.429918 0.299708 0.984 24 13 8
0.109543 0.0779062 1.587 123 115 114
-0.0637255 0.424434 1.201 135 133 125
-0.487058 -0.187241 1.923 143 140 137
0.377787 0.108002 1.141 34 18 11
-0.0241494 -0.250548 1.953 137 128 121
0.264883 0.37233 1.229 103 103 97
0.144472 0.280819 1.357 115 109 111
0.20093 -0.207344 1.637 3 4 0
