ply
format ascii 1.0
comment Created by Open3D
element vertex 1344
property double x
property double y
property double z
property uchar red
property uchar green
property uchar blue
end_header
0.182016 -0.147511 0.475 37 34 29
-0.0960852 0.0578313 0.581 254 255 249
0.127378 -0.109197 0.494 115 125 130
-0.255666 0.15165 0.526 131 124 105
0.0495243 -0.0300436 0.53 68 67 67
0.219549 -0.0405727 0.481 54 65 88
0.178115 0.0270401 0.501 47 63 100
-0.137603 0.200294 0.597 55 24 11
0.185967 0.152965 0.516 39 93 135
0.0419172 -0.00505059 0.532 222 255 255
-0.451759 -0.0200471 1.041 180 139 100
0.183559 -0.117859 0.477 39 35 36
-0.24801 0.185454 0.578 109 78 67
0.0559918 -0.0917422 0.518 40 32 29
-0.228495 0.0861746 0.714 253 198 165
-0.105516 -0.192132 0.542 78 65 54
0.169193 0.0666634 0.511 60 80 75
0.181809 -0.0444306 0.489 152 184 204
0.15321 0.0740333 0.516 61 79 77
-0.00681326 0.0225654 0.551 101 232 255
-0.486376 -0.201927 0.994 222 187 141
-0.0360304 0.0110673 0.559 209 255 255
0.0557874 -0.0424943 0.524 250 255 251
0.236446 -0.1337 0.462 28 32 27
0.10996 0.198082 0.543 20 17 14
-0.501493 -0.319886 0.955 184 159 121
-0.0791373 -0.0730065 0.555 252 255 251
0.126483 -0.0747219 0.5 42 45 44
-0.289297 0.117057 0.748 238 195 160
0.0910926 0.197273 0.536 2 15 26
0.185465 0.0756622 0.51 62 80 74
-0.261286 0.131321 0.507 130 114 91
-0.0528781 0.0230978 0.564 151 255 255
0.0933181 0.00611072 0.524 53 73 88
-0.504961 0.0339967 1.09 171 131 89
-0.335079 0.132241 0.731 162 124 88
0.0175931 0.102576 0.557 56 68 74
0.0696474 -0.0908566 0.513 35 32 27
-0.051378 -0.0640597 0.548 252 255 251
0.249306 0.0984082 0.495 57 80 72
0.0707615 -0.119139 0.509 45 34 27
-0.347636 0.121827 0.74 245 201 169
-0.1373 0.196684 0.613 49 20 6
0.133824 0.0491262 0.519 65 84 102
0.251513 0.157487 0.501 87 118 143
-0.394298 -0.273188 0.944 143 113 79
-0.00237515 0.123617 0.562 85 64 47
0.107805 -0.0687583 0.504 45 49 44
-0.454028 0.074588 1.087 173 130 95
-0.208505 0.154536 0.62 229 187 145
-0.0599622 -0.179873 0.537 64 46 37
0.184635 0.0823017 0.51 67 82 79
-0.462502 -0.00655088 1.05 178 137 100
-0.0540541 -0.0631679 0.548 252 255 251
0.124972 0.153086 0.528 26 18 17
-0.290702 0.148608 0.707 62 40 16
0.023534 -0.179606 0.509 95 82 88
0.0317825 -0.100096 0.522 40 33 27
0.173288 -0.0855434 0.483 184 216 246
-0.19524 0.165125 0.607 254 202 162
-0.00849776 -0.033493 0.544 96 69 61
0.0569646 -0.0341616 0.527 134 161 174
0.0685073 -0.0646425 0.517 30 33 34
0.00828131 0.187668 0.541 42 11 39
0.175048 0.134099 0.521 28 34 36
0.204054 -0.0141335 0.487 141 161 185
-0.060906 -0.196503 0.53 110 99 107
0.230047 0.156789 0.504 56 101 128
0.158999 0.0627502 0.513 59 79 72
-0.00483723 -0.119968 0.531 44 35 26
0.0263728 0.0925048 0.551 50 124 93
0.0604617 -0.121745 0.513 48 37 30
-0.438523 -0.0945221 1.022 142 109 71
0.123474 -0.0830243 0.501 36 45 38
-0.106328 -0.0286008 0.57 201 191 189
-0.586778 0.136986 1.135 168 132 93
0.218642 0.154727 0.508 70 106 132
0.24219 0.0213968 0.484 21 29 26
-0.149477 -0.00267012 0.579 53 36 18
-0.0479021 -0.138441 0.539 52 39 28
0.0150998 -0.0510305 0.533 250 255 251
-0.0322282 0.190309 0.541 14 8 10
0.0189274 -0.146817 0.519 62 46 39
0.111406 0.157137 0.533 19 19 15
-0.492026 -0.0441842 1.051 175 138 104
0.184051 0.106161 0.513 62 85 79
-0.142083 0.17695 0.639 25 16 7
0.0973328 -0.0976578 0.505 208 241 255
-0.00888828 0.176084 0.569 71 9 8
0.0821307 0.186993 0.552 10 17 41
0.114398 -0.121992 0.497 42 38 29
-0.215042 0.159545 0.583 237 193 152
0.232163 -0.104749 0.467 42 43 34
-0.373214 -0.0181591 1.03 176 131 93
0.0314734 0.184893 0.562 36 15 40
0.221115 -0.0358762 0.481 62 75 102
-0.103697 0.0320253 0.576 254 255 245
0.233887 -0.156795 0.457 45 53 52
0.123474 -0.0748714 0.501 43 49 47
0.196366 0.0882436 0.506 58 81 77
0.232859 -0.0076974 0.481 19 31 45
0.0756935 -0.00156973 0.526 250 255 254
-0.300318 0.1406 0.719 61 39 31
0.242807 -0.0107834 0.479 24 26 17
0.0664138 0.0322971 0.534 39 45 56
-0.41779 -0.163903 0.97 253 195 152
-0.134872 0.206729 0.577 45 22 3
-0.448058 -0.134788 0.988 141 103 63
-0.419821 -0.0969867 1.013 145 108 65
-0.312582 -0.2421 0.925 150 116 81
0.224367 -0.0837723 0.473 129 148 152
0.131652 -0.0784751 0.498 39 42 41
0.191424 0.0898905 0.506 65 83 79
-0.262654 0.183159 0.528 134 107 85
-0.0333613 -0.160581 0.531 60 42 33
-0.294466 0.14294 0.719 68 49 36
0.0991873 0.0628665 0.528 150 186 194
0.10069 0.152788 0.536 18 18 12
-0.448662 -0.0852051 1.03 144 108 71
0.107781 -0.170957 0.489 49 46 41
0.0118318 0.158458 0.586 17 63 135
-0.0851673 -0.0407843 0.559 255 255 197
-0.133334 0.0588266 0.591 64 66 55
0.0532751 0.00881778 0.533 138 207 228
0.240796 -0.0528712 0.472 32 29 26
-0.242564 0.181366 0.583 112 91 60
0.0935239 0.0682796 0.53 214 242 255
0.0860828 0.0668057 0.532 192 222 245
-0.336973 -0.213954 0.947 173 130 93
0.0976529 0.0647073 0.529 230 255 255
-0.579388 0.0908108 1.135 167 131 90
0.252232 0.173672 0.496 20 30 18
-0.170143 0.156831 0.713 58 24 12
0.22307 0.0604261 0.494 23 27 39
0.0386471 0.0864923 0.547 63 89 74
-0.307289 0.130872 0.73 194 156 129
-0.472798 -0.12385 1.017 137 106 65
-0.0438243 -0.0332072 0.554 93 70 51
0.188651 0.0566157 0.503 22 32 37
-0.0850668 -0.17417 0.541 59 40 38
0.00884019 -0.142569 0.522 55 39 32
0.161266 0.0257138 0.507 147 178 205
0.182502 0.163125 0.511 17 21 14
0.0271647 -0.151552 0.515 63 42 37
0.148459 -0.0348524 0.5 202 226 254
-0.231254 0.198106 0.558 35 22 11
-0.0303543 -0.10511 0.539 43 32 25
0.201366 0.0348418 0.496 166 202 226
0.0779981 -0.080004 0.513 38 45 49
0.0863471 -0.0479084 0.518 250 255 251
0.00380642 -0.097501 0.531 43 36 30
-0.342326 -0.28394 0.924 182 138 106
-0.0129967 -0.00341269 0.547 250 255 254
0.0978009 -0.137911 0.499 78 75 59
0.155378 -0.0861612 0.491 61 54 92
-0.120503 -0.165432 0.55 50 40 28
0.17111 -0.05784 0.488 44 57 93
0.0764776 -0.148021 0.503 54 40 36
-0.0874226 0.124745 0.58 51 28 23
-0.0318749 0.0701542 0.566 69 31 73
0.0366523 -0.0413338 0.531 177 207 228
-0.106695 0.00485086 0.577 226 207 194
-0.0343545 -0.144706 0.533 54 36 25
-0.273365 0.140012 0.722 87 53 31
0.0119566 0.0402781 0.548 75 159 178
0.284668 0.228669 0.59 73 74 68
0.057136 0.0959319 0.545 138 110 80
-0.398901 -0.185184 0.974 221 180 129
-0.172811 0.211048 0.54 32 25 15
-0.00840403 -0.0576377 0.538 252 255 251
0.079921 -0.17971 0.489 250 255 251
-0.0217806 -0.0458868 0.544 114 88 86
0.171684 -0.171963 0.47 250 255 251
-0.0269942 -0.0765885 0.542 48 43 41
0.0414694 0.135052 0.549 48 27 26
-0.0864785 0.124745 0.58 53 30 25
0.191847 0.147087 0.516 130 161 186
0.0526754 -0.0367344 0.527 176 209 222
0.145884 -0.140646 0.486 41 37 28
0.0799788 -0.0576879 0.515 74 92 99
0.0397543 0.135298 0.55 44 25 21
-0.382929 -0.285799 0.935 150 115 89
0.254359 0.182919 0.497 34 33 18
0.192118 0.140341 0.519 26 36 39
0.0879295 0.149856 0.538 23 18 14
-0.0338962 0.0918229 0.569 73 85 87
0.0558837 -0.0974544 0.517 37 30 24
0.13682 0.203089 0.524 13 18 8
-0.0530331 -0.0179456 0.556 196 194 210
-0.0663694 0.180458 0.554 39 23 18
0.206624 0.127368 0.511 43 56 51
-0.244381 0.154301 0.592 184 157 122
0.217213 0.210177 0.592 60 60 54
-0.143521 0.161266 0.702 64 30 18
-0.110271 0.0219031 0.581 170 143 135
0.0762516 -0.174852 0.491 250 255 249
-0.576878 0.128426 1.141 168 132 93
0.177224 0.114117 0.515 57 84 79
0.0251762 0.197872 0.526 72 50 40
0.0260819 -0.0633201 0.527 46 51 60
-0.207147 0.161316 0.593 212 176 135
-0.203437 0.165414 0.577 216 179 134
-0.38135 -0.334047 0.913 145 119 90
-0.0865071 -0.18756 0.539 59 45 30
0.253232 0.22053 0.569 62 65 64
0.00998691 -0.0269951 0.538 72 81 102
0.194465 -0.0949683 0.479 250 255 254
0.207095 -0.103233 0.474 39 43 36
-0.136882 0.180069 0.639 15 13 3
-0.178031 0.185161 0.583 129 103 90
0.010681 -0.0902469 0.529 42 34 33
-0.289296 -0.214872 0.918 221 178 139
0.222247 -0.174898 0.45 49 67 63
-0.143438 0.0609557 0.593 76 77 64
0.163051 0.0540838 0.51 43 67 81
0.150133 -0.183448 0.472 252 255 251
0.221023 0.174013 0.504 18 25 19
0.133947 0.0201744 0.513 53 71 96
-0.093474 -0.152624 0.549 54 34 26
0.0745123 -0.0856804 0.512 35 30 26
0.0622527 -0.0558165 0.521 47 53 95
-0.0390375 0.038632 0.563 19 136 155
0.10144 -0.160321 0.493 72 104 122
-0.434081 -0.353502 0.937 143 123 87
0.0264262 -0.185751 0.501 250 255 251
-0.032266 0.164341 0.59 15 11 12
-0.0708608 -0.0290621 0.561 114 77 47
-0.128621 -0.101364 0.562 45 37 23
0.216827 0.0839426 0.5 57 75 71
0.110377 0.0368087 0.524 60 80 77
-0.0324817 -0.194207 0.517 250 255 251
-0.384812 -0.0721881 1.012 147 109 73
-0.399852 -0.257989 0.939 151 116 88
-0.538219 -0.0852319 1.051 140 106 71
-0.475813 -0.2192 0.999 185 149 110
-0.0760931 0.130408 0.58 62 33 21
-0.125851 -0.0726113 0.566 58 50 36
0.230428 -0.15524 0.459 94 116 117
-0.443271 -0.0267202 1.037 176 135 98
0.143097 -0.115489 0.49 39 40 36
0.031178 0.040644 0.541 207 255 255
0.0239796 -0.18249 0.501 250 255 251
0.245277 0.108075 0.495 61 84 76
-0.498263 0.0303653 1.087 170 132 94
-0.285456 0.148775 0.697 61 42 17
0.0985435 -0.089794 0.507 42 45 44
0.0144191 -0.0121566 0.54 82 100 127
0.167373 0.0472583 0.508 195 227 255
0.164115 0.143399 0.524 93 119 146
-0.229337 0.188561 0.576 156 127 88
0.13809 0.0471628 0.516 159 196 217
0.19241 0.0465141 0.5 155 192 209
0.130868 0.127168 0.531 23 35 39
0.195929 0.0966686 0.507 60 85 76
0.0727031 -0.104639 0.511 40 32 31
0.118569 0.133969 0.534 241 154 175
-0.464512 -0.0319668 1.043 175 138 95
0.0978009 -0.135475 0.499 91 91 71
-0.133821 0.192876 0.62 47 26 9
-0.303392 0.151508 0.669 42 33 16
-0.424125 -0.210461 0.981 184 146 108
0.222944 -0.0924191 0.47 250 255 251
-0.169696 0.181018 0.604 63 32 30
-0.251795 0.156208 0.635 66 43 22
-0.0899268 0.0951939 0.584 250 255 251
-0.144704 -0.173882 0.557 127 96 69
-0.062309 -0.0821941 0.55 53 45 42
-0.519706 0.109072 1.114 168 130 90
0.212332 0.0732182 0.499 62 82 75
-0.253097 0.13881 0.526 55 47 35
0.211812 0.037113 0.494 92 106 137
-0.489338 -0.0135131 1.06 174 136 100
0.214851 -0.0476174 0.481 149 181 188
-0.354751 -0.224849 0.941 215 174 137
-0.0595821 -0.016194 0.558 250 255 254
0.180359 0.162611 0.512 20 20 14
0.240898 0.0856277 0.491 66 80 71
0.0245974 -0.0457403 0.532 240 255 255
0.229552 -0.0216962 0.479 158 189 205
0.218606 0.0514788 0.493 178 208 240
0.171461 -0.0993382 0.489 250 255 254
0.0951014 0.178524 0.565 16 13 10
-0.262046 0.189741 0.532 121 112 95
-0.057662 -0.0288549 0.557 91 74 56
-0.384809 0.0987959 1.062 173 128 94
0.11278 -0.124418 0.497 42 38 29
0.0941817 0.173008 0.565 21 16 12
0.0428417 -0.142337 0.512 58 40 31
0.0317216 -0.110926 0.521 51 37 31
0.152213 -0.160333 0.481 42 37 35
0.200417 -0.127107 0.471 37 39 30
-0.0337771 0.0822732 0.567 95 61 167
-0.340292 -0.00464388 1.007 180 135 97
-0.0447261 -0.0332072 0.554 93 70 51
0.1926 0.203592 0.532 19 16 2
0.223743 0.00486666 0.485 52 62 90
0.0718081 -0.169581 0.499 69 57 57
-0.0119735 0.19119 0.541 50 37 26
-0.218379 0.20083 0.553 31 25 10
-0.0246169 -0.0355229 0.548 95 66 56
0.0785168 -0.0151492 0.522 53 63 51
-0.0210199 -0.172436 0.525 68 48 38
-0.256051 0.102657 0.5 129 112 85
0.109373 -0.172549 0.489 51 46 44
-0.00876331 0.179086 0.561 18 10 9
-0.191509 0.18188 0.564 149 119 87
0.0763721 0.125624 0.543 208 255 255
-0.0687654 0.0599367 0.574 95 59 47
-0.115946 0.00961187 0.581 199 206 210
-0.240386 0.100952 0.755 252 199 168
-0.212257 0.165701 0.578 235 193 163
-0.171981 0.158705 0.711 61 26 11
-0.218408 0.154281 0.611 204 175 132
-0.0666695 0.147285 0.615 130 75 40
0.18823 -0.0875374 0.481 141 181 183
0.0139664 0.134301 0.557 31 24 16
-0.0124264 -0.177737 0.523 72 57 47
0.181063 0.112223 0.514 61 84 78
-0.423513 -0.0231876 1.03 178 138 96
-0.0451338 0.189205 0.548 19 8 3
0.0020503 -0.138852 0.524 52 36 29
0.0751986 -0.0905024 0.511 36 31 27
-0.222234 0.152679 0.684 79 46 8
0.121994 -0.0524587 0.505 40 57 62
0.140922 0.19616 0.55 11 35 49
0.109544 -0.131697 0.497 45 41 34
0.179355 -0.034225 0.491 129 156 178
-0.183201 0.170747 0.613 180 143 111
0.0166565 0.131346 0.556 39 23 18
-0.259216 0.162537 0.528 128 106 80
0.230688 0.0311033 0.488 25 23 34
0.176728 0.117698 0.516 64 84 79
-0.0642162 -0.0796536 0.551 58 53 49
0.0460733 -0.0136564 0.53 139 157 191
0.169633 0.151612 0.52 47 43 69
-0.15982 0.154197 0.631 238 190 153
-0.484194 -0.1629 0.983 235 188 146
0.0281437 0.164741 0.588 45 12 15
-0.0825594 0.0670544 0.579 82 56 45
-0.13066 -0.0354017 0.575 60 52 40
-0.252387 0.123925 0.521 133 117 96
0.049277 -0.187599 0.493 115 123 151
0.119406 0.108816 0.53 67 84 85
-0.0863861 -0.00353747 0.567 246 186 128
0.175296 0.0537657 0.507 159 186 210
-0.295016 0.116431 0.744 222 180 150
0.171271 0.203975 0.533 16 21 9
0.047002 0.119405 0.551 154 143 89
0.098248 0.0129078 0.523 56 76 73
0.17899 -0.0389397 0.49 201 236 255
0.159194 -0.0880172 0.488 203 225 247
-0.332742 -0.191296 0.957 187 144 107
-0.545212 -0.0918104 1.048 145 114 75
-0.0277736 -0.0894873 0.54 44 36 35
0.00123617 -0.0297868 0.541 90 71 69
-0.107249 0.0350793 0.58 177 147 140
0.0640697 0.00961246 0.529 45 56 67
-0.329996 0.113276 0.772 197 150 126
-0.092461 0.118546 0.582 41 32 23
-0.181677 0.15806 0.618 184 147 113
-0.00701111 0.136712 0.567 29 22 14
0.13977 0.043804 0.516 191 222 247
0.235415 0.103057 0.498 63 81 75
-0.533237 -0.00497592 1.079 175 137 99
-0.140674 -0.111739 0.559 64 43 26
-0.447545 0.0019945 1.051 180 137 98
0.034444 0.00888395 0.537 238 255 253
0.104597 -0.17971 0.489 75 73 80
-0.159151 0.0716915 0.594 48 34 19
0.201522 -0.130661 0.47 41 39 31
0.162163 -0.103261 0.485 248 255 253
-0.389227 0.0104959 1.046 177 134 95
-0.587812 0.133527 1.137 166 130 91
0.0746913 -0.153445 0.502 48 38 36
-0.0690873 -0.166818 0.54 58 42 35
0.127855 -0.085941 0.499 45 48 51
0.126026 -0.0254898 0.508 45 63 59
0.0802162 -0.0151492 0.522 54 64 52
0.0447158 0.0861761 0.545 47 47 43
-0.197584 0.17908 0.464 161 139 113
0.1882 -0.060099 0.487 82 99 111
-0.506999 0.103261 1.11 171 133 95
-0.33738 0.0367209 1.018 174 129 95
-0.0371654 -0.134181 0.536 50 36 28
0.0374728 0.185633 0.556 35 21 34
0.135968 -0.0805814 0.496 72 62 74
0.217267 -0.0781068 0.476 152 187 202
-0.168036 0.1958 0.578 33 22 13
0.0391715 -0.0102065 0.53 247 255 254
-0.0970503 -0.17425 0.544 55 39 36
-0.121404 -0.189996 0.546 45 32 21
-0.0650966 0.196418 0.529 43 28 16
0.206374 -0.0298605 0.485 221 255 255
0.185745 0.0567283 0.504 26 40 60
-0.518631 -0.0865286 1.046 142 110 74
-0.244328 0.129921 0.752 79 42 26
0.047725 0.143093 0.549 26 18 17
0.21524 0.0168433 0.489 181 211 232
0.05212 0.0510193 0.539 64 139 143
0.168329 0.00747309 0.501 199 241 255
-0.343875 0.117853 0.761 164 125 96
0.10019 0.161238 0.538 30 30 24
0.225125 0.125623 0.504 53 79 79
0.0788331 -0.0783343 0.513 68 73 80
0.0292218 0.110138 0.554 32 42 49
0.15354 -0.0330921 0.498 172 197 220
-0.198321 0.153861 0.71 58 25 8
-0.254798 0.14203 0.519 92 82 70
0.171591 0.0123648 0.501 154 178 206
0.0467745 0.178448 0.559 29 15 30
-0.18589 0.169473 0.612 188 150 114
-0.0338962 0.114046 0.569 130 126 154
-0.0282891 0.116618 0.568 63 52 45
-0.252569 0.17916 0.582 104 87 58
0.112074 0.0196035 0.52 52 74 73
-0.0840597 0.0177781 0.57 227 181 134
0.213955 0.207533 0.54 0 29 34
0.0194413 0.118197 0.558 187 236 255
-0.121386 -0.0444474 0.571 88 86 65
0.133748 0.0740447 0.522 147 148 179
0.1499 0.121459 0.525 62 85 77
-0.258277 0.18496 0.546 127 119 93
0.179028 0.0115034 0.499 109 132 165
0.169524 0.0709598 0.512 61 81 74
0.0686782 -0.102344 0.512 40 32 29
-0.0831515 -0.177363 0.54 61 43 34
0.00311381 0.108984 0.562 71 91 117
-0.0231188 -0.124991 0.534 45 36 29
0.121843 -0.0773172 0.501 38 46 43
-0.184304 0.191309 0.573 98 78 58
0.0503142 0.143724 0.548 32 20 20
-0.0671498 0.181932 0.553 22 14 11
0.163435 -0.00557158 0.501 57 69 103
-0.0323474 -0.081148 0.543 47 38 43
0.211279 -0.0623596 0.48 55 75 101
0.239757 0.156167 0.502 75 117 147
0.200565 -0.156849 0.466 36 36 36
0.101133 -0.0309294 0.516 46 64 62
0.11465 0.165 0.536 33 34 28
0.0666625 0.0498631 0.536 28 47 47
0.219469 0.148114 0.508 73 119 153
-0.0734646 0.00384409 0.567 112 100 69
-0.400033 -0.0887442 1.013 144 108 69
0.0402062 0.0718537 0.544 51 122 141
-0.528627 -0.135358 1.029 139 106 68
-0.0865392 -0.0327722 0.562 249 239 178
-0.0722 -0.184243 0.537 68 48 40
0.108024 0.0360246 0.525 61 81 78
-0.0852394 0.127137 0.578 67 36 25
0.236638 -0.026208 0.476 19 30 30
0.0483761 -0.18962 0.492 250 255 251
-0.450024 -0.0486583 1.037 177 137 93
0.103485 0.0542742 0.528 69 87 83
0.15926 -0.143895 0.481 43 41 33
0.190175 -0.0340159 0.488 91 115 143
-0.109323 -0.00359362 0.576 151 151 145
-0.134296 0.0588266 0.591 66 67 54
-0.488848 -0.0959094 1.037 144 113 72
0.164871 -0.101892 0.486 250 255 254
-0.400445 -0.282405 0.944 146 119 84
-0.505129 -0.305645 0.974 154 124 92
-0.143634 0.16352 0.697 62 28 16
-0.39764 -0.14382 0.952 196 151 117
0.210118 -0.148066 0.467 38 33 29
-0.062279 0.0185744 0.566 180 253 255
0.0491206 0.0114627 0.535 235 253 249
-0.127885 0.202237 0.597 54 26 7
0.217441 0.0475637 0.494 128 159 186
0.095841 -0.184485 0.489 249 255 251
0.177377 0.202263 0.552 16 13 10
-0.411692 -0.00981637 1.034 180 137 98
-0.020116 0.156386 0.6 25 15 13
-0.15736 0.206076 0.57 18 9 2
-0.037469 0.0730462 0.567 94 49 84
0.164417 -0.0696091 0.487 96 104 130
-0.088433 -0.114623 0.551 50 37 26
-0.296227 0.100692 0.744 252 202 170
0.121892 -0.0445035 0.508 55 68 79
0.151188 0.0526296 0.512 67 77 91
-0.34597 0.11105 0.774 251 205 174
0.00768794 0.182149 0.562 76 21 46
0.144437 -0.0219647 0.503 101 118 150
-0.428543 -0.0600629 1.03 148 110 70
0.213827 -0.0164093 0.484 37 58 77
-0.0987822 -0.0539985 0.564 184 166 132
-0.207051 0.167357 0.574 237 194 148
0.126611 -0.182679 0.476 250 255 251
0.227862 0.113461 0.501 63 88 79
0.107395 0.199254 0.539 19 15 16
0.195403 0.206869 0.602 48 52 47
-0.13488 -0.208392 0.543 105 75 57
0.0464048 0.0824769 0.544 75 95 117
-0.236832 0.15762 0.59 195 159 120
-0.0485984 -0.14754 0.537 57 39 30
-0.443411 0.125886 1.087 167 129 93
0.24054 -0.0664144 0.47 38 31 42
-0.239177 0.177875 0.584 122 98 71
-0.184192 0.149029 0.709 54 23 12
0.121511 -0.0661663 0.503 39 47 44
0.223522 0.0645761 0.495 48 59 59
-0.114479 0.173588 0.666 50 26 14
0.166649 -0.0256948 0.496 175 208 235
0.125515 -0.129835 0.493 56 54 46
0.044962 0.09646 0.548 48 46 53
-0.0725029 0.05153 0.574 123 70 57
0.0699649 0.00357968 0.528 69 82 109
0.0472903 0.00883432 0.534 223 255 248
-0.121298 0.0353212 0.584 167 170 171
-0.254695 0.101788 0.512 127 107 71
0.192485 0.0195058 0.496 34 54 76
0.0315238 0.0695795 0.547 58 105 145
0.0482161 -0.110701 0.516 49 35 29
-0.152753 0.183893 0.607 199 161 125
-0.232818 0.185152 0.58 124 104 66
-0.551817 0.142975 1.124 169 130 99
-0.470229 -0.300002 0.961 157 125 91
-0.368207 0.0899001 1.059 171 126 88
0.252019 0.0990133 0.494 61 79 77
-0.106451 0.0735868 0.586 85 80 76
0.113355 0.0375176 0.522 57 79 78
-0.526809 -0.132394 1.032 140 107 67
0.205098 -0.0485008 0.482 89 120 136
0.081714 -0.119025 0.505 49 40 43
0.142821 0.0857725 0.521 65 88 84
0.07313 -0.0759777 0.514 32 31 31
0.187409 0.141458 0.52 31 52 58
0.0504587 0.0555077 0.54 70 150 156
-0.249199 0.153337 0.592 173 146 111
0.115517 0.0895026 0.528 64 87 81
0.169126 0.201381 0.54 23 21 11
-0.292888 -0.260717 0.906 147 113 82
-0.342341 -0.290197 0.92 213 175 137
0.0401097 -0.0344209 0.531 77 76 78
0.246127 0.131949 0.5 51 65 69
-0.0345777 0.058997 0.565 62 47 46
0.0916121 0.204795 0.524 19 18 27
0.047889 0.000143575 0.531 225 254 251
-0.339328 0.1105 0.779 253 202 173
0.119095 -0.140264 0.493 44 40 33
-0.256336 0.156988 0.66 38 30 18
-0.131181 -0.189107 0.546 69 46 27
0.0274677 0.107627 0.555 31 41 46
-0.396429 -0.0447592 1.025 165 124 89
-0.308552 0.12306 0.733 107 68 39
-0.469486 -0.319757 0.95 155 130 96
0.0388147 0.0141272 0.537 224 255 251
-0.0014915 0.172027 0.574 21 9 9
0.082814 -0.174408 0.492 250 255 251
-0.444056 0.0209664 1.059 177 134 99
0.095112 0.123821 0.539 24 37 48
0.130398 0.187058 0.583 37 38 29
0.0333103 0.171345 0.578 23 14 9
-0.389142 0.0346219 1.055 170 129 90
0.177592 0.144273 0.521 185 207 233
-0.195113 0.170929 0.583 218 185 147
-0.0782327 0.166938 0.589 47 26 11
-0.0463692 0.0294702 0.563 79 179 217
0.0112867 0.122958 0.559 38 48 51
0.0435524 -0.177598 0.501 110 112 122
-0.0246618 -0.0338009 0.549 92 68 56
-0.144143 0.0403475 0.588 41 37 30
0.228317 0.169238 0.502 24 25 19
0.00124531 0.0107901 0.545 207 250 255
-0.40271 -0.0580466 1.024 146 108 68
-0.0423807 0.126526 0.571 40 29 24
-0.376165 0.0746007 1.062 174 129 93
0.101265 0.0162498 0.521 55 72 73
0.0768408 0.0138904 0.528 44 47 48
0.0354509 -0.0717597 0.526 44 36 33
-0.0449318 0.0574616 0.568 66 56 42
0.210783 0.139841 0.511 27 35 36
-0.0394186 0.189246 0.543 114 84 36
-0.0457103 -0.0143006 0.555 250 255 254
0.156598 -0.0145108 0.5 131 153 175
0.212288 -0.0837045 0.477 143 179 187
-0.0172573 -0.0561983 0.541 252 255 251
-0.203752 0.168973 0.57 227 188 141
-0.499939 -0.319886 0.955 182 157 119
-0.407253 -0.338025 0.928 146 120 91
0.24613 0.0308483 0.484 18 21 24
0.205585 -0.031439 0.485 184 225 247
0.226112 0.0111807 0.485 29 44 59
0.125293 -0.148676 0.489 45 39 45
0.0452106 -0.0334936 0.53 67 72 79
0.147185 -0.0138067 0.504 124 152 185
0.000368017 0.0776123 0.56 34 49 66
0.229073 -0.0294296 0.478 47 54 76
-0.0152955 -0.115432 0.534 43 32 25
-0.0512843 -0.0915374 0.547 47 38 31
-0.00225259 -0.0952662 0.533 44 35 30
0.175516 -0.0933844 0.487 239 246 250
0.109007 0.140052 0.534 15 47 77
0.14778 -0.0626973 0.495 68 87 128
-0.581629 0.0476055 1.118 169 133 96
-0.541998 0.0523991 1.104 169 131 95
0.225598 -0.120449 0.466 39 40 36
-0.413974 -0.00311558 1.044 179 134 96
0.238987 0.100423 0.497 61 79 73
-0.0243474 0.190661 0.542 27 12 11
0.201277 0.170434 0.508 18 19 13
-0.42831 -0.112239 1.002 147 106 67
-0.432165 0.0636214 1.081 176 131 95
0.225165 -0.147985 0.462 29 32 31
0.179111 -0.0955653 0.486 250 255 251
-0.282701 0.153685 0.669 40 29 22
-0.483933 -0.349256 0.942 143 125 91
-0.00139536 0.194146 0.537 52 9 30
-0.181383 0.168849 0.617 188 152 115
0.0959553 0.188572 0.554 0 46 106
-0.102134 0.201668 0.516 26 18 6
0.226287 -0.0983282 0.469 40 46 46
0.135371 0.154779 0.525 20 19 19
-0.0679269 0.183399 0.552 18 16 4
0.167537 0.0264865 0.506 185 203 239
-0.130197 0.214973 0.557 38 18 8
-0.0664502 -0.159788 0.54 58 40 29
0.219529 -0.128033 0.466 42 35 29
-0.363273 -0.168986 0.972 120 78 46
-0.0713915 -0.103863 0.551 50 37 26
0.239464 -0.0200532 0.477 29 29 33
0.190545 -0.0134506 0.491 156 185 211
0.186639 -0.136883 0.473 39 37 27
-0.405959 -0.234902 0.957 219 179 137
-0.120365 -0.0251088 0.575 67 58 49
-0.115445 0.100521 0.593 248 250 255
0.208696 0.147613 0.512 78 120 146
0.0266263 -0.000730035 0.538 218 255 254
0.123607 -0.104585 0.495 48 47 54
0.145578 -0.0865122 0.493 128 136 166
0.00647182 -0.0383053 0.537 109 101 119
0.212252 -0.0227103 0.484 131 146 163
0.194072 0.15625 0.513 52 54 64
0.210498 -0.0623596 0.48 50 70 96
0.102151 0.0820793 0.53 66 86 83
-0.149012 -0.138192 0.563 126 99 64
0.235367 -0.0454775 0.475 67 91 91
0.028438 -0.0985854 0.523 44 35 28
-0.330924 -0.27065 0.93 150 118 84
-0.039543 0.139861 0.584 30 23 15
-0.0204878 0.0282497 0.557 40 83 104
0.210676 -0.0266485 0.484 50 72 94
0.0907538 -0.157261 0.496 78 78 72
-0.0440101 0.202236 0.524 77 24 9
0.147616 0.125115 0.526 61 75 81
-0.0444572 0.0111267 0.562 250 255 254
0.150133 -0.175767 0.472 250 255 251
0.031757 -0.178426 0.508 89 78 82
-0.49217 -0.323529 0.952 147 121 90
0.132163 -0.162455 0.485 46 38 35
-0.452645 -0.214219 0.991 184 146 108
-0.245476 0.15858 0.59 161 131 95
0.123486 0.112915 0.529 68 91 83
0.0341325 0.0676753 0.546 76 146 160
0.128507 0.0380731 0.518 66 89 85
0.00326895 0.166261 0.59 48 30 19
-0.381436 -0.211409 0.978 187 144 109
-0.320671 -0.217914 0.931 207 169 131
-0.016528 -0.0345047 0.546 93 67 56
-0.0404509 -0.0814469 0.545 47 40 34
0.135321 -0.160088 0.485 44 36 33
-0.138072 -0.06259 0.567 50 32 21
-0.0182385 -0.043231 0.544 109 90 84
-0.100975 -0.0486636 0.566 177 164 151
-0.449534 -0.0820117 1.032 144 108 71
-0.139568 -0.0176844 0.577 35 31 22
0.150893 0.0400533 0.511 206 231 255
-0.0489726 0.125817 0.572 36 29 23
-0.142451 0.178189 0.636 26 15 10
0.0765923 0.177632 0.571 12 13 4
0.11278 -0.130888 0.497 51 42 35
-0.0821808 0.0959796 0.583 250 255 251
0.0159507 -0.182303 0.505 226 227 223
0.0447158 0.0844023 0.545 63 54 59
0.120452 -0.0725701 0.502 41 47 45
-0.518331 0.0198427 1.092 168 132 91
-0.259009 0.120799 0.501 68 55 59
-0.11869 -0.0681261 0.567 78 59 53
0.0987809 -0.0999249 0.504 36 40 54
0.101617 -0.0571278 0.51 52 59 67
0.0749042 -0.107543 0.509 41 30 25
0.0430091 -0.134529 0.514 52 38 30
0.0244125 -0.0789063 0.528 40 37 32
-0.0100612 -0.117818 0.533 45 34 27
-0.0711945 0.043827 0.571 110 82 63
-0.255993 0.139228 0.518 104 97 76
-0.592554 0.120787 1.139 164 131 93
0.201766 0.0299384 0.495 174 198 226
0.219874 -0.0412695 0.48 85 112 125
-0.489635 -0.185986 1.004 230 189 138
-0.122667 0.0459319 0.586 79 72 66
-0.150015 0.192512 0.6 27 16 9
0.206807 0.204773 0.542 16 15 15
-0.0327582 0.160024 0.599 37 21 0
-0.0622515 0.165237 0.583 21 13 10
-0.217234 0.172623 0.453 86 73 51
0.00534751 -0.183522 0.513 100 91 96
-0.159186 0.0230845 0.587 74 39 24
0.131644 -0.156463 0.486 43 57 79
-0.181823 0.193511 0.574 26 16 14
0.0199246 -0.127523 0.523 50 37 26
-0.192542 0.15155 0.71 57 23 13
0.105555 -0.0324193 0.513 45 59 61
0.159309 0.0704005 0.514 62 79 80
0.188019 0.00983977 0.497 28 50 76
0.155378 -0.0981465 0.491 250 255 251
-0.0661974 0.0269589 0.568 198 239 255
0.185083 -0.1547 0.471 38 38 34
-0.104291 -0.0595054 0.564 63 47 44
0.0226611 0.0322521 0.548 235 255 255
0.128744 -0.15203 0.487 42 113 130
0.217076 0.0516876 0.495 176 206 238
-0.218274 0.195868 0.562 86 51 48
-0.125743 0.052697 0.587 72 68 59
0.211609 0.181649 0.507 60 61 55
-0.0505532 0.195927 0.53 17 10 4
-0.381666 -0.0997184 0.991 143 106 63
0.0737204 0.114136 0.543 39 41 49
-0.135986 0.21292 0.566 43 19 5
-0.286132 0.0851766 0.55 183 149 114
-0.000493081 -0.189173 0.508 250 255 251
-0.0149805 -0.178588 0.523 73 55 46
0.196127 -0.0307762 0.487 30 40 56
0.00948372 0.104951 0.56 37 46 56
-0.151925 0.0758124 0.596 36 25 20
0.0946033 -0.0726107 0.508 42 50 51
-0.00778015 0.0553428 0.556 46 103 151
0.0623532 -0.138745 0.508 53 37 30
0.0713305 0.19083 0.545 11 10 19
-0.290579 -0.250949 0.908 143 108 80
-0.129854 0.00776079 0.584 59 60 47
-0.462282 -0.293095 0.964 147 121 92
0.232148 0.145595 0.505 29 42 41
-0.249373 0.141578 0.724 89 38 22
-0.346588 -0.215723 0.948 172 126 97
0.238986 0.0705899 0.492 50 73 67
0.185455 0.0400848 0.501 111 137 153
0.127332 0.190526 0.582 9 12 13
0.12342 0.184194 0.577 34 34 28
0.21692 0.11332 0.504 74 82 83
0.233071 0.0334857 0.488 27 21 27
-0.126762 0.190363 0.625 50 26 12
-0.145373 0.197723 0.601 39 17 9
0.144496 0.108437 0.524 64 87 83
0.0198484 -0.134665 0.521 54 40 32
0.203396 0.0661741 0.501 57 75 73
0.0272202 0.0807015 0.55 26 46 39
0.10834 0.11942 0.535 36 46 53
-0.0313942 -0.178239 0.527 66 51 41
0.136995 -0.118921 0.491 39 36 31
-0.131188 0.057767 0.59 64 65 59
-0.128153 -0.125616 0.556 37 28 19
-0.11265 -0.15856 0.551 58 43 31
-0.234744 0.154301 0.592 221 190 147
0.168431 0.202999 0.535 17 18 14
-0.0580429 0.182501 0.552 13 14 10
-0.0922992 0.175143 0.64 52 28 14
-0.239157 0.100952 0.755 251 198 167
0.17895 0.0679254 0.508 49 79 71
-0.217166 0.156755 0.594 217 174 137
0.0567338 0.171987 0.577 20 15 11
0.11435 -0.00740342 0.515 52 70 68
-0.118141 0.204396 0.592 56 25 12
-0.04887 -0.121123 0.54 45 31 23
-0.146226 -0.0731245 0.57 64 40 26
0.199082 0.150406 0.513 167 204 207
-0.257741 0.184827 0.543 124 118 94
-0.0718179 0.069519 0.576 99 58 41
0.0163868 0.184409 0.547 56 22 58
0.139319 0.114204 0.527 41 52 50
-0.536583 -0.143172 1.025 150 111 78
0.153314 0.197262 0.566 0 24 32
-0.07199 0.190661 0.542 72 45 37
0.15069 0.0664759 0.516 63 81 77
-0.487219 0.0878504 1.098 169 131 95
-0.535926 -0.0669872 1.06 170 134 97
0.083831 -0.187324 0.484 250 255 251
-0.51965 -0.153004 1.002 128 97 54
-0.122101 -0.0499351 0.57 64 59 41
0.155991 -0.136633 0.483 37 35 27
-0.278952 0.113197 0.763 245 190 157
-0.0349449 0.0949333 0.571 50 59 69
0.169496 0.112037 0.517 63 83 76
0.0312933 0.0293069 0.543 249 255 254
0.158556 0.0893207 0.517 63 83 76
-0.0659644 0.00291624 0.566 198 220 232
0.00644772 -0.0425158 0.535 138 194 226
0.11659 -0.130625 0.496 51 42 37
-0.392178 -0.177805 0.977 189 142 100
-0.492428 -0.0691745 1.041 147 111 63
0.0771116 -0.00668008 0.524 68 86 120
0.166227 0.205499 0.528 0 38 25
-0.504266 -0.156162 0.991 132 98 65
-0.0910627 -0.190544 0.54 59 45 37
0.164701 -0.0385315 0.495 73 99 126
-0.550509 -0.0451932 1.075 174 138 99
0.0100612 0.00279259 0.542 84 145 185
-0.44972 -0.33051 0.941 157 126 97
0.0262304 -0.0472933 0.53 250 255 251
0.134763 -0.170431 0.483 69 75 77
0.0916121 0.00952161 0.524 56 73 87
0.155636 0.199481 0.542 22 20 36
-0.126549 -0.0853552 0.565 58 43 31
0.180075 -0.131555 0.476 35 35 29
-0.0142642 -0.144208 0.528 53 38 28
-0.328789 -0.277926 0.924 149 112 82
0.224425 0.0777775 0.497 56 81 76
0.176019 0.0368971 0.502 45 56 95
0.226716 0.029515 0.488 99 107 137
0.138158 -0.0180141 0.507 86 108 130
0.160835 -0.0233672 0.498 191 215 245
-0.419628 -0.324315 0.932 149 119 85
-0.0372347 -0.125693 0.537 47 38 29
-0.253108 0.109936 0.519 114 88 73
-0.101855 0.128161 0.587 68 34 22
-0.0422422 -0.161488 0.534 56 42 34
-0.0866759 -0.0796145 0.557 182 172 182
0.0382938 0.0539493 0.542 79 158 169
0.0747571 -0.114772 0.508 42 34 31
-0.438623 -0.0384216 1.034 178 137 102
0.232508 0.154329 0.504 79 118 154
-0.164814 0.111886 0.597 130 103 77
0.0935517 -0.144929 0.498 49 43 47
-0.550108 0.130634 1.128 168 125 88
-0.127272 0.181196 0.643 39 24 12
-0.396156 -0.0611396 1.02 143 105 67
-0.176133 0.188955 0.583 29 21 20
0.149186 -0.0580979 0.497 105 135 165
-0.523496 -0.183618 1 250 199 154
-0.408109 -0.0564353 1.025 147 106 71
-0.0656927 -0.15216 0.541 57 39 28
-0.131661 -0.177315 0.548 60 43 29
-0.266938 0.154931 0.665 43 31 15
0.200361 0.155945 0.512 0 51 83
0.181809 -0.0380644 0.489 186 211 234
0.0982965 -0.0596176 0.51 55 69 75
-0.468491 0.0983917 1.096 170 130 88
-0.0115751 -0.179439 0.523 73 54 48
0.172183 0.0681928 0.51 59 79 76
-0.00489189 -0.0540351 0.537 252 255 251
0.134709 0.196315 0.543 20 31 31
-0.0566187 0.101037 0.574 250 255 251
0.0860137 -0.0552808 0.516 240 255 255
-0.139271 0.102684 0.6 106 81 61
0.145193 -0.115254 0.489 38 39 35
0.123755 -0.178291 0.483 85 100 115
0.0244897 0.0653669 0.549 84 156 170
0.0225216 -0.112417 0.524 45 36 27
-0.0571628 -0.0080647 0.561 141 149 146
0.233029 0.212913 0.554 39 27 25
0.173216 -0.0630092 0.485 54 60 89
0.0460636 0.0511139 0.54 69 149 153
0.0272465 -0.011999 0.533 242 255 252
0.162284 -0.0425591 0.495 186 214 229
0.241809 0.0430153 0.488 16 22 22
-0.0824375 -0.0544295 0.559 255 244 185
-0.417267 0.000283364 1.048 179 134 98
0.104531 -0.183765 0.485 250 255 251
-0.0143948 0.10165 0.567 35 47 53
-0.438236 -0.207902 0.984 186 148 108
0.0314172 -0.137572 0.516 55 39 32
0.202469 -0.0220586 0.487 183 217 239
0.230439 -0.0417002 0.476 149 184 199
-0.0375117 -0.0115702 0.554 250 255 254
0.214615 -0.0108959 0.484 49 70 87
-0.00912455 0.199001 0.529 147 46 98
0.160253 -0.105411 0.484 61 70 105
-0.289298 -0.293977 0.904 144 113 84
0.0040143 0.134113 0.56 33 24 19
-0.08109 -0.0849004 0.556 59 45 37
0.0353264 -0.184567 0.5 250 255 249
0.0964259 0.0344466 0.527 62 82 79
-0.254965 0.155398 0.539 117 91 60
0.0459951 -0.15672 0.51 58 44 38
0.223973 0.0711638 0.496 54 77 71
-0.358241 0.0686317 1.05 171 128 91
-0.119636 -0.0176537 0.576 65 57 43
0.147695 0.197717 0.542 9 23 29
-0.0420049 -0.175271 0.531 67 47 39
-0.0693451 -0.10974 0.549 52 38 30
0.196708 0.209111 0.6 54 54 48
0.235501 -0.0123681 0.48 31 31 33
-0.453192 0.0709194 1.085 171 130 95
0.099195 0.190499 0.557 2 22 37
0.0604403 -0.0751722 0.52 36 33 30
-0.00604519 0.128418 0.563 37 22 21
0.0735798 -0.159343 0.5 53 44 37
0.181609 -0.0745456 0.478 58 79 98
-0.268501 0.190904 0.521 123 115 89
0.0746843 0.0226105 0.531 43 49 47
0.0934962 0.0257724 0.525 165 190 213
-0.361031 -0.189951 0.966 214 173 134
-0.0392734 -0.10638 0.541 43 34 29
-0.259894 0.172381 0.569 101 74 50
0.0597642 0.00358646 0.529 135 200 243
-0.133411 0.115377 0.6 43 33 21
-0.430664 -0.161822 0.967 251 196 152
-0.0308081 0.160999 0.599 117 74 37
0.0808309 0.00870197 0.526 50 62 68
-0.198728 0.207173 0.546 44 31 18
0.0723627 0.0383082 0.533 40 48 49
0.0533751 0.0175243 0.534 211 255 255
-0.0337333 0.160999 0.599 115 75 51
0.0257355 -0.136946 0.52 55 41 33
-0.0429225 -0.0250933 0.554 91 70 57
-0.317424 -0.342241 0.888 199 167 131
0.0622296 -0.00844953 0.528 243 255 255
-0.197361 0.08014 0.664 247 192 159
0.0642629 -0.188436 0.491 250 255 251
-0.471512 -0.11148 1.025 141 102 69
-0.0940435 0.196667 0.532 32 16 13
-0.113173 -0.12062 0.558 61 54 35
0.226406 -0.140017 0.463 41 39 31
0.204537 0.2025 0.543 21 18 15
0.0550795 -0.1706 0.502 69 57 55
0.164299 -0.129291 0.482 39 39 33
0.181182 -0.00309451 0.496 126 152 181
-0.117311 0.166128 0.689 62 32 16
0.0799308 -0.154964 0.499 55 41 35
0.0812285 -0.16971 0.497 74 63 69
0.0763721 0.122089 0.543 56 82 109
0.0012476 0.185849 0.546 10 9 13
-0.450296 -0.273382 0.972 148 120 90
-0.526137 -0.09146 1.044 145 112 72
0.0359227 -0.0302137 0.533 68 65 62
-0.224917 0.179776 0.584 147 116 87
-0.0644784 0.195433 0.531 31 27 18
0.0472497 -0.184268 0.497 250 255 251
-0.48582 -0.304076 0.964 149 126 94
0.0978485 -0.0448539 0.512 114 132 157
-0.10211 0.0684664 0.583 255 236 207
-0.0600568 -0.0476318 0.554 106 89 64
0.0363155 -0.14373 0.514 59 41 32
-0.256685 0.131133 0.516 126 116 86
-0.0156679 -0.029227 0.547 80 64 59
-0.177268 0.159413 0.709 59 26 11
-0.147156 0.000157094 0.581 46 32 17
-0.0569127 -0.185472 0.533 69 51 40
-0.0938732 -0.209385 0.541 254 255 249
0.0723627 0.0313693 0.533 44 47 50
0.301608 0.22867 0.595 91 74 58
0.115955 -0.182652 0.48 250 255 251
-0.511298 -0.250803 0.989 196 169 132
-0.239819 0.102993 0.761 255 201 170
-0.256557 0.171657 0.535 119 114 83
-0.165642 0.097802 0.6 51 32 28
0.114859 -0.10137 0.499 42 42 36
0.144188 -0.102941 0.491 180 198 207
-0.0158923 -0.163038 0.525 66 48 39
0.0302559 -0.0545363 0.525 252 255 251
-0.498871 0.121106 1.108 170 129 90
0.00212073 0.187133 0.542 15 11 16
0.246083 0.102436 0.495 61 81 74
0.105004 0.0576018 0.527 62 84 83
-0.244153 0.0899858 0.726 244 187 155
0.00126359 0.0622435 0.553 59 255 255
0.2085 -0.0739221 0.479 185 220 235
0.00034173 -0.167409 0.52 59 43 38
-0.0494726 -0.149288 0.537 58 39 35
0.218675 -0.155166 0.461 38 37 39
0.0253198 -0.0695864 0.529 44 40 43
0.077533 -0.175732 0.489 250 255 251
-0.457865 -0.33546 0.942 146 120 89
-0.250057 0.101888 0.762 252 197 162
-0.00671434 -0.0351988 0.543 95 68 60
0.0227438 0.065486 0.55 61 124 150
0.0452535 -0.146217 0.511 56 41 31
0.209863 0.053514 0.497 144 166 188
0.16589 0.02731 0.506 187 205 243
-0.312462 0.115083 0.751 217 181 144
0.0827742 0.0513187 0.533 73 100 109
-0.351596 -0.197811 0.966 184 143 104
-0.52929 0.0432589 1.1 169 133 96
0.0802787 0.019905 0.528 47 53 51
-0.107006 -0.0990036 0.559 64 57 49
-0.0124825 0.0937695 0.564 70 80 83
0.251215 0.115895 0.494 69 84 81
0.00128644 0.136664 0.563 29 20 13
-0.139919 -0.122902 0.556 61 43 23
0.156937 0.171075 0.52 47 47 49
0.15014 0.0767007 0.517 63 80 83
0.126026 -0.0345833 0.508 44 59 54
0.16241 0.199958 0.596 24 27 28
0.184295 -0.0941894 0.483 250 255 251
0.023358 0.165697 0.588 35 12 11
-0.0882144 0.0632855 0.579 192 172 150
0.15422 0.0508636 0.511 180 206 224
0.114876 0.114636 0.533 62 80 74
-0.193612 0.167534 0.605 252 199 156
0.135822 -0.181528 0.473 250 255 251
0.296267 0.229253 0.594 95 88 80
0.203163 -0.161053 0.465 47 55 54
0.12755 0.117857 0.528 55 85 77
-0.112854 -0.148966 0.552 59 45 28
0.208928 0.00732392 0.491 50 60 86
0.102505 0.0231209 0.523 54 79 104
0.243032 0.16917 0.497 39 38 21
-0.074248 -0.0435133 0.559 188 145 99
-0.512314 0.0792039 1.102 168 130 94
-0.444831 -0.147659 0.967 143 100 75
-0.418294 0.103697 1.077 169 128 93
-0.459336 0.074588 1.087 168 130 90
0.182909 0.207087 0.578 33 21 19
-0.30957 -0.230058 0.925 172 136 97
-0.138159 0.198048 0.608 43 22 5
0.0451649 -0.15589 0.51 57 43 37
0.198794 -0.176841 0.455 128 130 185
0.087514 0.0163746 0.525 82 98 108
0.206658 0.0767729 0.501 63 83 76
-0.446026 -0.141671 0.98 126 89 55
0.0709005 -0.115223 0.51 42 34 31
-0.426818 0.0157964 1.059 176 136 94
0.0361249 0.00712291 0.536 239 255 254
-0.398431 -0.223655 0.969 177 141 100
-0.0407313 -0.132684 0.537 52 33 27
-0.331919 0.138645 0.709 149 110 88
-0.484107 -0.290183 0.97 145 128 91
-0.191266 0.184367 0.566 137 112 78
-0.266508 0.0870437 0.534 196 160 123
-0.301256 -0.263059 0.909 146 111 83
0.203356 0.170099 0.507 14 21 15
0.00970388 0.174525 0.573 15 13 5
0.155698 0.00506735 0.505 182 207 232
-0.148293 0.112857 0.597 49 34 22
-0.461116 -0.038756 1.043 178 140 102
0.0505393 -0.1178 0.514 48 37 30
0.151064 0.00178367 0.506 86 95 130
0.0826068 -0.0363162 0.521 248 255 253
0.103196 0.188304 0.564 15 12 7
0.172699 -0.0991351 0.488 250 255 254
-0.523333 0.103633 1.114 166 128 88
0.150303 0.0200171 0.509 178 200 226
0.221901 0.210864 0.551 20 20 14
0.0836185 0.183978 0.562 23 23 19
0.144865 -0.170154 0.48 84 104 97
-0.395835 -0.273188 0.944 141 114 81
-0.425474 0.0526738 1.073 173 130 95
-0.341888 -0.248215 0.931 150 116 83
-0.0190767 0.112194 0.569 69 85 120
0.197918 0.117159 0.51 62 82 79
0.164065 0.0373381 0.508 180 208 241
0.112486 0.0119414 0.518 52 72 69
0.215967 -0.0498618 0.48 113 132 152
-0.0917006 -0.0782207 0.56 252 255 251
-0.360783 -0.1181 0.957 145 110 66
-0.334103 -0.109737 0.952 156 115 76
0.168131 -0.00959026 0.498 36 56 90
-0.502389 0.135846 1.096 161 123 85
0.247435 0.155856 0.501 86 116 146
-0.430938 -0.101831 1.012 146 108 70
0.147883 -0.105921 0.49 249 255 254
0.21905 0.053191 0.494 116 133 163
-0.0671298 0.10795 0.576 212 206 221
0.000381817 0.149543 0.581 22 14 13
-0.422698 0.0384523 1.066 176 135 98
0.0909217 -0.187324 0.484 250 255 251
-0.019605 -0.13343 0.533 50 36 28
0.0810667 -0.146617 0.501 49 35 29
-0.126034 -0.0500227 0.571 61 54 35
-0.539732 -0.101654 1.044 142 110 74
-0.142473 0.0599907 0.593 67 60 50
-0.0292363 -0.00254099 0.551 243 254 255
-0.218985 0.202426 0.55 32 23 14
-0.0411105 -0.107459 0.542 44 37 31
-0.549554 0.0145382 1.094 176 135 98
0.189719 -0.129956 0.473 35 35 29
-0.490859 -0.277115 0.974 155 128 93
-0.0593081 -0.164755 0.539 59 43 36
-0.0634237 0.0343535 0.568 113 165 201
-0.0731854 -0.10476 0.551 52 39 26
0.179633 0.142851 0.522 135 161 179
-0.338866 -0.340569 0.895 169 133 96
-0.363219 -0.305332 0.916 151 117 86
0.0947907 -0.166947 0.496 24 136 154
-0.258947 0.169652 0.557 87 72 46
-0.376705 -0.162994 0.974 248 190 147
0.164859 -0.178085 0.468 250 255 251
0.0218485 0.0628009 0.55 54 138 152
-0.191117 0.146721 0.709 62 33 23
0.144197 -0.153925 0.483 38 37 41
-0.0889659 -0.0417686 0.56 255 254 199
0.113767 0.0187572 0.52 56 75 75
-0.46955 0.0124314 1.066 175 132 97
0.235202 0.12569 0.501 65 80 79
-0.00562643 -0.149937 0.524 56 42 34
0.191802 0.0966686 0.507 59 82 74
0.193738 -0.161399 0.466 97 119 122
-0.0236383 0.186737 0.546 22 7 6
0.175947 -0.104265 0.486 65 74 107
0.0713087 -0.132697 0.507 51 37 29
0.141724 0.0590328 0.517 62 82 77
0.0888052 0.152483 0.538 21 19 11
-0.029024 -0.0434694 0.547 106 77 65
0.18319 0.200503 0.54 16 17 13
-0.242044 0.156925 0.591 180 148 112
-0.0935689 0.077005 0.583 128 130 136
-0.126267 0.0211019 0.585 113 117 112
0.0222207 -0.149617 0.517 66 41 34
0.118581 -0.0830243 0.501 39 45 43
-0.047965 0.195927 0.53 15 11 4
-0.0816734 0.177856 0.56 41 20 7
-0.482495 -0.127535 1.02 134 103 64
-0.309214 -0.330022 0.902 141 110 81
0.045291 -0.0905778 0.521 36 33 30
-0.361949 0.0477148 1.041 173 130 91
0.0579747 0.182832 0.553 15 9 13
0.140739 -0.175741 0.474 250 255 251
0.209173 -0.0125227 0.486 55 66 89
-0.0646673 0.152289 0.615 78 44 32
-0.559215 0.0127346 1.092 175 134 97
0.000369988 0.115592 0.563 111 179 178
-0.457946 -0.228964 0.992 184 148 111
0.2184 0.211387 0.59 53 56 55
0.14279 0.0990572 0.524 64 87 81
-0.0360304 0.0119769 0.559 209 255 255
-0.333072 0.00517813 1.005 180 132 97
0.145468 -0.163804 0.482 45 41 34
0.239137 0.121128 0.499 65 80 79
-0.107771 0.128379 0.588 71 36 21
0.019902 -0.190643 0.501 239 249 252
0.0201912 -0.0723054 0.53 45 40 38
-0.0809441 -0.0937793 0.555 45 41 30
-0.341233 0.131589 0.734 159 123 86
-0.259654 0.186806 0.536 125 116 97
-0.34608 -0.298529 0.918 156 119 85
0.195449 0.204639 0.528 15 20 10
-0.170977 0.200159 0.569 27 23 16
0.116255 0.190477 0.565 5 12 6
-0.105038 0.172639 0.675 51 25 10
-0.0862091 -0.0999212 0.554 53 43 31
0.211279 -0.0662652 0.48 84 105 122
0.15559 -0.00639962 0.502 31 56 88
0.17775 -0.150145 0.476 34 35 29
0.170575 -0.111251 0.482 44 46 37
-0.010703 0.112722 0.567 146 162 181
0.127019 -0.0123594 0.512 151 176 208
-0.14368 0.0658917 0.594 67 56 60
-0.13181 -0.109205 0.56 38 28 14
0.00299746 0.0045482 0.541 235 251 255
0.22811 0.0456768 0.491 22 27 43
-0.00789209 0.128646 0.564 39 27 25
-0.230134 0.187335 0.578 145 119 77
0.0238652 -0.0242327 0.535 73 72 74
-0.415757 0.0367176 1.066 171 133 93
-0.514966 0.0718999 1.1 170 132 94
-0.0199728 -0.0502206 0.543 193 192 196
0.0728365 0.117671 0.543 32 39 45
0.190547 -0.113201 0.477 46 44 34
0.254281 0.219886 0.582 51 62 60
-0.5144 -0.244229 0.995 174 144 98
-0.351758 0.114315 0.754 195 159 122
0.164783 0.201842 0.546 13 20 12
-0.117134 -0.164836 0.551 54 45 28
0.00950066 0.106965 0.561 33 45 51
-0.507665 0.0482754 1.092 169 133 94
0.0615421 0.043839 0.537 31 47 57
0.0290357 0.177624 0.568 19 12 21
0.0121453 -0.165922 0.518 67 48 46
0.171135 -0.149685 0.477 37 38 34
0.229375 0.0593808 0.492 14 20 31
-0.173455 0.182749 0.6 48 35 11
0.220288 -0.131824 0.466 35 35 31
0.226198 -0.160865 0.458 202 226 236
0.2133 -0.152401 0.464 37 33 34
0.199319 0.0588365 0.501 28 27 29
0.115783 -0.11206 0.496 127 124 181
-0.421112 0.0244823 1.062 172 131 92
0.135058 0.195447 0.548 13 24 24
0.237063 -0.011587 0.48 28 27 29
0.0142322 -0.0440916 0.533 167 180 207
-0.396612 -0.23023 0.957 175 132 95
0.188973 -0.0388602 0.489 164 182 207
-0.0517758 0.175747 0.562 21 14 8
-0.00967651 0.0795767 0.561 14 49 107
-0.376275 -0.112619 0.977 118 79 46
-0.254463 0.178213 0.582 101 82 53
0.167794 -0.0136149 0.497 64 85 114
0.207892 0.115873 0.508 60 78 76
0.160086 0.200204 0.591 19 19 19
0.00677312 0.140079 0.562 29 23 10
0.199321 -0.0141915 0.489 50 60 88
-0.486057 -0.191754 1 108 75 35
0.160939 0.119916 0.522 56 74 68
0.211812 0.0379169 0.494 36 49 76
0.213692 0.147037 0.51 68 115 140
-0.0164675 -0.0405752 0.544 108 77 77
0.106522 -0.12791 0.498 44 40 33
-0.232523 0.179776 0.584 131 109 74
0.143333 -0.0292734 0.502 142 166 194
0.219567 0.0183971 0.488 89 107 134
-0.0385954 0.203231 0.52 71 35 25
-0.130227 0.211624 0.565 43 19 3
-0.0437336 -0.178728 0.531 69 51 42
-0.0586211 -0.0704304 0.549 252 255 249
-0.0169702 0.197532 0.532 255 166 233
0.234149 0.150228 0.504 75 121 155
-0.307377 -0.276405 0.914 168 124 92
0.203042 -0.0747016 0.479 144 163 181
-0.0308612 -0.0426571 0.548 102 71 62
0.252823 0.107856 0.494 68 81 76
0.145932 0.0623981 0.517 60 83 79
-0.527219 0.0162886 1.092 171 133 95
0.230175 -0.132483 0.463 41 36 32
0.168138 0.156087 0.518 52 44 32
0.0988041 -0.0208934 0.517 161 171 189
-0.539771 0.096728 1.118 168 131 88
0.00475874 -0.00161449 0.541 214 246 255
-0.364805 -0.29918 0.92 166 133 95
-0.482975 -0.217138 0.997 187 151 114
0.0885097 -0.170519 0.497 86 81 89
-0.0263467 -0.148785 0.529 55 42 31
0.204869 -0.101345 0.476 39 50 50
-0.0993664 -0.16631 0.547 57 42 32
-0.257698 0.130371 0.513 131 119 92
0.141914 0.193693 0.561 23 197 215
0.112716 0.102109 0.531 61 86 81
0.0644238 -0.0706683 0.518 33 32 32
-0.411601 -0.325483 0.931 148 117 88
0.147308 0.0443841 0.513 170 200 219
-0.220925 0.181689 0.581 163 131 95
-0.346586 0.112542 0.767 238 201 169
0.226043 0.0737336 0.497 57 75 73
0.23873 -0.0446104 0.474 35 30 26
-0.0658902 -0.10636 0.55 51 37 29
-0.347266 -0.0178594 1.013 178 134 91
0.147308 0.0477234 0.513 80 106 122
0.00400713 0.0802027 0.559 72 230 255
0.103132 0.169895 0.549 27 23 16
0.233865 0.0358681 0.488 21 24 27
0.0516845 -0.189203 0.493 249 255 251
-0.352118 0.0559692 1.037 171 128 93
-0.553882 0.0127346 1.092 176 135 98
0.21206 -0.0623596 0.48 65 85 111
0.231579 0.0790756 0.495 59 78 78
-0.11198 0.0894511 0.59 235 247 249
0.0871806 0.000992505 0.523 250 255 254
-0.0236816 -0.0381285 0.547 95 71 57
0.207164 -0.0164432 0.485 128 159 184
-0.345681 -0.331076 0.913 142 112 78
0.147318 0.142775 0.528 107 139 200
-0.497864 0.0552822 1.09 167 130 98
-0.0956158 -0.0219914 0.567 210 159 116
-0.260076 0.176285 0.528 129 114 73
0.190348 0.0514988 0.501 194 218 246
-0.548381 0.0668926 1.106 167 128 95
0.13193 -0.131437 0.49 77 79 63
0.114048 -0.15199 0.492 51 46 58
-0.310013 -0.25976 0.913 140 109 80
-0.0419354 0.0470442 0.565 249 255 254
0.0708244 0.201202 0.528 16 10 16
-0.188835 0.195765 0.567 24 15 8
-0.348812 -0.16969 0.967 171 128 105
-0.264773 0.154931 0.665 41 29 13
0.232255 0.0024886 0.483 34 32 46
-0.0537962 0.0148375 0.564 69 238 246
-0.0532531 0.0546886 0.568 189 121 68
-0.0859474 -0.199701 0.541 73 65 64
0.111835 -0.0149461 0.515 147 182 197
-0.0888238 0.0789024 0.583 114 127 136
-0.176474 0.190198 0.581 21 19 11
-0.394496 -0.0661192 1.02 146 108 70
0.0993688 -0.0798933 0.507 43 47 40
-0.189 0.199526 0.562 17 19 6
0.0290653 -0.133304 0.519 56 40 33
-0.0708608 -0.0281492 0.561 111 76 48
0.0934962 0.203477 0.525 22 36 58
0.101958 0.0741767 0.529 71 88 89
-0.000527053 -0.0237114 0.543 78 68 80
0.246889 0.11613 0.495 71 85 76
0.136145 0.118716 0.528 67 85 79
-0.107804 -0.0395923 0.568 79 75 78
-0.33183 0.124931 0.737 253 208 174
0.147039 0.143362 0.527 65 91 147
-0.140519 0.0837117 0.597 78 75 91
0.0449336 0.0263615 0.537 246 255 253
0.144101 -0.0510234 0.499 198 215 245
-0.449006 0.0980326 1.092 170 129 90
0.0785832 0.0618429 0.534 105 163 163
-0.126914 0.203972 0.588 53 22 9
-0.168358 0.1909 0.589 36 20 15
0.0327105 0.143875 0.552 28 23 19
0.24607 0.0579848 0.487 20 28 27
0.0909368 -0.166475 0.497 91 157 164
0.175296 0.0504655 0.507 153 177 216
0.0409108 0.179761 0.566 32 18 31
-0.154056 0.0696408 0.593 40 27 16
-0.467164 -0.233571 0.991 180 147 107
-0.0966969 0.0453833 0.579 207 162 126
0.221338 0.105308 0.501 60 82 81
-0.254492 0.152483 0.538 121 106 78
-0.488882 -0.168211 0.986 255 204 161
0.195715 0.0162772 0.496 103 132 140
0.208587 -0.0601413 0.481 207 245 255
0.203747 0.00733884 0.492 112 139 159
0.213648 0.0104771 0.489 160 191 207
-0.0385954 -0.19618 0.52 250 255 251
0.209173 -0.128367 0.47 34 36 27
0.0651761 0.184632 0.553 22 15 28
0.136995 -0.110132 0.491 40 40 40
-0.502723 -0.133034 1.024 122 88 53
-0.0489198 -0.183912 0.531 72 52 44
0.181525 -0.0998978 0.484 250 255 254
0.0366523 -0.0136822 0.531 250 255 254
0.204928 0.141223 0.513 22 35 34
-0.113547 -0.157663 0.551 58 44 29
0.0866805 -0.0370927 0.52 97 122 156
0.192535 -0.00707278 0.492 136 169 182
0.154314 0.197319 0.591 25 25 25
0.114876 0.163209 0.533 33 34 28
0.241809 0.0533391 0.488 16 22 24
-0.447236 -0.332864 0.939 146 120 89
0.0996314 0.139444 0.535 54 51 37
-0.135139 0.109336 0.599 51 37 29
-0.445818 -0.025081 1.039 175 137 101
0.0756688 0.0815672 0.538 82 138 139
-0.52474 -0.148382 1.015 136 107 66
0.206646 0.0626618 0.499 51 66 61
-0.134688 0.0875978 0.597 247 255 255
-0.0828401 0.0121698 0.568 228 165 122
0.0388147 0.022866 0.537 226 255 253
-0.0596289 0.0845165 0.576 115 134 154
-0.103903 -0.106807 0.557 52 41 34
-0.146396 -0.0111309 0.578 48 34 17
-0.239177 0.170272 0.584 139 111 81
0.221014 0.0538856 0.493 50 59 94
0.14616 0.0167038 0.509 41 51 97
0.0619107 0.188313 0.548 23 13 43
-0.259701 0.175071 0.581 102 80 52
0.20625 0.106359 0.506 67 82 79
0.0668242 -0.0688492 0.517 32 31 31
0.217815 0.14398 0.508 26 37 37
-0.414924 -0.229488 0.967 161 129 84
0.0342001 -0.109867 0.52 46 35 28
-0.494756 -0.317999 0.954 190 164 124
-0.38923 -0.130695 0.958 128 91 59
0.0746025 0.170828 0.57 23 16 10
0.172633 -0.135502 0.479 40 34 36
0.125921 -0.0691643 0.501 41 47 45
-0.297138 -0.326724 0.901 137 110 77
0.182231 -0.0498986 0.488 126 161 176
0.138158 -0.0188392 0.507 51 66 94
0.193281 -0.0737678 0.478 56 67 90
-0.069724 -0.095069 0.552 47 38 31
0.221233 -0.120966 0.468 30 34 27
0.156189 0.0576287 0.512 60 73 68
