ply
format ascii 1.0
comment Created by Open3D
element vertex 1286
property double x
property double y
property double z
property uchar red
property uchar green
property uchar blue
end_header
-0.182776 0.219315 0.583 255 255 255
0.226251 -0.206878 0.762 255 255 255
0.102112 -0.172303 0.891 255 255 255
0.396655 0.128412 0.78 255 255 255
-0.351272 -0.330027 0.944 255 255 255
-0.127016 0.0536171 0.746 255 255 255
-0.316346 -0.257013 0.964 255 255 255
0.117096 -0.0137143 0.954 255 255 255
-0.295819 0.0939117 0.711 255 255 255
-0.112427 0.107239 0.715 255 255 255
-0.0304316 -0.212431 0.954 255 255 255
0.142905 -0.173852 0.849 255 255 255
-0.281831 -0.045919 0.834 255 255 255
0.261787 -0.258791 0.698 255 255 255
-0.0763485 -0.281845 0.927 255 255 255
0.0794137 0.238089 1.124 255 255 255
-0.177018 0.0209301 0.708 255 255 255
0.112183 -0.167122 0.879 255 255 255
0.238126 -0.0554194 0.834 255 255 255
-0.226011 0.147942 0.644 255 255 255
-0.0647064 0.19013 0.667 255 255 255
-0.193555 0.00926244 0.697 255 255 255
0.157711 0.136015 1.005 255 255 255
-0.262496 -0.302665 0.908 255 255 255
0.0141721 0.330719 1.036 255 255 255
-0.0582976 -0.115939 1.066 255 255 255
0.184078 -0.280039 0.762 255 255 255
0.0216223 0.280875 0.991 255 255 255
-0.145218 0.0071846 0.716 255 255 255
-0.0400606 0.0984948 0.755 255 255 255
0.0408716 0.493098 1.294 255 255 255
0.24634 -0.208045 0.744 255 255 255
-0.289294 -0.0245804 0.802 255 255 255
-0.268323 0.146147 0.65 255 255 255
0.096584 0.410753 1.201 255 255 255
0.35559 -0.0263639 0.742 255 255 255
-0.0325415 -0.0346969 1.075 255 255 255
-0.386917 -0.32781 0.96 255 255 255
-0.322846 0.133249 0.649 255 255 255
-0.281058 0.103339 0.689 255 255 255
0.185924 0.250025 1.044 255 255 255
0.311876 0.112271 0.85 255 255 255
-0.258093 0.141736 0.659 255 255 255
0.307985 -0.205522 0.687 255 255 255
0.223213 0.0964835 0.924 255 255 255
0.278713 -0.117751 0.763 255 255 255
-0.290316 0.129845 0.664 255 255 255
-0.0323685 0.0245828 0.88 255 255 255
0.290473 0.128095 0.873 255 255 255
0.305537 0.363122 0.991 255 255 255
0.0593029 -0.0869126 0.974 255 255 255
-0.0463141 0.170488 0.684 255 255 255
-0.356259 -0.324226 0.945 255 255 255
0.199263 0.339831 1.07 255 255 255
-0.386692 -0.00918588 0.826 255 255 255
0.290949 -0.241834 0.676 255 255 255
0.332821 -0.0964155 0.724 255 255 255
-0.310767 -0.172345 0.947 255 255 255
0.316664 0.116147 0.848 255 255 255
0.277481 0.142309 0.9 255 255 255
0.174593 0.309328 1.079 255 255 255
-0.25139 -0.195859 0.927 255 255 255
-0.022392 0.0303799 0.882 255 255 255
0.261411 -0.268565 0.691 255 255 255
-0.371934 -0.190294 0.887 0 0 0
0.401679 0.211357 0.816 255 255 255
0.273428 -0.0496239 0.806 255 255 255
0.360283 -0.0595608 0.72 255 255 255
0.377507 0.0780992 0.772 255 255 255
0.161624 0.159544 1.009 255 255 255
0.316326 0.264529 0.928 255 255 255
-0.277818 0.118463 0.673 255 255 255
0.107228 0.0486975 0.992 255 255 255
-0.0567931 -0.244395 0.928 255 255 255
0.280156 -0.210091 0.71 255 255 255
-0.288777 0.0600407 0.766 255 255 255
-0.276901 0.171304 0.615 255 255 255
0.203315 0.229009 1.004 255 255 255
-0.411952 -0.247987 0.807 255 255 255
-0.360465 -0.27643 0.863 255 255 255
0.214644 -0.0484099 0.854 255 255 255
0.28231 -0.22568 0.701 255 255 255
-0.191965 0.178097 0.632 255 255 255
0.150839 0.168746 1.025 255 255 255
-0.273428 -0.0411952 0.821 0 0 0
-0.106671 -0.188686 0.984 255 255 255
0.260632 0.28923 0.992 255 255 255
-0.320969 -0.10377 0.726 255 255 255
-0.3085 -0.238189 0.964 255 255 255
0.21537 -0.223291 0.763 255 255 255
-0.152722 0.0761771 0.753 255 255 255
-0.419717 -0.243083 0.817 255 255 255
-0.304101 0.150328 0.632 255 255 255
0.173477 0.321049 1.083 255 255 255
0.426047 0.325178 0.857 255 255 255
-0.337287 -0.276197 1.18 255 255 255
0.0404012 -0.109439 0.977 255 255 255
-0.183554 0.118209 0.711 255 255 255
-0.395964 -0.331969 0.963 255 255 255
-0.205682 0.157863 0.646 255 255 255
-0.464984 -0.0965253 0.944 255 255 255
-0.180857 -0.0588043 0.659 255 255 255
-0.0178696 0.345892 1.036 255 255 255
0.285417 -0.00905243 0.814 255 255 255
0.129113 -0.00129045 0.951 255 255 255
0.268851 -0.0369606 0.816 255 255 255
0.326619 -0.229691 0.657 255 255 255
-0.480046 -0.186285 0.917 255 255 255
0.18767 -0.135331 0.833 255 255 255
-0.263442 0.197494 0.583 255 255 255
-0.234634 0.0176464 0.715 255 255 255
0.385171 0.154822 0.812 255 255 255
0.322011 -0.244919 0.652 255 255 255
0.281766 0.394022 1.034 255 255 255
-0.483772 -0.173231 0.927 255 255 255
0.276035 -0.0911799 0.78 255 255 255
0.0395315 0.171369 0.855 255 255 255
0.203353 0.251456 1.029 255 255 255
-0.334701 0.124068 0.662 255 255 255
-0.150259 0.185882 0.634 255 255 255
-0.35856 0.0470785 0.758 255 255 255
-0.285293 -0.319622 0.91 255 255 255
0.119818 -0.0706504 0.927 255 255 255
0.176577 0.226847 1.039 255 255 255
-0.0541775 -0.2082 0.935 255 255 255
-0.145977 -0.0537384 0.948 255 255 255
0.235863 0.33448 1.032 255 255 255
-0.388126 -0.319432 0.963 255 255 255
0.00175715 0.087807 0.769 255 255 255
0.336168 -0.184083 0.674 255 255 255
-0.19438 0.217434 0.578 255 255 255
0.277633 0.0761583 0.864 255 255 255
0.238562 0.0992457 0.908 255 255 255
0.00415544 0.169852 0.75 255 255 255
-0.0750408 0.205267 0.653 255 255 255
0.212856 -0.0402592 0.858 255 255 255
-0.0455272 -0.2012 0.945 255 255 255
-0.312635 -0.124532 0.737 255 255 255
-0.181202 -0.109177 1.085 255 255 255
-0.395765 -0.321607 0.879 255 255 255
-0.112825 0.152673 0.689 255 255 255
0.347135 -0.0372312 0.742 255 255 255
-0.335683 -0.247564 0.97 255 255 255
-0.166887 -0.305982 0.927 255 255 255
0.342853 -0.111195 0.713 255 255 255
0.186906 0.133953 0.978 255 255 255
0.39246 0.287725 0.866 255 255 255
-0.230435 -0.144104 0.887 0 0 0
0.365649 -0.0411541 0.726 255 255 255
0.094051 0.254551 1.124 255 255 255
0.144695 0.132674 1.017 255 255 255
-0.147694 -0.0859618 1.06 255 255 255
-0.376754 -0.272563 0.958 0 0 0
-0.471036 -0.058146 0.897 255 255 255
-0.0948915 -0.184098 1.03 255 255 255
-0.358969 0.0822256 0.71 255 255 255
0.387042 0.088711 0.766 255 255 255
-0.358714 -0.227207 0.964 255 255 255
-0.0304192 -0.023908 1.062 255 255 255
0.21588 0.251834 1.017 255 255 255
-0.380274 -0.224228 0.873 255 255 255
0.0182103 0.273251 0.981 255 255 255
-0.119238 -0.199451 0.944 255 255 255
0.0957319 0.181484 1.081 255 255 255
-0.0682212 0.195357 0.659 255 255 255
-0.1308 0.216133 0.606 255 255 255
-0.219162 -0.0920262 0.9 255 255 255
0.0506065 -0.331917 0.854 255 255 255
-0.137829 0.531827 1.445 255 255 255
0.0579545 -0.0809035 0.978 255 255 255
-0.0305764 -0.277285 0.912 255 255 255
-0.0767603 -0.212082 0.932 255 255 255
0.425583 0.298624 0.845 255 255 255
-0.0654637 0.0432976 0.882 255 255 255
-0.227568 0.115236 0.667 255 255 255
-0.0148656 0.159471 0.725 255 255 255
-0.415087 -0.0478746 0.896 0 0 0
-0.377934 -0.256214 0.961 255 255 255
0.153689 0.250559 1.068 255 255 255
-0.38865 -0.190831 0.857 255 255 255
-0.0326625 0.412925 1.079 255 255 255
-0.240234 0.11886 0.663 255 255 255
0.130713 0.174737 1.051 255 255 255
-0.0159895 0.0138275 0.927 0 0 0
-0.235991 0.0892936 0.73 255 255 255
-0.401669 -0.0349167 0.864 255 255 255
-0.396487 -0.0105046 0.824 255 255 255
-0.115282 0.211362 0.618 255 255 255
0.0954581 0.396307 1.187 255 255 255
0.312038 -0.133123 0.725 255 255 255
0.16251 -0.222271 0.809 255 255 255
-0.291949 -0.28457 0.941 255 255 255
0.151574 0.184655 1.03 255 255 255
0.120069 0.419643 1.182 255 255 255
-0.299497 0.113887 0.685 255 255 255
0.155182 -0.236309 0.812 255 255 255
-0.209516 -0.103301 0.909 255 255 255
0.17858 -0.0446072 0.889 255 255 255
0.246177 0.40642 1.062 255 255 255
-0.0621862 0.173737 0.675 255 255 255
-0.295036 0.173027 0.607 255 255 255
-0.0352031 -0.0988204 1.05 255 255 255
-0.365081 -0.161474 0.835 255 255 255
0.0461642 0.0568752 0.849 255 255 255
-0.308027 0.147602 0.638 255 255 255
0.201523 0.0325005 0.901 255 255 255
-0.210219 0.21537 0.575 255 255 255
-0.142909 0.0236938 0.722 255 255 255
-0.180257 0.224235 0.581 255 255 255
0.348167 -0.0855482 0.712 255 255 255
-0.159342 0.171533 0.65 255 255 255
0.290953 -0.0535088 0.786 255 255 255
0.077034 0.383391 1.201 255 255 255
-0.257634 -0.286266 0.917 255 255 255
-0.214795 -0.132706 0.888 255 255 255
0.275145 0.00563393 0.831 255 255 255
-0.159234 0.147543 0.686 255 255 255
0.208096 0.331005 1.053 255 255 255
-0.11985 -0.254142 0.925 255 255 255
0.267595 -0.00113576 0.837 255 255 255
-0.0789393 0.229549 0.668 255 255 255
0.367961 0.331961 0.91 255 255 255
-0.142517 0.0723168 0.764 255 255 255
0.253208 -0.102893 0.792 255 255 255
0.383159 0.174816 0.819 255 255 255
-0.313821 0.104539 0.697 255 255 255
-0.0136666 0.178102 0.724 255 255 255
-0.202664 -0.312848 0.925 255 255 255
-0.204401 -0.111806 0.906 255 255 255
-0.319857 0.123919 0.667 255 255 255
0.0504583 -0.235818 0.901 255 255 255
0.00819806 -0.237865 0.932 255 255 255
-0.125557 -0.070392 1.034 255 255 255
-0.0212533 0.108874 0.742 255 255 255
-0.204515 -0.09195 0.977 255 255 255
-0.193248 -0.2121 1.135 255 255 255
0.129495 0.458466 1.198 255 255 255
0.304999 0.150261 0.878 255 255 255
0.390197 0.15499 0.806 255 255 255
-0.129031 -0.32758 0.937 255 255 255
0.40682 0.205288 0.813 255 255 255
0.379058 0.240387 0.858 255 255 255
-0.0904018 0.205485 0.634 255 255 255
-0.141341 0.200583 0.622 255 255 255
-0.245837 0.00962125 0.724 255 255 255
-0.0203173 -0.320938 0.918 255 255 255
-0.105194 0.175459 0.669 255 255 255
0.283469 -0.074966 0.783 255 255 255
-0.0482715 -0.143161 1.037 255 255 255
-0.00687779 0.132897 0.755 255 255 255
-0.0755096 -0.0918579 1.089 255 255 255
0.270143 -0.244281 0.702 255 255 255
0.136973 -0.126068 0.882 255 255 255
-0.363045 -0.291223 0.963 255 255 255
-0.169905 0.022207 0.712 255 255 255
-0.0349436 -0.184134 0.994 255 255 255
0.0487382 -0.193721 0.924 255 255 255
-0.208725 0.104764 0.722 255 255 255
0.363643 0.0712926 0.78 255 255 255
0.257 0.102194 0.895 255 255 255
0.271683 -0.225948 0.709 255 255 255
0.21775 0.275274 1.018 255 255 255
0.0928042 0.313928 1.154 255 255 255
-0.31815 -0.0840115 0.75 255 255 255
-0.0343314 0.303559 1.024 255 255 255
-0.151818 -0.0311234 0.918 255 255 255
0.102613 -0.265061 0.836 255 255 255
0.0464276 -0.111812 0.97 255 255 255
0.225334 -0.00819297 0.863 255 255 255
0.298826 -0.242595 0.669 255 255 255
-0.307305 0.169643 0.602 255 255 255
0.258374 -0.0800967 0.796 255 255 255
-0.101673 0.057554 0.705 255 255 255
0.35723 0.160956 0.83 255 255 255
-0.188713 -0.312012 0.813 255 255 255
0.332239 0.139771 0.849 255 255 255
-0.183518 0.0850051 0.734 255 255 255
-0.124284 0.0493723 0.737 255 255 255
0.283907 0.0332307 0.845 255 255 255
0.357368 -0.0847071 0.705 255 255 255
-0.00919164 -0.137653 1.009 255 255 255
-0.331629 -0.270219 0.972 255 255 255
0.0606201 -0.285999 0.858 255 255 255
-0.374144 -0.189222 0.882 255 255 255
0.0271064 0.138211 0.778 255 255 255
0.213987 -0.193 0.776 255 255 255
0.244666 0.211381 0.961 255 255 255
0.108796 -0.0279477 0.963 255 255 255
0.0533786 0.132965 0.792 255 255 255
-0.394318 0.024016 0.77 255 255 255
0.0325764 0.211749 0.935 255 255 255
0.34341 0.0424222 0.786 255 255 255
0.118295 -0.198728 0.861 255 255 255
-0.131753 -0.255371 0.924 255 255 255
-0.38043 -0.262208 0.827 255 255 255
-0.349136 -0.126898 0.751 255 255 255
0.0685024 0.293779 1.156 255 255 255
0.190248 -0.176174 0.815 255 255 255
0.309708 -0.25083 0.662 255 255 255
-0.0234875 0.0576013 0.82 255 255 255
-0.0635662 0.160166 0.678 255 255 255
-0.360877 -0.069256 0.854 255 255 255
-0.336584 0.0803124 0.724 255 255 255
0.183124 -0.0586754 0.883 255 255 255
0.158392 -0.00278134 0.932 255 255 255
-0.158827 -0.344086 0.924 255 255 255
-0.148715 0.00485427 0.716 255 255 255
-0.195917 0.157207 0.652 255 255 255
-0.14854 0.0722221 0.763 255 255 255
-0.0337662 -0.334383 0.918 255 255 255
-0.227741 -0.327596 0.85 255 255 255
-0.359722 -0.0328901 0.848 255 255 255
-0.210613 0.142924 0.645 255 255 255
-0.280085 -0.0133285 0.756 255 255 255
-0.414426 -0.237408 0.825 255 255 255
0.318848 0.15862 0.869 255 255 255
0.302376 0.265172 0.941 255 255 255
0.338876 -0.137397 0.693 255 255 255
-0.292792 0.0190038 0.77 255 255 255
0.332688 0.0376856 0.794 255 255 255
0.156794 0.0680679 0.969 255 255 255
0.203797 0.400934 1.104 255 255 255
0.0067115 0.103263 0.763 255 255 255
0.263808 -0.0858121 0.789 255 255 255
-0.359143 -0.0188427 0.837 255 255 255
0.301151 0.164269 0.892 255 255 255
0.141874 0.363114 1.126 255 255 255
-0.386295 0.0314933 0.769 255 255 255
0.162826 -0.146737 0.852 255 255 255
0.299461 -0.0153098 0.795 255 255 255
0.00399104 -0.0926772 1.02 255 255 255
0.365926 0.197333 0.847 255 255 255
0.337765 -0.177766 0.675 255 255 255
-0.357357 0.0400962 0.766 255 255 255
0.388412 0.318513 0.889 255 255 255
-0.238267 0.0521498 0.76 255 255 255
-0.075492 0.117544 0.707 255 255 255
0.363109 0.293972 0.898 255 255 255
0.227775 -0.0831154 0.826 255 255 255
-0.0687273 0.0778969 0.746 255 255 255
-0.197915 -0.235071 1.13 255 255 255
-0.376564 0.0622255 0.733 255 255 255
0.200275 0.21281 0.997 255 255 255
-0.359458 -0.232395 0.966 255 255 255
0.373155 0.255606 0.867 255 255 255
0.256749 0.0240241 0.86 255 255 255
-0.202486 -0.228723 1.135 255 255 255
0.312891 0.307821 0.945 255 255 255
0.251786 -0.00253066 0.848 255 255 255
-0.121733 0.216567 0.61 255 255 255
0.234985 -0.248587 0.735 255 255 255
-0.166184 0.103446 0.721 255 255 255
-0.0836792 0.111194 0.718 255 255 255
0.0106975 0.121106 0.782 255 255 255
0.0798799 -0.17443 0.902 255 255 255
-0.376211 0.0631587 0.73 255 255 255
0.216508 -0.0575254 0.845 255 255 255
-0.31961 0.0787098 0.731 255 255 255
0.318224 0.17761 0.879 255 255 255
0.370941 0.090564 0.782 255 255 255
-0.179913 0.202951 0.602 255 255 255
-0.278266 -0.330255 0.883 255 255 255
0.0375434 0.100645 0.812 255 255 255
0.340859 0.069042 0.798 255 255 255
0.0590609 -0.22042 0.898 255 255 255
-0.389158 -0.370783 0.954 255 255 255
-0.00553208 0.241694 0.945 255 255 255
0.352427 0.078535 0.789 255 255 255
-0.0450541 0.133277 0.699 255 255 255
0.362106 0.0556296 0.774 255 255 255
-0.410542 -0.288126 0.828 0 0 0
-0.436903 -0.0241459 0.832 255 255 255
-0.393497 -0.371949 0.957 255 255 255
-0.212858 -0.117337 0.892 255 255 255
-0.1903 0.195746 0.607 255 255 255
-0.401259 -0.253607 0.804 0 0 0
-0.0566685 -0.0970385 1.068 255 255 255
0.10853 -0.0505996 0.947 255 255 255
0.0676854 -0.0948388 0.958 255 255 255
0.268372 -0.205091 0.725 255 255 255
-0.411665 -0.139398 0.833 255 255 255
0.344627 0.316896 0.931 255 255 255
0.30664 -0.137416 0.729 255 255 255
-0.0792796 0.0822256 0.71 255 255 255
-0.0559072 -0.0563111 1.087 255 255 255
0.169955 -0.108929 0.86 255 255 255
-0.0315122 0.345868 1.041 255 255 255
0.0896431 -0.283406 0.842 255 255 255
-0.215753 -0.128082 0.886 255 255 255
-0.289108 0.173027 0.607 255 255 255
-0.197063 -0.121585 0.913 255 255 255
0.358623 0.335507 0.928 255 255 255
0.348901 -0.0217952 0.751 255 255 255
0.129464 -0.249491 0.825 255 255 255
0.0186563 0.209257 0.924 255 255 255
-0.290775 0.00266141 0.755 255 255 255
-0.146845 0.133652 0.707 255 255 255
0.138663 -0.0739596 0.912 255 255 255
-0.0457293 0.164599 0.692 255 255 255
0.229933 -0.191759 0.766 255 255 255
-0.139217 0.214437 0.604 255 255 255
-0.381375 -0.156832 0.832 255 255 255
-0.177661 -0.123875 0.978 255 255 255
0.304542 -0.236028 0.672 255 255 255
0.0891725 -0.237382 0.864 255 255 255
0.360846 0.0493318 0.774 255 255 255
-0.363829 0.0678175 0.729 255 255 255
0.320261 0.0718391 0.815 255 255 255
0.347929 -0.155193 0.682 255 255 255
-0.141727 0.0357377 0.728 0 0 0
0.339572 -0.00103535 0.763 255 255 255
-0.134126 -0.090197 1.135 255 255 255
-0.225881 -0.219815 0.98 255 255 255
-0.392034 -0.249523 0.812 0 0 0
0.0295266 -0.290545 0.889 255 255 255
-0.332325 0.0994284 0.693 255 255 255
0.00372106 -0.214858 0.951 255 255 255
0.24592 0.357039 1.039 255 255 255
0.373367 0.0522184 0.761 255 255 255
-0.0557692 0.110328 0.705 255 255 255
0.243769 -0.0665799 0.821 255 255 255
-0.26015 0.180035 0.604 255 255 255
-0.0775101 0.108403 0.715 255 255 255
0.043281 -0.0472506 1.007 255 255 255
-0.428305 -0.186118 0.861 255 255 255
0.306515 -0.0771997 0.755 255 255 255
-0.297433 0.12965 0.663 255 255 255
-0.125295 0.0884656 0.743 255 255 255
0.0248329 -0.223734 0.93 255 255 255
-0.0322085 -0.0793603 1.064 255 255 255
-0.318158 -0.319999 0.96 255 255 255
-0.44663 -0.181206 0.892 255 255 255
0.142431 0.350809 1.116 255 255 255
-0.0683405 -0.0232464 0.963 255 255 255
0.244797 0.0656357 0.893 255 255 255
-0.131063 0.193713 0.636 255 255 255
-0.0129156 -0.298653 0.923 255 255 255
-0.0924601 0.0978767 0.732 255 255 255
-0.251643 -0.0568813 0.856 255 255 255
0.154591 -0.0554729 0.901 255 255 255
0.406319 0.198428 0.812 255 255 255
0.310296 -0.228294 0.675 255 255 255
-0.134599 0.184335 0.643 255 255 255
-0.407228 -0.180646 0.855 255 255 255
0.15809 -0.285385 0.787 255 255 255
0.229235 0.10482 0.918 255 255 255
-0.109618 0.160236 0.683 255 255 255
-0.13657 0.163239 0.668 255 255 255
-0.335995 0.0741538 0.733 255 255 255
0.368529 0.0565216 0.769 255 255 255
-0.0881503 0.133613 0.689 255 255 255
0.00956923 -0.274627 0.918 255 255 255
-0.245865 -0.233451 0.977 0 0 0
-0.341598 -0.335699 0.947 255 255 255
-0.149401 0.148876 0.687 255 255 255
0.230408 -0.166481 0.776 255 255 255
-0.0497176 -0.00432107 0.937 0 0 0
0.158054 0.0247029 0.939 255 255 255
-0.320358 0.0499377 0.764 255 255 255
0.296706 0.0432892 0.827 255 255 255
-0.00716013 0.00648817 0.957 255 255 255
-0.249637 0.187631 0.6 255 255 255
-0.05383 0.0700762 0.795 255 255 255
0.284425 -0.149515 0.736 255 255 255
-0.212948 0.0814296 0.745 255 255 255
-0.0781238 0.083381 0.71 255 255 255
-0.0510646 0.15805 0.688 255 255 255
-0.218911 -0.142173 0.893 255 255 255
0.161316 -0.284297 0.784 255 255 255
0.268604 -0.0882681 0.788 255 255 255
-0.206421 0.0952049 0.739 255 255 255
-0.0743463 -0.0729622 1.098 255 255 255
-0.0955815 -0.00419195 0.909 255 255 255
0.0665176 -0.200406 0.9 255 255 255
-0.0896628 -0.00862967 0.909 255 255 255
-0.218753 -0.186001 0.923 0 0 0
0.130401 -0.0302751 0.938 255 255 255
0.244583 0.283142 0.999 255 255 255
-0.208827 0.0952049 0.739 255 255 255
0.322324 -0.0907038 0.735 255 255 255
0.390572 0.114156 0.778 255 255 255
-0.344952 -0.11934 0.742 255 255 255
-0.326475 0.00667518 0.794 255 255 255
-0.298971 0.080978 0.73 255 255 255
-0.194126 0.179298 0.629 255 255 255
-0.250769 0.01814 0.735 0 0 0
-0.317113 -0.119457 0.728 255 255 255
0.27117 -0.080574 0.788 255 255 255
0.0148482 0.260716 0.97 255 255 255
-0.322608 0.146677 0.634 255 255 255
0.314805 0.224825 0.902 255 255 255
0.0491142 -0.280915 0.877 255 255 255
-0.363842 0.0829113 0.706 255 255 255
-0.146931 0.122023 0.713 255 255 255
-0.0344465 0.124692 0.715 255 255 255
0.138217 -0.284179 0.798 255 255 255
-0.336911 -0.226265 0.96 255 255 255
0.0655122 -0.302341 0.849 255 255 255
-0.331154 -0.175803 0.966 255 255 255
0.206285 -0.169263 0.795 255 255 255
0.0926415 -0.304411 0.832 255 255 255
0.124361 0.10012 0.916 255 255 255
0.30048 0.219897 0.912 255 255 255
0.256085 -0.0753859 0.801 255 255 255
0.142268 0.270937 1.087 255 255 255
-0.0357598 0.14391 0.718 255 255 255
-0.113732 0.159767 0.681 255 255 255
0.300267 0.273699 0.944 255 255 255
-0.221385 0.115409 0.668 255 255 255
-0.393425 0.0336425 0.761 255 255 255
-0.154662 0.0342682 0.722 255 255 255
0.226955 0.110374 0.927 255 255 255
-0.260175 -0.0677074 0.852 255 255 255
-0.251854 -0.0718668 0.852 255 255 255
0.186831 0.00615597 0.908 255 255 255
0.198564 0.291098 1.039 255 255 255
0.207403 -0.20284 0.775 255 255 255
0.277678 -0.176582 0.734 255 255 255
-0.0974797 0.185193 0.661 255 255 255
-0.326685 0.102812 0.693 255 255 255
0.133889 -0.0476598 0.92 255 255 255
0.256273 -0.139601 0.774 255 255 255
-0.326145 -0.114561 0.727 255 255 255
0.116851 -0.0183332 0.952 255 255 255
-0.0302402 -0.00282909 0.948 255 255 255
0.00776588 0.165082 0.745 255 255 255
-0.100196 0.249515 0.672 255 255 255
-0.331116 -0.251684 1.114 255 255 255
-0.00662678 0.438735 1.132 255 255 255
0.0138848 -0.079009 1.015 255 255 255
0.211603 0.352845 1.062 255 255 255
0.282105 0.280077 0.966 255 255 255
-0.247902 0.0498724 0.763 0 0 0
0.265615 0.401827 1.05 255 255 255
0.143494 0.114189 0.986 255 255 255
0.214344 -0.0208566 0.864 255 255 255
0.164091 0.155486 1.004 255 255 255
0.200048 -0.0545377 0.863 255 255 255
0.0869534 -0.2519 0.856 255 255 255
-0.0335312 0.170081 0.696 255 255 255
-0.146372 -0.283221 0.912 255 255 255
-0.218333 0.150851 0.643 255 255 255
-0.135803 0.169619 0.659 255 255 255
0.0331232 0.0979784 0.801 255 255 255
0.0811077 -0.242719 0.868 255 255 255
-0.301559 0.0333409 0.783 255 255 255
-0.0817479 -0.315382 0.937 255 255 255
-0.198093 0.00699395 0.697 255 255 255
-0.0671485 0.196429 0.659 255 255 255
-0.365618 0.0169691 0.792 255 255 255
0.289888 0.101819 0.867 255 255 255
0.078713 0.000270115 0.999 255 255 255
0.0999589 0.0981977 0.86 255 255 255
-0.406891 -0.244954 0.81 255 255 255
0.12616 0.438064 1.185 255 255 255
0.0779251 -0.0206552 0.989 255 255 255
-0.167845 -0.224904 1.025 255 255 255
-0.118356 0.0741554 0.745 255 255 255
-0.133546 0.00600681 0.886 255 255 255
-0.289198 0.204938 0.572 255 255 255
-0.0988143 0.0446791 0.701 0 0 0
0.381005 0.0934162 0.774 255 255 255
0.289488 0.136747 0.883 255 255 255
-0.371934 -0.235041 0.887 255 255 255
0.0861982 0.192568 1.094 255 255 255
0.200203 -0.246559 0.762 255 255 255
-0.257281 -0.165794 0.895 255 255 255
0.140462 -0.291239 0.796 255 255 255
-0.134196 -0.194944 0.952 255 255 255
-0.310945 0.159323 0.619 255 255 255
-0.0653476 0.11815 0.697 255 255 255
0.23819 0.0706223 0.901 255 255 255
-0.0091461 -0.143506 1.004 255 255 255
-0.341835 -0.122993 0.935 0 0 0
-0.181134 -0.0686725 0.641 255 255 255
0.0372638 -0.318628 0.867 255 255 255
0.234035 0.31689 1.024 255 255 255
0.0721733 -0.162231 0.916 255 255 255
-0.0284142 -0.183763 0.992 255 255 255
0.138094 0.280314 1.096 255 255 255
-0.379126 -0.29091 0.836 255 255 255
-0.191971 -0.272234 0.91 255 255 255
-0.344029 -0.136033 0.941 255 255 255
-0.17084 0.0457121 0.736 255 255 255
-0.242784 0.157374 0.644 255 255 255
0.0908934 -0.231152 0.867 255 255 255
-0.0267183 0.270651 0.989 255 255 255
-0.252077 -0.0021636 0.725 255 255 255
-0.169698 0.158276 0.67 255 255 255
0.321026 -0.180855 0.691 255 255 255
-0.364032 0.0492841 0.754 255 255 255
0.255454 0.290688 0.997 255 255 255
-0.207765 0.0195265 0.699 255 255 255
0.222658 -0.0783034 0.832 255 255 255
0.198185 -0.0868114 0.849 255 255 255
-0.011328 -0.0426355 1.055 255 255 255
-0.199377 0.204666 0.59 255 255 255
0.14805 -0.267586 0.795 255 255 255
0.278001 0.0912626 0.874 255 255 255
-0.326192 0.0346593 0.784 255 255 255
0.328758 -0.226483 0.657 255 255 255
0.196512 0.433805 1.124 255 255 255
0.343723 0.261531 0.897 255 255 255
0.0327225 0.307116 1.036 255 255 255
0.317206 -0.0360831 0.769 255 255 255
-0.421148 -0.270312 0.807 255 255 255
0.315181 0.011769 0.789 255 255 255
-0.416222 -0.358458 0.938 255 255 255
0.0442476 0.212059 0.957 255 255 255
0.073502 0.118259 0.815 255 255 255
0.206731 -0.146455 0.812 255 255 255
0.0649525 -0.13297 0.941 255 255 255
0.0327924 0.0763522 0.793 255 255 255
-0.132659 0.125243 0.705 255 255 255
0.124243 -0.251137 0.826 255 255 255
-0.102551 -0.337965 0.932 255 255 255
-0.0414445 -0.0418496 1.079 255 255 255
0.289712 0.0724973 0.854 255 255 255
-0.237793 0.00948836 0.714 255 255 255
-0.269088 0.179439 0.602 255 255 255
-0.0840207 0.115895 0.711 255 255 255
0.00212503 -0.257029 0.93 255 255 255
-0.0125938 -0.342472 0.9 255 255 255
0.00364671 0.018452 0.932 255 255 255
0.381851 0.245972 0.858 255 255 255
0.0597815 0.4353 1.249 255 255 255
0.108525 -0.310317 0.819 255 255 255
-0.0422888 0.16661 0.691 255 255 255
-0.344131 -0.0521482 0.847 255 255 255
0.0250492 -0.097272 0.999 255 255 255
0.341226 0.0205463 0.781 255 255 255
-0.0502482 0.185269 0.677 255 255 255
0.371634 0.18436 0.832 255 255 255
-0.125388 0.221435 0.599 255 255 255
-0.123703 0.0586299 0.748 255 255 255
0.29457 0.092169 0.856 255 255 255
0.085753 -0.170027 0.902 255 255 255
0.198652 0.214433 0.997 255 255 255
-0.334239 -0.282159 0.975 255 255 255
-0.290464 0.13596 0.657 255 255 255
0.230816 0.36082 1.055 255 255 255
-0.393118 -0.00243815 0.817 255 255 255
0.239 -0.25249 0.729 255 255 255
-0.333526 0.0509131 0.76 255 255 255
0.371496 -0.00461681 0.74 255 255 255
-0.166882 0.544425 1.393 255 255 255
0.26245 -0.249024 0.709 255 255 255
-0.253227 0.162664 0.636 255 255 255
-0.0549846 -0.334702 0.923 255 255 255
0.310699 0.141161 0.866 255 255 255
-0.0597885 0.00598648 0.883 255 255 255
0.343388 -0.132886 0.693 255 255 255
-0.155987 -0.043403 0.925 255 255 255
-0.307296 -0.341429 0.905 255 255 255
-0.157385 0.221363 0.591 255 255 255
-0.393733 0.0275587 0.764 255 255 255
-0.144707 0.0215953 0.875 255 255 255
-0.162762 -0.0236262 0.732 0 0 0
0.338651 0.0733034 0.802 255 255 255
-0.42468 -0.0850797 0.904 255 255 255
-0.363273 -0.254401 0.972 255 255 255
0.336521 0.125837 0.839 255 255 255
0.271041 -0.111746 0.773 255 255 255
-0.377734 -0.216692 0.877 255 255 255
0.28746 -0.134731 0.747 255 255 255
0.269767 -0.235811 0.704 255 255 255
-0.1226 0.15755 0.681 255 255 255
0.154196 -0.189764 0.828 255 255 255
0.137594 -0.0256136 0.935 255 255 255
-0.470132 -0.0963207 0.942 255 255 255
-0.138214 0.00738978 0.879 255 255 255
0.224637 -0.0303789 0.855 255 255 255
0.0357121 -0.018071 1.025 255 255 255
-0.204746 0.0579499 0.755 255 255 255
-0.307932 0.0358893 0.783 255 255 255
0.0931319 0.390791 1.182 255 255 255
0.233222 0.000232802 0.861 255 255 255
-0.117837 -0.174828 1.087 255 255 255
-0.168064 -0.0126761 0.719 255 255 255
0.305418 0.188335 0.896 255 255 255
0.0568655 0.310698 1.149 255 255 255
-0.296919 0.182546 0.593 255 255 255
0.21234 0.00894061 0.891 255 255 255
0.336843 -0.0911961 0.72 255 255 255
0.393968 0.317441 0.882 255 255 255
-0.0613589 0.218642 0.678 255 255 255
0.219958 -0.210457 0.766 255 255 255
-0.124636 -0.0359542 0.927 255 255 255
0.142247 -0.195912 0.837 255 255 255
0.345969 0.0513757 0.786 255 255 255
-0.0401411 0.209229 0.734 255 255 255
0.346612 -0.0169742 0.754 255 255 255
-0.195753 0.137678 0.655 255 255 255
-0.164552 -0.153804 1.141 255 255 255
0.273892 -0.247078 0.697 255 255 255
0.330534 0.307277 0.934 255 255 255
-0.0946042 0.253966 0.687 255 255 255
-0.170396 0.204269 0.603 255 255 255
0.237866 -0.0960049 0.81 255 255 255
-0.26271 0.051583 0.77 255 255 255
0.0194404 -0.302799 0.891 255 255 255
0.0321932 -0.223794 0.924 255 255 255
0.143887 -0.224778 0.823 255 255 255
-0.143137 -0.201269 0.96 255 255 255
0.227169 0.21875 0.98 255 255 255
-0.337283 -0.30049 1.141 255 255 255
-0.40307 -0.0549188 0.892 0 0 0
0.216499 -0.21198 0.767 255 255 255
-0.0449252 0.152178 0.697 0 0 0
0.0347184 -0.167058 0.952 255 255 255
-0.048703 0.105741 0.737 255 255 255
0.150891 0.00638648 0.942 255 255 255
-0.240948 0.112651 0.671 255 255 255
0.0710539 0.309868 1.167 255 255 255
0.111233 -0.0308883 0.957 255 255 255
0.237416 0.185584 0.957 255 255 255
0.167856 0.363206 1.104 255 255 255
0.175466 -0.154309 0.833 255 255 255
-0.0737259 -0.0266272 0.972 255 255 255
0.307428 -0.15849 0.717 255 255 255
-0.23085 0.180312 0.615 255 255 255
-0.30595 0.147602 0.638 255 255 255
0.0414591 0.131958 0.786 255 255 255
-0.0602664 0.421727 1.102 255 255 255
-0.162544 0.210157 0.603 255 255 255
0.220627 -0.209908 0.764 255 255 255
-0.210641 0.0218639 0.701 255 255 255
0.308508 0.0345757 0.812 255 255 255
-0.0339501 -0.331698 0.923 255 255 255
0.268061 -0.151945 0.754 255 255 255
0.338651 0.0719983 0.802 255 255 255
0.133079 -0.160422 0.866 255 255 255
0.374803 0.317354 0.898 255 255 255
0.342084 -0.117493 0.709 255 255 255
-0.258111 -0.321241 0.878 255 255 255
0.267138 -0.0185276 0.823 255 255 255
0.086876 -0.0236809 0.981 255 255 255
-0.0350904 -0.207773 0.954 255 255 255
-0.307625 -0.0432046 0.834 255 255 255
-0.202601 0.204051 0.591 255 255 255
0.00541315 0.270547 0.977 255 255 255
0.141907 -0.215827 0.835 255 255 255
0.338927 0.0089795 0.77 255 255 255
-0.274124 0.11938 0.672 255 255 255
-0.0549738 0.00878006 0.875 255 255 255
-0.0886081 -0.0512197 1.055 255 255 255
0.28418 -0.253903 0.673 255 255 255
-0.00995363 -0.265251 0.927 255 255 255
-0.0831021 -0.0391346 1.009 255 255 255
0.000514566 0.0766636 0.783 255 255 255
0.0183333 -0.279024 0.908 255 255 255
-0.25604 0.195065 0.59 255 255 255
0.270593 -0.194893 0.731 255 255 255
0.112134 0.138316 1.022 255 255 255
-0.0195749 -0.100972 1.037 255 255 255
-0.214414 0.116844 0.67 255 255 255
-0.292792 0.0553421 0.77 255 255 255
0.0906388 -0.0423575 0.97 255 255 255
-0.333445 -0.262755 1.18 255 255 255
-0.387291 -0.0215411 0.836 255 255 255
-0.0804991 -0.178943 1.039 255 255 255
-0.214848 0.0350995 0.715 255 255 255
0.184525 -0.150142 0.825 255 255 255
0.171078 0.033727 0.935 255 255 255
0.0659441 0.101637 0.82 255 255 255
0.380454 0.25016 0.858 255 255 255
0.204853 -0.0811892 0.848 255 255 255
0.28236 0.359288 1.012 255 255 255
-0.0843752 0.080365 0.714 255 255 255
0.241988 -0.0833348 0.815 255 255 255
-0.092899 0.467004 1.372 255 255 255
0.063982 0.383274 1.213 255 255 255
-0.393153 -0.211496 0.834 255 255 255
0.204433 -0.0690938 0.852 255 255 255
-0.11323 0.221429 0.607 255 255 255
-0.342628 0.0673624 0.737 255 255 255
0.0237278 0.303295 1.012 255 255 255
-0.129809 0.133849 0.702 0 0 0
0.0534509 0.0501508 0.902 255 255 255
0.0580059 0.0964166 0.821 255 255 255
-0.320226 -0.113187 0.801 255 255 255
0.309542 0.00536274 0.791 255 255 255
0.0590135 0.0202735 1.024 255 255 255
-0.0891834 -0.186898 0.935 255 255 255
0.0454741 0.08611 0.812 255 255 255
0.154417 -0.245664 0.808 255 255 255
-0.314024 -0.0957033 0.746 255 255 255
-0.0218116 -0.286578 0.918 255 255 255
0.3859 0.203547 0.822 255 255 255
-0.301092 -0.0123542 0.772 255 255 255
0.191173 -0.0315159 0.887 255 255 255
0.313364 -0.179536 0.699 255 255 255
-0.0524522 0.174252 0.677 255 255 255
-0.354026 0.0539765 0.751 255 255 255
0.393624 0.15715 0.797 255 255 255
-0.0884203 -0.275811 0.927 255 255 255
-0.289634 -0.336082 0.887 255 255 255
-0.138498 -0.0660514 0.994 255 255 255
0.312097 -0.146822 0.717 255 255 255
0.169381 -0.272692 0.78 255 255 255
-0.475262 -0.0818234 0.934 255 255 255
-0.0608918 0.0934013 0.725 255 255 255
0.173571 -0.17946 0.824 255 255 255
0.319989 -0.129681 0.719 255 255 255
0.29597 0.261686 0.945 255 255 255
-0.0172154 -0.31884 0.912 255 255 255
0.325679 0.0457243 0.799 255 255 255
0.052114 -0.0752995 0.988 255 255 255
0.0842855 -0.146153 0.918 255 255 255
-0.0782048 -0.0786079 1.102 255 255 255
-0.181109 -0.230079 1.106 255 255 255
-0.275709 0.149221 0.645 255 255 255
-0.397027 -0.361425 0.958 255 255 255
0.353801 0.188571 0.851 255 255 255
0.341506 0.220774 0.88 255 255 255
-0.147627 -0.199825 1.098 255 255 255
0.0611655 -0.160171 0.93 255 255 255
0.347316 0.219017 0.873 255 255 255
0.144913 -0.278176 0.792 255 255 255
0.0750429 0.267685 1.141 255 255 255
-0.193383 -0.0792308 0.977 255 255 255
-0.0756469 -0.184248 0.937 255 255 255
-0.179502 0.193008 0.614 255 255 255
0.358282 -0.0685513 0.716 255 255 255
-0.229105 0.0333225 0.727 0 0 0
0.158554 0.135339 1 255 255 255
-0.226688 0.107042 0.684 255 255 255
-0.414837 -0.0601373 0.905 255 255 255
-0.490516 -0.0927599 0.937 255 255 255
-0.124367 -0.236079 0.925 255 255 255
-0.352454 0.0616155 0.74 255 255 255
-0.461149 -0.354612 0.924 255 255 255
-0.182875 -0.208956 1.128 255 255 255
-0.187317 -0.116143 1.022 255 255 255
-0.235886 0.137897 0.651 255 255 255
-0.133806 0.125243 0.705 255 255 255
0.246421 -0.21928 0.737 255 255 255
0.0846604 -0.279575 0.847 255 255 255
0.253021 0.136934 0.923 255 255 255
-0.308753 0.0668812 0.745 255 255 255
-0.113781 0.154691 0.688 255 255 255
-0.117197 0.224503 0.602 255 255 255
-0.00923422 0.0394186 0.86 255 255 255
0.371558 -0.0340655 0.726 255 255 255
0.194224 -0.188188 0.804 255 255 255
0.00236724 -0.0705282 1.036 255 255 255
-0.222025 -0.0550432 0.871 255 255 255
-0.0511389 0.129128 0.689 0 0 0
0.186321 -0.283986 0.756 255 255 255
0.29884 -0.186814 0.705 255 255 255
-0.466031 -0.222234 0.882 255 255 255
0.191875 0.202867 1.004 255 255 255
0.29393 -0.168285 0.724 255 255 255
-0.0966174 0.19315 0.648 255 255 255
0.075456 -0.258257 0.868 255 255 255
-0.173805 0.123646 0.709 255 255 255
-0.338792 0.039154 0.772 255 255 255
-0.000883275 0.229781 0.91 255 255 255
0.324314 -0.144979 0.708 255 255 255
0.316867 0.0130695 0.79 255 255 255
-0.285836 0.166841 0.617 255 255 255
0.239386 -0.26453 0.723 255 255 255
-0.172477 -0.0789919 0.994 255 255 255
-0.347451 -0.164241 0.972 255 255 255
-0.441684 -0.233261 0.849 255 255 255
0.311057 0.142735 0.867 255 255 255
-0.159649 0.0036994 0.718 255 255 255
-0.385525 0.0254331 0.775 255 255 255
-0.379121 -0.250994 0.839 255 255 255
-0.217781 0.109268 0.684 255 255 255
-0.327528 0.0882505 0.712 255 255 255
-0.29725 -0.0671771 0.863 255 255 255
0.269081 -0.162123 0.75 255 255 255
-0.272845 0.0712756 0.753 255 255 255
0.351224 0.00389519 0.756 255 255 255
0.0869197 0.0764826 0.884 255 255 255
-0.201639 -0.207428 1.11 255 255 255
0.0787072 0.219655 1.114 255 255 255
-0.226943 0.170897 0.632 255 255 255
0.0709913 0.362938 1.198 255 255 255
-0.0899293 -0.281845 0.927 255 255 255
-0.359979 -0.119919 0.761 255 255 255
-0.187103 0.17306 0.64 255 255 255
0.188105 -0.017197 0.893 255 255 255
0.184958 -0.138042 0.833 255 255 255
-0.312184 0.134719 0.651 255 255 255
0.250915 0.230011 0.967 255 255 255
0.293488 0.0969108 0.861 255 255 255
0.0613266 -0.272382 0.868 255 255 255
-0.215146 0.141043 0.646 255 255 255
-0.118365 0.226904 0.598 255 255 255
0.183746 -0.0444566 0.886 255 255 255
-0.0820361 0.0443779 0.875 255 255 255
0.298826 -0.245861 0.669 255 255 255
-0.156611 -0.167975 1.124 255 255 255
0.0930427 -0.260586 0.848 255 255 255
-0.0263307 0.103806 0.749 255 255 255
0.274913 -0.178727 0.733 255 255 255
-0.140336 0.120184 0.709 255 255 255
-0.420922 -0.345324 0.896 255 255 255
-0.00101528 -0.0507827 1.046 255 255 255
0.307115 -0.155422 0.719 255 255 255
0.208343 -0.152308 0.808 255 255 255
0.209321 0.356576 1.068 255 255 255
0.214058 0.0629229 0.917 255 255 255
-0.278221 0.161382 0.627 255 255 255
0.0313823 0.0850625 0.79 255 255 255
-0.0445637 -0.330911 0.925 255 255 255
0.238097 0.0474416 0.879 255 255 255
-0.162802 0.0608072 0.76 255 255 255
-0.223319 0.00363242 0.705 255 255 255
-0.312431 0.162033 0.614 255 255 255
0.194116 0.360374 1.09 255 255 255
0.353625 -0.101341 0.709 255 255 255
0.197953 -0.0669436 0.86 255 255 255
0.358789 0.045612 0.775 255 255 255
0.0820034 -0.318715 0.834 255 255 255
0.322779 -0.126346 0.72 255 255 255
0.322265 0.158929 0.863 255 255 255
0.0895581 -0.179102 0.896 255 255 255
-0.239791 0.173706 0.62 255 255 255
-0.301246 0.00893285 0.766 255 255 255
0.110659 0.475554 1.227 255 255 255
-0.197279 -0.264027 0.928 255 255 255
-0.169951 0.155237 0.671 255 255 255
-0.203154 0.159406 0.648 255 255 255
0.136375 0.346623 1.126 255 255 255
-0.394396 -0.331969 0.963 255 255 255
-0.0661405 -0.213599 0.932 255 255 255
0.336478 0.273625 0.913 255 255 255
-0.301045 0.188974 0.586 255 255 255
-0.116534 -0.189297 0.947 255 255 255
-0.0412391 -0.152251 1.03 255 255 255
-0.399965 -0.244238 0.812 255 255 255
0.294183 0.058936 0.839 255 255 255
-0.317041 -0.0894264 0.765 255 255 255
-0.420265 -0.0791952 0.904 255 255 255
-0.0509162 0.164289 0.686 255 255 255
0.220745 0.0275716 0.884 255 255 255
0.271163 0.206542 0.939 255 255 255
-0.0340967 0.294864 1.017 255 255 255
-0.0492436 0.0922092 0.764 255 255 255
-0.326437 -0.205671 0.966 255 255 255
-0.180641 -0.123157 0.96 255 255 255
-0.178211 0.193691 0.613 255 255 255
-0.0638608 -0.0991464 1.072 255 255 255
-0.384116 -0.14056 0.801 255 255 255
-0.167677 0.143774 0.684 255 255 255
0.121369 0.248625 1.09 255 255 255
0.220315 0.244442 1.007 255 255 255
-0.358955 -0.323883 0.944 255 255 255
-0.184482 -0.116788 0.972 255 255 255
0.169587 0.0965513 0.97 255 255 255
0.313415 0.137064 0.858 255 255 255
-0.0489747 -0.327192 0.923 255 255 255
-0.334104 -0.168638 0.97 255 255 255
0.344328 -0.0536981 0.736 255 255 255
-0.108941 0.209693 0.622 255 255 255
0.011859 0.283695 0.984 255 255 255
-0.373554 -0.211229 0.884 255 255 255
-0.374144 -0.215057 0.882 0 0 0
0.275164 0.0293465 0.852 255 255 255
0.238921 -0.192691 0.755 255 255 255
-0.400224 -0.187668 0.849 255 255 255
0.157094 -0.156259 0.851 255 255 255
-0.11188 -0.0711754 1.098 255 255 255
0.24831 -0.234587 0.725 255 255 255
-0.217939 -0.287136 0.901 255 255 255
0.171323 0.417352 1.139 255 255 255
0.335034 0.372406 0.969 255 255 255
0.0209177 0.325661 1.036 255 255 255
-0.359007 0.0783691 0.717 255 255 255
-0.077569 0.152867 0.675 255 255 255
0.253569 0.147767 0.925 255 255 255
-0.143616 -0.0218221 0.904 255 255 255
-0.237892 -0.189305 0.91 0 0 0
0.327147 0.356637 0.969 255 255 255
-0.163869 -0.339169 0.927 255 255 255
-0.340303 0.0740526 0.732 255 255 255
-0.246059 0.215141 0.567 255 255 255
-0.0678806 0.142303 0.677 255 255 255
0.353031 -0.123685 0.692 255 255 255
0.360413 0.153831 0.828 255 255 255
-0.199608 0.0474835 0.745 255 255 255
-0.336269 -0.110433 0.731 255 255 255
0.128264 0.0688406 0.98 255 255 255
-0.369388 0.0547576 0.745 255 255 255
0.408988 0.236412 0.82 255 255 255
-0.202955 0.209108 0.581 255 255 255
0.0778602 0.246279 1.128 255 255 255
0.141335 -0.25872 0.816 255 255 255
-0.178936 0.169939 0.652 255 255 255
-0.211164 -0.237329 1.132 255 255 255
0.157755 0.265453 1.072 255 255 255
-0.0803574 0.172811 0.68 255 255 255
-0.14998 -0.0775097 1.017 255 255 255
0.170467 -0.255278 0.785 255 255 255
-0.427029 -0.0825918 0.909 255 255 255
-0.329592 0.103789 0.692 255 255 255
0.299496 -0.0502376 0.775 255 255 255
-0.18429 0.194728 0.61 255 255 255
0.332227 0.193527 0.867 255 255 255
-0.0118707 -0.215329 0.96 255 255 255
-0.0277321 0.120038 0.722 255 255 255
0.356272 -0.0688385 0.719 255 255 255
0.203693 0.148182 0.967 255 255 255
-0.264598 -0.198219 0.931 255 255 255
0.32655 -0.158834 0.698 255 255 255
0.368569 0.0722829 0.777 255 255 255
0.306515 -0.0833429 0.755 255 255 255
-0.0964994 0.041625 0.877 255 255 255
-0.0516457 0.378846 1.072 255 255 255
0.208895 0.0537928 0.914 255 255 255
-0.323129 0.150159 0.627 255 255 255
-0.182827 -0.0743467 0.636 255 255 255
0.400469 0.293409 0.862 255 255 255
0.345995 -0.0290891 0.75 255 255 255
-0.322288 -0.165854 0.963 255 255 255
0.100881 -0.135396 0.906 255 255 255
-0.18133 0.0370238 0.73 255 255 255
-0.244148 -0.0591593 0.869 255 255 255
0.138918 -0.0821375 0.904 255 255 255
-0.159518 0.137432 0.697 255 255 255
-0.125 0.182952 0.653 255 255 255
0.187349 0.434356 1.135 255 255 255
-0.00390927 0.0228293 0.925 0 0 0
0.0966108 -0.270024 0.843 255 255 255
0.404824 0.171414 0.791 255 255 255
-0.144812 -0.00910225 0.714 255 255 255
0.173921 -0.124553 0.852 255 255 255
-0.319878 -0.0835912 0.92 255 255 255
0.175027 -0.216201 0.806 255 255 255
0.143977 0.443172 1.173 255 255 255
0.410322 0.320877 0.868 255 255 255
-0.345676 -0.0928904 0.954 255 255 255
0.195796 -0.236587 0.774 255 255 255
0.288629 0.0217564 0.827 255 255 255
-0.367704 -0.281701 0.841 255 255 255
-0.370043 -0.284447 0.837 0 0 0
0.227231 -0.226463 0.757 255 255 255
0.112947 0.312915 1.13 255 255 255
-0.312974 0.173771 0.596 255 255 255
0.019787 -0.138481 0.98 255 255 255
0.102243 0.0768268 0.905 255 255 255
0.139011 0.0442772 0.966 255 255 255
-0.174191 0.187831 0.62 255 255 255
-0.108789 -0.163912 1.085 255 255 255
-0.310806 0.168519 0.605 255 255 255
-0.151838 0.539561 1.422 255 255 255
0.0708729 -0.303007 0.847 255 255 255
0.320783 -0.235746 0.656 255 255 255
0.201923 -0.279557 0.741 255 255 255
0.312957 -0.217632 0.676 255 255 255
0.259353 -0.253997 0.71 255 255 255
-0.298899 -0.318932 0.934 255 255 255
-0.0116501 0.404628 1.085 255 255 255
0.398873 0.318495 0.877 255 255 255
-0.237363 0.207884 0.575 255 255 255
0.0656666 -0.291975 0.851 255 255 255
0.306563 0.0866537 0.843 255 255 255
-0.329187 0.116618 0.675 255 255 255
-0.216232 -0.29414 0.9 255 255 255
0.182961 -0.258924 0.773 255 255 255
0.11882 -0.0664102 0.931 255 255 255
0.29393 -0.155325 0.724 255 255 255
-0.0270633 -0.0534885 1.066 255 255 255
0.139924 -0.0862635 0.901 255 255 255
0.276133 0.033624 0.855 255 255 255
-0.143786 -0.347094 0.924 255 255 255
0.0304969 -0.0427969 1.018 255 255 255
-0.1581 -0.0175494 0.727 255 255 255
0.0783979 -0.00782693 0.995 255 255 255
-0.132499 -0.156286 1.106 255 255 255
-0.215597 0.170443 0.638 255 255 255
-0.198271 0.118937 0.682 255 255 255
0.238915 0.24651 0.989 255 255 255
-0.0922332 0.258062 0.686 255 255 255
-0.0448954 -0.143161 1.037 255 255 255
-0.0346874 0.150169 0.72 255 255 255
-0.374018 -0.300626 0.963 255 255 255
-0.0190464 -0.152431 1.009 255 255 255
-0.391552 -0.269012 0.811 255 255 255
-0.153224 -0.15728 1.126 255 255 255
-0.070287 0.12111 0.701 255 255 255
-0.217252 -0.0339247 0.723 0 0 0
0.303597 -0.0603962 0.76 255 255 255
0.381755 0.166208 0.816 255 255 255
-0.0552251 0.0517329 0.879 255 255 255
-0.180833 0.0622889 0.763 255 255 255
-0.00926452 -0.12385 1.017 255 255 255
0.1917 -0.232967 0.783 255 255 255
-0.381324 0.0488266 0.747 255 255 255
-0.11845 -0.189896 0.95 255 255 255
0.345936 0.240478 0.884 255 255 255
0.219306 0.0189403 0.884 255 255 255
-0.276618 0.0261777 0.76 0 0 0
-0.299337 0.158572 0.62 255 255 255
-0.409621 -0.272262 0.805 255 255 255
-0.232491 0.0106204 0.712 255 255 255
0.233919 -0.130132 0.801 255 255 255
-0.366639 -0.187161 0.944 255 255 255
-0.37422 -0.226891 0.889 255 255 255
0.281096 -0.0249175 0.813 255 255 255
-0.0326645 0.308558 1.024 255 255 255
0.000498137 0.113688 0.758 255 255 255
-0.0392552 -0.0196812 1.022 255 255 255
0.161748 0.384419 1.124 255 255 255
-0.0454408 0.127537 0.705 255 255 255
0.357077 -0.059809 0.723 255 255 255
0.267285 0.012664 0.849 255 255 255
-0.372275 -0.352747 0.935 255 255 255
-0.151644 0.155562 0.682 255 255 255
-0.254522 0.0791109 0.746 255 255 255
0.00176857 0.0833397 0.774 255 255 255
-0.153162 0.123529 0.715 255 255 255
0.392891 0.23502 0.834 255 255 255
0.0229931 -0.257913 0.917 255 255 255
0.133703 -0.275271 0.81 255 255 255
-0.397828 -0.22237 0.824 255 255 255
-0.0280711 0.030311 0.88 255 255 255
0.395359 0.263353 0.851 255 255 255
0.30063 0.0470977 0.823 255 255 255
0.309542 0.00150109 0.791 255 255 255
-0.401852 -0.00916363 0.824 255 255 255
0.193579 0.0179175 0.905 255 255 255
0.301721 0.011948 0.801 255 255 255
0.316681 0.293329 0.938 255 255 255
-0.0509326 0.00738978 0.879 255 255 255
-0.107682 -0.100855 1.11 255 255 255
-0.123111 0.218465 0.607 255 255 255
0.277789 -0.227792 0.704 255 255 255
0.262167 -0.26032 0.693 255 255 255
-0.0163394 -0.0882308 1.046 255 255 255
0.232876 0.193216 0.964 255 255 255
0.161427 0.00480201 0.932 255 255 255
0.373585 0.261551 0.868 255 255 255
-0.38926 -0.0719322 0.887 255 255 255
-0.0144688 0.345224 1.034 255 255 255
0.0563545 0.0404945 0.951 0 0 0
0.284382 0.179037 0.908 255 255 255
0.34292 -0.0874375 0.718 255 255 255
-0.228398 -0.30304 0.896 255 255 255
0.198073 -0.216402 0.783 255 255 255
-0.130486 0.0528246 0.752 255 255 255
0.309258 -0.0254014 0.787 255 255 255
-0.202602 -0.314455 0.879 255 255 255
-0.348212 -0.106083 0.961 255 255 255
-0.216599 -0.324721 0.839 255 255 255
-0.44063 -0.202908 0.855 255 255 255
0.140178 -0.256378 0.817 255 255 255
0.0536436 0.00192998 1.017 255 255 255
-0.204087 0.0362124 0.714 255 255 255
0.219831 0.0668852 0.91 255 255 255
0.136747 -0.292902 0.797 255 255 255
0.208309 -0.130759 0.813 255 255 255
0.109718 -0.275999 0.828 255 255 255
0.188619 0.0408484 0.924 255 255 255
-0.255969 0.169004 0.625 255 255 255
0.173183 0.0686386 0.955 255 255 255
-0.0571585 0.114254 0.694 0 0 0
0.357934 -0.00346792 0.752 255 255 255
-0.374041 0.00420434 0.816 255 255 255
0.293813 0.346776 0.995 255 255 255
-0.041687 0.000250918 0.928 0 0 0
0.143523 -0.0916172 0.896 255 255 255
-0.340965 -0.0944204 0.736 255 255 255
-0.348989 0.0784784 0.718 255 255 255
0.28987 -0.192684 0.714 255 255 255
-0.162983 0.212394 0.601 255 255 255
0.259729 -0.0306555 0.825 255 255 255
0.423339 0.329116 0.86 255 255 255
0.224827 -0.263656 0.737 255 255 255
0.0763422 0.118549 0.817 255 255 255
0.162824 -0.29009 0.779 255 255 255
-0.384858 -0.212739 0.861 0 0 0
-0.170498 -0.286817 0.914 255 255 255
0.10642 0.39781 1.18 255 255 255
-0.0664822 0.117016 0.697 255 255 255
-0.135183 0.206 0.617 255 255 255
-0.27164 0.0775836 0.743 255 255 255
0.00225756 -0.15569 0.988 255 255 255
0.300099 0.0830278 0.848 255 255 255
-0.0633842 -0.120916 1.064 255 255 255
0.0764122 -0.234352 0.879 255 255 255
0.259408 -0.256375 0.707 255 255 255
-0.0321637 0.126032 0.716 255 255 255
0.326778 -0.200833 0.675 255 255 255
0.193049 -0.137048 0.827 255 255 255
0.0995486 0.361143 1.167 255 255 255
-0.403674 0.00412705 0.801 255 255 255
0.206421 -0.12593 0.816 255 255 255
0.252746 -0.0079936 0.842 255 255 255
0.33054 -0.0660322 0.74 255 255 255
0.141047 -0.158462 0.863 255 255 255
0.270514 -0.219953 0.712 255 255 255
0.0790937 -0.0703329 0.964 255 255 255
-0.431501 -0.205387 0.848 255 255 255
0.119586 -0.0515901 0.937 255 255 255
0.186841 -0.0928816 0.854 255 255 255
-0.0822067 -0.249626 0.925 255 255 255
-0.0505319 -0.341079 0.924 255 255 255
0.206333 -0.231906 0.771 255 255 255
0.290235 -0.231122 0.69 255 255 255
-0.121778 0.0500163 0.874 255 255 255
-0.188624 0.184092 0.621 255 255 255
-0.0563348 0.135982 0.684 255 255 255
0.314906 -0.171899 0.705 255 255 255
0.112188 0.221407 1.087 255 255 255
0.170346 0.0214623 0.931 255 255 255
-0.0485654 0.0819741 0.773 255 255 255
-0.346734 -0.0578658 0.85 0 0 0
0.347149 0.138825 0.835 255 255 255
0.250757 0.164933 0.937 255 255 255
-0.363615 -0.174347 0.917 0 0 0
0.235864 -0.188031 0.761 255 255 255
-0.274024 -0.192842 0.927 255 255 255
0.111551 0.143028 1.032 255 255 255
0.326371 -0.06301 0.747 255 255 255
-0.0649331 -0.0546927 1.09 255 255 255
-0.313417 0.174448 0.595 255 255 255
0.0345206 -0.313706 0.869 255 255 255
-0.241295 0.0750512 0.754 255 255 255
-0.367165 0.0132515 0.801 255 255 255
-0.294457 0.187384 0.59 255 255 255
-0.202948 0.16471 0.644 255 255 255
-0.259713 0.150737 0.647 255 255 255
0.327881 -0.156113 0.696 255 255 255
0.0708015 0.0934215 0.83 255 255 255
0.144761 -0.218059 0.828 255 255 255
0.11562 0.0290006 0.981 255 255 255
0.108923 -0.306103 0.822 255 255 255
-0.167135 0.201346 0.609 255 255 255
-0.237134 0.201371 0.586 255 255 255
0.0705821 -0.0111098 0.999 255 255 255
-0.356682 -0.29086 0.967 255 255 255
-0.115083 -0.274621 0.923 255 255 255
0.277683 0.0883168 0.873 255 255 255
-0.328328 0.119203 0.671 255 255 255
-0.230249 0.0750512 0.754 255 255 255
-0.374938 0.0780412 0.714 255 255 255
-0.169395 0.199692 0.61 255 255 255
0.0166258 0.158929 0.762 255 255 255
0.279801 -0.206917 0.715 255 255 255
0.323001 -0.0431948 0.762 255 255 255
-0.24936 0.189607 0.597 255 255 255
0.176724 0.209797 1.03 255 255 255
-0.154254 0.160318 0.674 255 255 255
0.284923 -0.0772174 0.78 255 255 255
-0.21324 0.176969 0.628 255 255 255
0.244799 -0.208974 0.743 255 255 255
-0.379072 -0.184593 0.867 255 255 255
0.189784 -0.264958 0.765 255 255 255
-0.0874435 0.210976 0.635 255 255 255
-0.317723 -0.179829 0.954 255 255 255
-0.35196 -0.29558 0.967 255 255 255
0.0847516 0.241317 1.122 255 255 255
0.359065 0.276248 0.888 255 255 255
-0.0870158 -0.0927858 1.1 255 255 255
-0.478817 -0.192056 0.909 255 255 255
0.0945627 -0.152413 0.902 255 255 255
-0.416252 -0.365747 0.945 255 255 255
-0.342666 -0.134512 0.963 255 255 255
0.181687 -0.0572385 0.883 255 255 255
-0.151023 0.208314 0.612 255 255 255
0.258966 -0.112347 0.786 255 255 255
0.0653041 0.359938 1.201 255 255 255
0.193518 0.0943615 0.948 255 255 255
-0.309389 0.0977083 0.705 255 255 255
-0.353219 -0.332041 0.941 255 255 255
0.134195 0.30502 1.108 255 255 255
0.106057 0.306912 1.135 255 255 255
-0.3542 -0.0632496 0.848 255 255 255
-0.371273 -0.0488634 0.862 255 255 255
-0.0781435 0.14072 0.68 255 255 255
0.0984836 0.209986 1.092 255 255 255
0.352235 -0.0404682 0.735 255 255 255
0.337697 0.318938 0.937 255 255 255
0.312494 -0.221704 0.675 255 255 255
0.202801 0.368904 1.089 255 255 255
0.320646 -0.0737525 0.745 255 255 255
-0.0521087 0.154466 0.687 255 255 255
0.364048 0.141842 0.821 255 255 255
-0.255861 0.156397 0.64 255 255 255
-0.369187 0.0503771 0.752 255 255 255
-0.427808 -0.157911 0.86 255 255 255
-0.00803162 0.10732 0.748 255 255 255
