ply
format ascii 1.0
comment Created by Open3D
element vertex 1344
property double x
property double y
property double z
property uchar red
property uchar green
property uchar blue
end_header
-0.0859489 0.426198 1.158 140 140 134
0.302548 0.360386 1.196 54 56 40
0.0590796 -0.210464 1.62 6 12 10
-0.339308 0.237555 1.375 145 142 139
0.222076 0.316905 1.247 106 107 96
-0.0862381 0.2828 1.305 142 133 136
-0.733676 0.111475 1.551 126 138 130
0.390387 -0.271741 0.939 103 112 94
-0.158513 -0.00479572 1.607 151 146 142
-0.162916 0.0878722 0.348 14 21 15
0.0707124 0.34377 1.227 143 143 139
-0.813644 0.0784953 1.599 147 147 143
0.367885 -0.0235042 0.858 96 44 4
-0.15739 0.107272 0.356 18 16 6
0.106988 -0.224843 1.668 4 5 0
-0.0577689 0.301703 1.286 156 143 147
-0.618367 -0.604141 2.294 159 151 148
0.0470813 0.286069 1.291 131 134 135
-0.562283 -0.7978 2.22 161 162 158
-0.0520093 0.283614 1.299 150 146 149
-0.586304 0.302563 1.336 138 147 140
0.225223 -0.00730016 1.583 54 53 36
0.0470939 0.0950307 1.491 160 149 153
-0.723236 0.153983 1.498 139 140 136
-0.517627 0.203552 1.435 146 146 146
-0.239845 0.369229 1.232 144 147 150
0.396366 -0.214899 0.816 123 129 112
0.43082 0.327107 0.961 9 14 0
0.281299 -0.0431295 1.112 1 8 0
0.395482 0.187999 0.986 33 24 3
-0.509802 -0.510496 2.181 148 147 149
-0.204045 0.424983 1.165 143 147 142
0.239127 0.306341 1.262 100 101 95
0.000845124 0.293332 1.286 156 152 155
-0.0995346 0.129575 1.47 164 160 161
-0.107547 0.158378 1.449 153 148 146
-0.59998 -0.560346 2.253 160 157 152
0.340565 0.392285 1.147 40 48 33
0.180567 -0.170624 1.33 21 26 16
0.362485 0.0528196 0.95 28 26 18
0.397916 -0.32356 0.836 170 176 174
0.410581 0.417343 1.124 45 49 42
-0.657756 0.261065 1.381 142 147 154
0.292911 -0.364274 1.173 12 18 16
-0.259852 -0.23901 1.887 164 155 158
-0.770246 -0.324405 2.017 155 148 142
-0.612699 0.137284 1.502 149 153 148
-0.19698 0.379952 1.215 134 140 142
0.172937 -0.390039 1.509 2 6 0
0.229861 0.138166 1.435 69 59 47
-0.626669 0.261596 1.372 138 150 154
0.384076 -0.312944 0.863 163 169 167
0.35706 0.344816 1.196 46 48 39
-0.189358 0.275987 1.313 152 151 153
0.343784 0.139875 1.225 19 14 0
-0.0958783 0.175509 1.416 148 148 144
0.203575 -0.281509 1.575 6 6 2
-0.120337 -0.192126 1.821 142 135 129
-0.837995 -0.339709 2.03 151 151 147
0.0276775 0.0926043 1.491 153 144 139
0.356816 -0.278502 1.032 3 6 7
0.174759 -0.175679 1.387 26 24 12
-0.311025 0.254695 1.359 155 148 142
-0.319966 0.417555 1.187 132 133 129
-0.176473 0.380357 1.21 131 131 127
-0.687387 -0.702384 2.204 160 161 155
0.370617 0.246074 1.313 44 47 22
-0.370161 0.224313 1.39 145 146 142
-0.152178 0.139144 1.47 160 157 154
0.416853 -0.158197 0.825 124 126 115
-0.507951 0.35056 1.281 135 142 146
0.0558567 0.401024 1.167 132 132 128
0.260673 0.0616352 1.505 54 53 38
0.338929 -0.0467648 0.932 43 27 6
-0.335391 0.317582 1.291 143 139 142
0.106798 -0.472259 1.445 0 7 0
0.335665 -0.00146957 1.083 44 29 17
-0.299129 -0.406639 2.051 156 149 143
-0.579341 -0.33862 2.004 153 147 149
0.23649 0.327796 1.227 110 107 102
0.0997401 0.0434389 1.555 112 110 102
-0.856701 -0.553013 2.253 148 148 142
0.413979 0.252192 0.944 18 7 0
0.201349 -0.369905 1.257 11 16 36
-0.648558 0.211409 1.425 140 149 142
0.105837 -0.479662 1.432 3 6 7
0.414554 0.228518 0.905 27 20 3
-0.541802 0.259364 1.372 139 152 149
-0.314268 -0.562505 2.204 156 149 139
0.373656 0.0885869 1.005 34 26 14
0.40202 -0.246164 0.814 134 135 126
0.405553 0.245396 0.991 30 18 2
0.0590796 -0.202555 1.62 12 14 5
-0.566048 -0.689481 2.356 158 159 150
0.0619354 0.278311 1.294 158 149 152
0.0485314 -0.0232884 1.62 135 132 127
-0.0289443 0.168332 0.438 32 32 28
-0.553115 -0.159529 1.821 152 151 151
-0.150809 0.299368 1.294 141 138 133
-0.220988 -0.566092 2.204 150 146 139
0.323324 -0.285509 1.027 19 26 20
0.262297 -0.421509 1.217 24 54 84
0.267053 -0.179451 1.004 6 10 3
0.352401 -0.00748868 0.952 35 33 21
0.39075 -0.0215318 0.786 213 231 238
0.0779056 -0.374075 1.524 5 6 0
-0.596176 0.112823 1.535 147 147 143
-0.494101 0.321026 1.305 142 148 148
-0.560008 -0.146378 1.805 143 142 146
0.270489 0.41958 1.135 134 138 133
-0.974516 -0.274034 1.985 135 139 132
-0.100051 0.248246 1.348 162 151 155
0.187062 -0.151145 1.33 20 20 14
0.276149 -0.0974127 0.984 8 10 1
-0.445214 0.194211 1.435 142 145 146
-0.800289 0.141775 1.524 135 143 144
-0.480627 0.335187 1.286 135 144 137
0.291405 0.0238063 1.439 23 16 8
-0.548766 -0.0130895 1.664 153 153 147
-0.0614439 0.428083 1.158 123 122 122
0.219404 -0.370568 1.232 10 10 12
-0.47069 0.178098 1.456 144 147 146
-0.466578 -0.646166 2.338 150 145 141
-0.28007 -0.0568562 1.677 147 141 143
0.41979 0.226121 0.873 32 26 2
0.0410295 0.2815 1.299 150 149 151
0.0467465 -0.483698 1.48 12 12 12
-0.378938 -0.75633 2.269 168 168 162
-0.746752 0.212612 1.449 135 144 135
-0.249557 0.0986336 1.509 156 144 144
0.197778 -0.0925172 1.359 18 20 9
-0.462272 -0.491065 2.158 154 149 145
-0.435085 -0.0575004 1.696 148 145 142
-0.400868 0.419314 1.192 137 150 149
0.174072 -0.415195 1.33 10 17 21
0.387808 0.1696 0.991 31 22 3
0.00733574 0.258908 1.324 151 143 142
-0.47845 -0.337445 1.978 152 149 144
0.406913 0.315222 1.217 47 39 27
-0.727974 0.106701 1.555 133 142 135
0.38818 0.096769 0.824 37 31 16
-0.094357 0.348533 1.244 140 142 133
0.207175 0.0986775 1.473 61 57 46
-0.115248 -0.127241 1.744 161 151 149
-0.246743 0.187823 1.422 150 147 144
-0.103339 -0.570202 2.22 150 141 136
0.388939 -0.242531 1.015 5 5 5
-0.241599 0.271163 1.342 152 152 148
-0.40022 0.360357 1.257 133 140 148
0.410015 0.325902 1.07 33 35 24
-1.0279 -0.642998 2.173 150 162 152
-0.157913 0.0934648 0.352 107 109 117
0.318714 -0.0127779 1.149 44 27 11
0.0867277 0.000431265 1.595 94 87 77
0.134239 0.161227 1.412 128 124 113
0.404038 0.178526 0.898 43 19 5
-0.100028 0.351164 1.239 137 141 136
-0.0977915 0.211164 1.378 155 150 148
-0.105936 0.403796 1.192 145 146 142
-0.663471 0.186097 1.463 140 144 139
0.21554 0.379883 1.178 126 127 123
-0.327695 0.421418 1.187 134 144 130
-0.658708 0.181335 1.463 138 141 140
-0.285909 0.421567 1.182 131 144 141
0.399218 -0.232059 0.811 135 132 127
-0.919397 -0.0982249 1.784 140 141 132
0.0397652 -0.0906198 1.696 136 132 133
-0.459229 0.194211 1.435 144 144 140
0.358921 -0.301838 1.043 5 13 2
0.370108 0.0342306 0.908 33 22 13
0.274167 -0.0555771 1.322 25 9 2
-0.144875 0.142086 0.381 34 29 37
0.410322 0.1768 0.868 32 27 9
0.361476 0.0536484 0.994 25 26 15
0.393395 -0.259923 0.969 87 91 66
-0.192123 -0.601928 2.244 147 142 140
-0.235478 -0.0885851 1.71 151 143 140
0.172175 -0.371595 1.524 0 7 0
0.356125 0.367086 1.18 54 56 43
0.202541 -0.267329 1.567 5 7 0
0.411295 0.357273 1.173 46 47 34
0.0345523 0.202194 1.378 161 151 149
-0.639999 -0.0328341 1.705 147 147 141
0.0963939 0.410867 1.152 140 146 144
0.40336 0.155317 0.836 31 27 2
0.0452586 0.279386 1.299 148 147 147
0.382397 0.0256629 0.782 41 19 21
-0.420016 -0.336423 1.991 162 152 152
-0.720602 -0.211373 1.887 143 143 137
0.374202 0.120791 1.043 33 20 7
-0.407941 0.308993 1.308 138 138 140
0.0601989 0.273675 1.302 148 144 137
0.190662 0.320724 1.254 109 111 102
-0.0264049 -0.282001 1.887 96 84 82
-0.178192 0.297262 1.294 147 142 140
0.332884 0.29106 1.267 52 53 42
-0.152039 0.112052 0.364 138 133 141
0.101745 -0.304196 1.547 7 12 2
0.0130536 0.0994144 1.484 151 146 144
-0.35861 0.431076 1.187 131 139 136
-0.161645 0.366714 1.217 133 132 132
0.326684 0.286673 1.275 55 54 54
0.163471 0.180943 1.387 108 105 102
0.371015 -0.344459 0.925 132 140 129
-0.590623 0.239628 1.387 139 146 150
-0.339594 0.315481 1.291 136 136 138
0.0471409 -0.183686 1.664 15 16 12
-0.412628 0.351684 1.27 133 136 135
0.0158445 -0.385461 1.52 126 117 108
-0.453841 0.387066 1.225 130 142 134
-0.957601 -0.468212 2.166 143 151 136
0.316 0.419918 1.126 57 58 52
-0.424465 0.224313 1.39 139 135 138
0.314829 0.0753243 1.439 42 38 27
-0.243603 0.144222 1.473 153 143 143
0.397081 -0.223514 0.804 138 148 134
0.0203796 -0.244454 1.691 77 66 57
-0.0734567 -0.142972 1.763 126 124 114
0.35177 -0.101336 0.918 6 15 8
-0.188273 -0.831707 2.158 139 139 135
0.226503 -0.117475 1.227 1 6 0
0.338189 0.0225503 1.139 42 28 13
0.292477 0.111755 1.456 45 47 31
0.294075 -0.11112 0.964 10 19 12
0.216983 0.154334 1.412 66 63 49
-0.0286998 -0.43334 2.051 147 143 136
0.353377 0.208296 1.345 42 43 30
0.0446195 -0.314828 1.575 11 12 8
-0.265084 -0.702475 2.374 139 134 130
0.220661 -0.11399 1.064 4 8 1
0.368331 0.0734541 1.022 42 28 13
0.348422 -0.106164 0.921 12 14 3
0.228223 -0.179411 1.013 10 10 14
-0.557804 -0.217514 1.887 150 146 139
0.14497 -0.260623 1.637 2 5 4
0.257003 -0.0522303 1.47 33 31 21
-0.188613 0.340006 1.265 144 144 140
0.152575 -0.383341 1.502 2 7 0
0.377277 0.193798 1.081 14 12 0
0.414179 0.366212 1.165 51 44 36
-0.65696 0.0800831 1.579 144 146 137
0.229222 0.264589 1.299 94 90 79
-0.641784 -0.656906 2.22 162 160 152
0.086809 0.365802 1.201 153 145 142
0.167656 0.0921696 1.484 70 62 59
0.430321 0.30815 0.901 23 25 7
-0.628841 0.0472701 1.599 146 146 140
0.380163 -0.28718 1.027 3 17 6
0.297324 0.0309601 1.445 26 28 12
0.351911 -0.372016 0.999 127 127 123
-0.342687 0.0109289 1.612 150 148 155
-0.47582 0.395413 1.22 141 149 148
-0.779122 0.0934016 1.587 140 149 140
-0.6864 -0.247469 1.929 143 140 135
0.358765 0.0753734 1.073 37 25 7
-0.184085 0.0966241 1.516 165 160 156
0.134619 -0.492737 1.416 6 6 6
0.258819 0.339007 1.21 81 86 76
0.0100788 0.17427 1.406 150 145 153
-0.0850162 0.270809 1.319 152 149 144
-0.356473 -0.753693 2.365 161 156 152
-0.191588 -0.546169 2.196 145 137 134
-0.597583 0.320857 1.313 125 140 137
0.387268 0.086299 0.867 16 8 5
-0.234917 0.16781 1.449 159 150 153
-0.543439 0.338591 1.291 137 148 144
-0.251478 -0.424085 2.071 165 157 156
-0.647005 0.108389 1.543 149 142 136
0.240235 0.176429 1.387 62 59 43
0.343098 0.398357 1.143 48 51 35
-1.05974 -0.667751 2.173 150 162 152
-0.301493 0.0516867 1.575 147 146 146
-0.39275 -0.647469 2.329 149 144 142
0.328597 -0.172301 0.964 2 6 1
-0.619221 -0.523052 2.204 155 156 147
-0.107203 -0.658979 2.303 147 136 131
-0.250358 0.316352 1.286 140 136 141
0.44144 0.405644 1.083 31 32 28
0.147903 0.228503 1.348 113 108 104
-0.356367 0.448501 1.167 125 136 134
0.135885 0.0991465 1.48 114 112 104
0.136052 -0.464007 1.456 9 8 10
-0.249074 0.195278 1.409 157 152 150
0.147073 0.146479 1.425 94 90 83
0.143434 -0.309331 1.535 3 8 0
-0.041532 0.21471 1.372 153 142 146
-0.179873 -0.579508 2.228 152 143 138
-0.682438 -0.0441644 1.714 136 139 138
0.0982649 -0.348615 1.532 4 11 5
0.0782764 -0.439121 1.484 7 8 0
-0.570158 0.205457 1.432 137 149 141
0.376416 0.111993 0.995 28 25 11
0.14505 0.249912 1.322 117 110 100
-0.388127 0.305901 1.313 139 145 145
0.409779 -0.274292 0.811 188 198 205
0.284598 -0.216625 0.98 23 23 23
-0.196043 0.361796 1.234 140 136 137
-0.936199 -0.337533 2.057 137 145 142
0.363739 0.129652 1.104 34 22 4
-0.138968 0.426934 1.16 146 145 147
0.166007 -0.383686 1.513 1 4 3
0.408775 -0.108377 0.902 7 6 6
-0.36792 0.309694 1.302 141 148 152
0.400723 -0.220349 0.788 163 169 169
0.144973 0.311186 1.265 135 136 130
-0.165234 -0.740039 2.383 139 135 126
-0.36189 0.217996 1.393 146 154 151
-0.350289 0.0417502 1.587 157 155 147
-0.168739 0.106511 0.346 1 13 15
0.361031 -0.0192479 0.855 84 39 1
-0.567661 0.320857 1.313 135 145 148
-0.706448 0.00584805 1.659 133 137 130
-0.617668 0.281854 1.362 138 140 146
-0.237126 0.403879 1.198 152 152 146
0.385178 0.0895848 0.832 28 24 13
-0.152503 -0.130378 1.748 172 163 166
-1.08494 -0.648915 2.181 150 159 150
0.41883 0.207861 0.886 42 23 8
-0.669663 0.233759 1.406 130 146 137
0.207737 -0.13945 1.087 4 10 8
-0.986886 -0.336548 2.051 133 140 134
-0.176749 0.127623 0.353 9 10 4
0.327756 0.335069 1.21 51 57 38
0.403786 -0.279689 0.823 183 190 182
-0.151268 0.116518 0.365 46 39 59
-0.381874 0.313208 1.299 140 137 132
0.385541 -0.320254 0.86 170 173 174
0.0288855 0.414616 1.152 151 152 143
0.266089 0.423997 1.132 132 144 134
-0.694382 -0.0789942 1.744 152 149 146
-0.503497 0.355143 1.275 135 148 147
-1.01419 -0.574276 2.294 127 132 122
-0.333936 0.20445 1.409 146 147 143
0.363603 0.181681 1.149 28 13 1
-0.194109 -0.27849 1.905 161 153 152
-0.484996 0.105603 1.539 147 148 139
-0.0694009 0.421191 1.165 134 134 130
0.149629 0.103472 1.473 74 65 60
0.265683 -0.125659 1.005 6 9 8
0.395958 0.170954 0.945 33 24 5
0.434714 0.344068 0.939 11 10 12
0.249042 -0.386812 1.22 4 17 16
-0.452373 0.331774 1.289 133 141 130
0.0971131 -0.282488 1.595 1 5 0
-0.852383 -0.562335 2.261 149 146 141
0.399588 -0.161092 0.918 8 4 7
0.0619971 -0.0963664 1.7 106 100 85
0.0929082 -0.188533 1.659 4 7 8
-0.972481 -0.191085 1.899 136 135 142
-0.49414 0.138705 1.491 142 144 135
0.0702783 -0.373093 1.52 5 6 0
-0.111928 0.237002 1.359 155 149 153
-0.174355 0.0582632 0.331 23 20 15
-0.054812 0.225379 1.369 148 143 141
0.430338 0.268937 0.86 33 28 8
-0.0557685 -0.335325 1.947 141 133 132
-0.364797 -0.728025 2.32 159 158 160
0.21876 -0.214452 1.015 26 20 22
-0.54541 0.059979 1.591 157 154 151
0.0120859 -0.0763671 1.686 130 124 128
0.404901 0.282644 1.039 20 12 0
0.378649 0.0549632 0.801 39 21 0
0.339651 -0.31793 1.057 12 12 8
0.15311 0.235165 1.336 117 114 109
0.341371 -0.374693 1.057 83 84 80
0.0702783 -0.385461 1.52 4 8 3
-0.299533 -0.338597 1.966 156 147 150
0.167269 0.325022 1.247 143 150 144
0.303004 -0.23608 0.988 26 35 26
0.261477 0.424335 1.128 138 151 146
0.395492 -0.090285 0.912 1 8 14
0.402776 0.356273 1.176 44 45 36
-0.0265555 -0.0853006 1.7 150 142 141
0.385737 -0.109338 0.91 9 13 6
-0.0653266 0.428822 1.16 123 122 122
0.421906 -0.132939 0.835 111 123 115
0.358651 -0.0725482 0.932 5 6 0
-0.17319 0.0862251 0.335 7 13 13
-0.1574 0.126053 0.36 13 17 10
0.27678 -0.191835 0.992 2 8 6
-0.158356 0.215649 1.378 158 147 153
-0.44987 0.0109831 1.62 156 156 152
-0.316026 -0.0261967 1.637 163 154 157
-0.485713 0.241362 1.384 149 152 151
0.144833 -0.44066 1.473 2 6 1
-0.362552 0.0239706 1.607 158 155 150
0.150635 0.0602479 1.532 69 61 47
0.416828 -0.151598 0.833 119 121 108
0.156084 -0.0908335 1.7 52 54 41
0.157691 0.260962 1.302 118 113 111
-0.777442 -0.736329 2.136 161 157 160
0.0899906 0.176181 1.403 141 133 132
0.418829 -0.0528946 0.837 96 104 91
-0.880719 -0.676136 2.212 157 157 157
0.301628 0.319107 1.232 65 62 48
-0.228505 0.0941571 1.516 155 149 151
-0.210615 0.439594 1.139 142 143 139
0.139788 0.256757 1.313 118 113 109
0.258297 -0.0605668 1.387 14 12 2
-0.211598 0.33642 1.267 148 144 149
0.125368 -0.320353 1.528 2 6 1
-0.24591 -0.775159 2.303 148 143 139
-0.131948 -0.0538367 1.668 162 159 156
-0.177777 0.0709077 1.547 148 144 145
-0.469862 0.395413 1.22 133 138 128
0.359351 0.126513 1.124 36 19 3
0.276436 -0.45093 1.227 8 35 59
0.404472 -0.176949 0.844 121 128 122
-0.79536 -0.0473646 1.729 135 136 130
-0.676217 0.170242 1.47 150 150 152
-0.352465 -0.0893103 1.724 157 149 148
-0.917149 -0.788388 2.037 161 160 160
-0.769857 -0.100561 1.774 140 146 146
-0.225464 -0.247564 1.882 161 157 158
0.434695 0.313113 0.886 13 19 0
-0.0751539 -0.74699 2.356 156 152 145
-0.621724 -0.163385 1.831 155 154 154
0.37784 0.143998 1.039 39 21 10
-0.17341 0.406649 1.189 144 144 140
0.224248 0.144564 1.429 64 62 43
-0.538389 0.269936 1.369 146 159 158
-0.145212 0.216118 1.381 156 150 152
-0.710953 0.108951 1.551 131 144 143
0.269245 -0.128289 1 8 9 5
-0.314348 0.390203 1.21 143 154 150
-0.872971 -0.602034 2.286 118 117 128
0.345798 0.147267 1.254 29 27 8
0.0121127 0.408761 1.162 142 144 131
-0.443352 0.19805 1.429 148 148 142
0.236543 -0.445274 1.217 32 52 90
0.353352 0.170256 1.289 39 41 28
-0.157096 0.130877 0.362 5 13 2
0.153376 -0.444811 1.463 3 4 0
0.380586 -0.299086 0.989 86 93 85
0.209479 -0.273983 1.06 9 12 11
0.374739 -0.00378612 0.821 61 25 4
0.241665 0.218987 1.357 68 67 52
-0.828727 0.0682572 1.603 133 141 140
0.376068 -0.190531 0.961 4 16 8
0.162094 -0.166015 1.705 0 9 2
-0.138284 0.079983 1.528 158 153 151
-1.11743 -0.665544 2.189 153 158 148
0.226659 -0.146394 1.036 8 9 3
0.20336 -0.138314 1.092 5 6 2
-0.00933721 -0.00216432 1.595 133 130 127
0.0158445 -0.387935 1.52 115 108 98
0.16891 0.352271 1.215 140 141 132
-0.169287 0.0812558 0.337 18 18 18
-0.314691 -0.127533 1.748 167 160 154
-0.986229 -0.749386 2.114 140 148 137
-0.0321662 0.324049 1.267 141 141 137
0.278369 0.409218 1.137 124 128 121
-0.715194 -0.673677 2.158 161 160 160
-0.174523 -0.186878 1.799 155 150 146
0.321093 0.0937324 1.366 29 31 18
-0.276694 -0.103338 1.724 158 150 149
-0.178592 0.101848 0.338 14 14 8
-0.670595 -0.188771 1.876 146 145 149
0.198686 0.399816 1.158 139 146 138
-0.324445 -0.476031 2.107 164 155 158
0.357485 0.0160474 0.97 15 13 3
0.311468 -0.408899 1.143 94 93 95
-0.445044 0.418775 1.196 133 143 146
-0.226973 0.203144 1.4 161 155 157
-0.0645745 0.360773 1.217 141 141 135
0.38917 0.329762 1.205 44 47 31
-0.522984 -0.582787 2.269 153 153 153
0.147292 0.396004 1.169 147 148 142
0.146209 -0.211519 1.714 0 6 4
0.152777 -0.46432 1.435 0 8 5
0.0700797 0.168597 1.416 144 140 133
0.361886 0.217772 1.336 41 45 22
0.301504 0.0893312 1.477 46 44 32
-0.758306 -0.106335 1.774 143 146 145
0.383538 0.122059 0.972 34 23 18
-0.163197 0.080939 0.345 50 44 48
-0.760675 -0.453072 2.128 158 159 155
0.134324 -0.459095 1.463 4 12 1
-0.15311 0.139633 0.368 10 17 21
0.359128 0.183254 1.171 22 15 5
0.40558 -0.153195 0.873 18 20 7
0.384704 0.0756174 0.874 20 11 2
-0.196266 -0.763307 2.383 136 132 121
0.298328 0.285268 1.278 63 59 48
-0.620793 -0.614006 2.303 166 159 153
0.338548 -0.300141 1.043 1 8 2
-0.49649 0.360801 1.273 137 152 151
-0.222537 0.101089 1.509 154 149 147
-0.675746 0.0970762 1.563 140 143 144
-0.0104306 0.421413 1.145 143 145 136
0.411217 -0.0544113 0.861 132 135 117
0.383864 -0.146284 0.938 3 12 3
0.310436 -0.0223388 1.16 41 22 9
-0.747815 -0.444678 2.121 155 159 152
-0.0469374 0.184918 1.4 153 142 146
0.35978 0.11451 1.114 39 18 3
-0.145364 0.0847337 1.524 163 155 154
0.167889 0.303431 1.267 118 113 109
0.394894 -0.258434 0.85 113 127 116
-0.169158 0.179609 1.412 143 137 141
-0.338508 -0.772014 2.374 158 155 152
-0.196685 -0.218322 1.842 162 152 152
-0.193989 -0.14871 1.763 157 148 143
-0.647192 0.215592 1.422 140 151 149
0.173313 -0.297538 1.116 28 30 14
-0.915003 -0.376057 2.085 143 147 140
0.381261 0.0643981 0.896 11 11 5
0.413945 0.194943 0.814 25 29 4
-0.381817 -0.285138 1.929 156 148 147
0.096913 0.294736 1.283 144 144 144
-0.381981 -0.379351 2.03 158 148 146
0.323887 -0.0295583 1.079 35 28 22
-0.378256 -0.214978 1.865 159 151 150
-0.177784 0.118734 1.484 158 153 151
-0.0392925 -0.837178 2.278 182 183 174
-0.329946 0.175246 1.452 146 141 137
-0.604055 0.203552 1.435 128 144 152
0.387835 0.227222 1.081 17 14 0
-1.07035 -0.490942 2.173 145 145 141
-0.106931 0.127442 1.473 161 157 158
-0.284454 0.331017 1.27 133 134 128
-0.64381 -0.211373 1.887 149 147 139
0.353751 -0.219556 0.986 11 10 19
-0.234805 0.152766 1.463 149 146 143
-0.966477 -0.543938 2.261 152 152 148
-0.179883 0.194862 1.406 158 153 149
0.387228 0.123815 0.883 29 23 8
0.180429 0.135547 1.432 62 60 48
-0.509042 0.295376 1.333 141 143 149
0.166159 -0.517077 1.336 41 20 5
-0.170718 0.129866 0.356 10 13 14
-0.154233 -0.435663 2.078 155 148 140
0.299956 0.261465 1.294 56 56 32
-0.220988 -0.817156 2.204 137 137 131
-0.47491 0.147714 1.484 139 139 139
-0.586824 0.192314 1.456 146 147 141
-0.815896 0.00317488 1.673 132 139 133
0.310958 -0.118224 0.958 6 14 11
0.180648 -0.00997605 1.599 60 54 41
-0.601674 -0.0104065 1.668 151 152 146
-0.33623 0.20445 1.409 150 151 147
0.390939 0.190477 0.999 26 16 4
0.309901 -0.425572 1.158 72 78 78
0.193813 -0.0848408 1.378 22 20 10
0.399617 0.315301 1.225 47 46 31
-0.56688 -0.310749 1.972 152 148 149
0.270647 0.280449 1.275 54 57 36
0.186319 -0.023044 1.603 60 59 44
0.417189 -0.119566 0.856 116 112 103
0.00103768 0.028692 1.579 155 143 141
-0.325194 0.417374 1.192 142 145 148
-1.03126 -0.430443 2.136 139 139 133
-0.0437773 -0.37929 1.978 148 145 142
0.277939 -0.0649524 1.002 1 5 0
0.433255 0.425557 1.098 60 62 49
-0.315253 -0.015503 1.633 158 152 154
0.00305273 0.250384 1.336 144 138 140
-0.103579 -0.00218061 1.607 148 147 149
0.328111 -0.0667772 0.958 29 15 7
-0.451907 0.357884 1.27 143 156 155
0.264021 -0.460162 1.225 21 49 84
0.143506 -0.292082 1.563 5 5 1
-0.557055 -0.797049 2.228 158 159 155
-0.783523 0.0581474 1.612 129 143 134
0.0071017 -0.306684 1.815 135 127 126
0.395322 0.110236 0.845 29 13 8
-0.178466 -0.349258 1.972 165 155 155
0.409487 0.180587 0.821 28 26 7
0.0819081 -0.185385 1.655 6 8 0
-0.31054 -0.672799 2.338 153 149 140
-0.104955 0.380115 1.203 139 137 144
-0.881204 -0.0985002 1.789 138 139 135
-0.82163 0.116823 1.555 132 144 136
-0.532245 0.320124 1.31 135 141 143
-0.00146468 0.0765328 1.509 157 147 145
-0.420385 0.127762 1.505 148 148 142
0.201807 0.274497 1.286 113 111 99
-0.305632 0.27177 1.345 147 149 140
-0.666517 -0.144236 1.815 144 148 141
0.125374 0.0435506 1.559 73 69 62
0.207383 -0.0529504 1.425 19 20 7
-0.216763 -0.785713 2.312 146 142 143
0.212868 -0.405665 1.229 13 29 48
0.221172 -0.152842 1.034 7 17 1
-0.579154 -0.264647 1.917 146 143 140
-0.283368 0.0108679 1.603 159 153 155
0.21383 0.0183672 1.575 54 47 39
-1.09961 -0.498119 2.189 140 138 130
0.386126 -0.336845 0.874 183 194 192
0.384966 0.413684 1.124 49 55 38
0.226398 0.280121 1.283 103 101 89
0.173648 0.382448 1.18 154 154 150
-0.426898 -0.00487332 1.633 150 150 150
0.178471 0.128825 1.435 58 56 46
-0.0211507 0.24274 1.354 145 142 137
0.331988 -0.023863 1.06 39 29 15
-0.544806 -0.83601 2.151 167 159 156
-0.578387 -0.782177 2.269 163 161 149
-0.050496 0.0210365 1.583 158 154 157
0.356385 -0.358561 0.98 137 138 129
-0.0141627 0.260077 1.319 148 143 139
-0.172099 0.0856799 0.335 13 16 19
0.170891 0.229156 1.339 117 109 106
-0.104799 0.422429 1.158 138 137 141
-0.116704 0.382072 1.203 137 137 141
0.193353 -0.0925172 1.359 17 19 10
-0.654122 -0.365336 2.044 146 147 136
0.176373 0.318684 1.254 120 119 119
-0.0175193 0.338549 1.252 137 137 133
-0.288777 0.425891 1.178 135 138 141
0.316426 -0.109622 0.951 9 13 8
-0.336519 -0.0128456 1.633 155 155 151
-0.213125 -0.17322 1.779 161 152 155
0.254286 -0.249925 1.025 25 34 27
0.199225 -0.198216 1.025 12 12 14
-0.176654 -0.78012 2.329 142 130 128
-0.291801 0.198552 1.416 159 150 153
-0.506507 0.0394638 1.599 156 152 155
-0.652414 -0.177984 1.859 151 151 147
0.294083 -0.437437 1.234 4 20 41
0.193091 -0.169936 1.046 11 18 12
-1.11334 -0.478553 2.181 141 149 136
0.348254 -0.32137 1.057 5 18 13
0.306199 0.049382 1.369 29 26 21
0.183724 -0.260008 1.65 4 5 0
0.40078 0.289452 1.26 41 43 25
-0.729499 -0.705867 2.128 159 162 161
-0.228632 0.234291 1.369 147 144 141
0.300602 -0.381149 1.196 13 20 28
-0.225828 -0.288697 1.911 166 157 162
0.0966093 0.3304 1.252 148 146 138
0.398977 0.329762 1.205 47 49 33
-0.496341 0.069628 1.575 158 157 157
-0.0576654 0.205326 1.384 150 146 147
0.0839376 -0.234699 1.642 3 12 5
-0.899445 -0.0950546 1.779 139 146 138
-0.0763792 0.403353 1.185 137 146 137
0.409591 -0.121555 0.891 17 21 16
-0.0964185 -0.045584 1.664 158 154 155
-0.0950054 0.385346 1.201 142 145 146
0.364032 0.0528196 0.95 29 27 17
-0.99627 -0.449291 2.143 138 143 129
-0.0466032 0.326111 1.267 140 146 146
-1.09395 -0.620172 2.143 154 161 155
-0.0651883 0.392157 1.192 128 129 125
-0.851272 -0.259283 1.947 139 145 147
-0.496259 -0.326794 1.972 157 151 155
0.293954 -0.210544 0.974 19 26 20
0.347107 0.147786 1.313 32 33 20
-0.884358 -0.164348 1.876 137 140 139
-0.0270287 0.036124 1.567 146 143 140
-0.158856 0.399312 1.196 142 142 142
0.159469 -0.499753 1.372 3 7 2
-0.175945 0.369603 1.22 138 134 137
0.129167 -0.105281 1.71 41 43 34
0.277983 0.220217 1.351 52 54 36
-0.543457 -0.345142 2.004 160 159 159
-1.08629 -0.705867 2.128 153 162 155
-0.270965 0.276473 1.336 150 147 142
-0.382715 0.357116 1.26 137 138 132
0.302616 -0.182149 0.992 5 13 10
0.286194 -0.0762846 0.98 4 10 10
0.156281 -0.243193 1.039 28 24 13
0.396964 -0.237283 0.834 122 126 119
0.324272 0.125961 1.429 45 46 35
-0.23299 0.346864 1.26 133 134 123
-0.0593088 -0.143459 1.769 122 118 111
-1.12093 -0.588127 2.128 149 155 153
-0.403886 -0.477312 2.128 156 149 141
-0.458914 0.34558 1.278 134 142 139
-0.404284 -0.169877 1.805 158 153 149
0.261665 0.360386 1.196 103 105 87
-0.717882 -0.640705 2.278 155 156 152
0.0458303 0.372284 1.203 138 142 137
0.00370166 -0.0311972 1.62 130 125 121
-0.210413 0.152348 1.459 170 158 158
0.405941 -0.204668 0.954 18 11 5
-0.656451 0.215592 1.422 144 155 164
0.231652 -0.0989145 1.051 3 8 0
0.439685 0.322725 0.873 7 10 11
-0.309462 0.0160851 1.603 152 150 142
-0.293283 0.112241 1.494 147 141 143
0.00654897 0.398485 1.182 142 143 139
-0.668362 -0.801515 2.143 158 163 151
0.255613 -0.215395 1.004 19 31 23
0.0660653 0.354248 1.215 149 145 146
0.372738 0.160933 1.073 36 19 5
0.368896 -0.124966 0.916 8 11 12
-0.474324 0.299714 1.333 134 137 136
0.292815 0.0709096 1.494 44 42 32
-0.442566 0.23336 1.39 155 152 147
-0.405868 -0.16053 1.799 159 153 155
0.409602 -0.190761 0.917 15 20 10
-0.522964 0.178954 1.463 147 148 144
0.252983 0.352121 1.201 105 107 98
-0.0791233 -0.274523 1.899 125 116 121
-0.0837837 -0.0234178 1.629 157 152 150
0.378389 0.0644877 0.806 29 27 8
0.407059 -0.138122 0.895 10 10 6
0.162132 -0.256256 1.044 19 19 15
0.395759 -0.239844 0.843 124 129 115
-0.644056 -0.140893 1.81 144 144 144
-0.327533 0.290279 1.31 141 140 140
-0.00307135 0.396561 1.182 132 132 132
0.324915 0.230817 1.336 50 54 33
0.380041 -0.0356845 0.883 96 32 0
-0.295529 0.42349 1.182 137 145 142
0.348864 -0.380665 1.009 133 131 123
-0.713289 -0.720803 2.121 161 160 164
-0.0987563 0.280031 1.302 152 144 143
-0.37246 0.357116 1.26 148 152 145
-0.228322 -0.0974434 1.719 151 141 139
0.269491 -0.235703 1.007 18 20 28
-0.426461 -0.0349404 1.673 148 145 140
0.380533 0.322613 1.215 44 45 39
-0.564561 -0.614006 2.303 158 158 154
0.356976 0.251907 1.31 55 53 41
-0.104976 0.209831 1.384 153 148 146
-0.484814 0.339372 1.286 135 135 135
0.411094 0.207672 0.917 30 23 17
-0.510833 0.346932 1.283 136 142 140
0.3995 -0.223449 0.828 123 125 114
0.388412 -0.277525 0.889 111 120 113
-0.0124985 0.219175 1.372 139 131 128
-0.618471 -0.182946 1.848 149 150 144
-0.336287 0.166594 1.459 150 146 149
-0.5149 0.127507 1.502 146 142 143
-0.307853 0.424565 1.185 133 134 128
0.403167 0.137994 0.83 14 9 5
-0.405822 0.160673 1.47 150 149 149
-0.67064 -0.645749 2.244 163 160 144
-0.971333 -0.730546 2.181 147 158 154
0.21541 -0.12282 1.305 19 20 11
-0.536992 0.302684 1.327 145 142 137
-0.379345 -0.575882 2.228 159 155 148
-0.466133 0.313024 1.316 137 145 142
-0.557923 -0.455033 2.121 152 150 140
-0.253491 -0.698611 2.374 141 134 128
-0.093587 0.0413293 1.571 157 152 150
0.197242 -0.438958 1.244 6 11 27
0.307373 -0.26678 1.013 18 21 20
-0.198436 0.0489989 1.571 160 150 148
-0.0329971 0.422115 1.152 140 141 135
0.279781 0.251522 1.308 56 58 42
0.305537 -0.180353 0.991 8 12 5
0.42118 0.304597 0.964 12 9 4
0.254738 -0.222594 1.007 20 33 16
0.116376 0.106156 1.477 127 125 117
-0.168689 0.0864472 0.338 5 23 17
0.388706 -0.274414 0.893 107 116 109
0.262761 0.297245 1.267 65 62 46
0.386438 0.081593 0.862 24 17 7
0.275217 -0.30228 1.081 13 23 28
-0.526511 -0.182352 1.842 156 146 144
0.403313 0.296141 1.057 22 13 4
0.0139577 0.246588 1.339 146 141 137
-1.00325 -0.442316 2.143 142 150 139
-0.185551 0.38859 1.205 149 151 140
-0.409318 0.196135 1.432 160 157 152
-0.196023 -0.827741 2.166 135 139 134
0.345442 0.125617 1.203 31 18 5
-0.209664 -0.192733 1.799 158 150 147
-0.244428 -0.115224 1.734 157 148 151
-0.640861 0.0031578 1.664 141 141 135
-0.623716 -0.772511 2.22 160 161 155
0.352463 -0.160185 0.948 18 20 4
0.330011 -0.151247 0.95 11 20 13
-0.245861 0.369229 1.232 143 146 149
-0.0843072 0.279193 1.308 150 148 140
0.408255 0.341723 1.192 41 48 26
-0.839293 -0.452778 2.143 153 154 150
-0.0372227 -0.554277 2.158 148 140 137
0.115479 -0.198292 1.673 2 6 1
0.14933 -0.388593 1.494 1 9 0
-0.722288 -0.528551 2.212 154 155 146
-0.800406 -0.42257 2.114 146 144 136
0.383748 -0.309013 0.856 169 177 174
0.0223935 -0.0421804 1.637 133 128 126
0.208313 0.308395 1.262 107 109 96
0.354344 0.315609 1.234 48 49 38
0.10195 0.110963 1.477 138 134 139
-1.06296 -0.462971 2.158 134 142 131
0.366133 -0.200621 0.972 158 173 172
-0.297279 0.416324 1.189 136 137 131
-0.352144 0.379092 1.225 135 143 140
-0.0374698 -0.387093 1.985 148 145 140
-1.04341 -0.77114 2.044 151 162 160
-0.426301 -0.107067 1.739 156 152 153
-0.11734 -0.777662 2.356 160 152 149
-0.714376 -0.735625 2.114 160 157 154
-0.913047 -0.220972 1.917 137 138 134
0.441665 0.392339 1.034 23 39 30
-0.894347 -0.807125 2.158 155 162 154
-0.740633 0.169448 1.484 143 145 136
-0.171259 0.120842 0.35 8 14 16
0.404682 0.19403 0.916 37 15 5
-0.214766 -0.0235328 1.637 150 145 143
0.342842 -0.153852 0.947 13 17 10
0.210193 -0.0301766 1.567 54 51 37
-0.230304 -0.714065 2.374 137 132 128
-0.757211 -0.754349 2.128 160 156 157
-0.811042 0.070689 1.599 138 138 138
-0.105402 0.0186004 1.595 160 151 156
0.146453 -0.482235 1.419 2 8 8
-0.337839 -0.319483 1.947 154 151 146
0.0128952 0.124451 1.466 149 141 140
-0.996068 -0.710186 2.173 151 158 150
0.328923 0.388371 1.152 50 55 43
-0.16405 0.255394 1.351 142 139 134
-0.531103 -0.80153 2.181 163 159 150
-0.410238 -0.0575004 1.696 155 149 151
-0.421046 -0.790883 2.181 158 158 152
-0.458223 -0.843655 2.189 158 158 154
0.115295 0.426968 1.135 136 140 135
-0.685403 -0.275973 1.953 153 153 147
0.123736 0.210244 1.372 120 115 113
0.0279374 -0.442886 1.505 44 39 47
-0.463893 -0.25989 1.905 153 147 149
-0.39474 0.238592 1.381 153 153 157
-0.392264 0.156207 1.473 158 159 153
0.387534 -0.260325 1.02 14 11 8
-0.0345628 -0.228937 1.831 96 95 78
0.0197288 -0.340541 1.637 111 104 96
-1.0104 -0.423491 2.136 147 148 142
0.339249 0.301755 1.26 52 48 39
-0.974896 -0.726102 2.189 154 154 154
0.384796 0.268 1.275 43 40 24
0.0580202 0.430662 1.135 143 144 133
0.420147 0.332203 0.995 18 10 7
-0.55924 -0.627693 2.312 156 153 150
-0.00460963 -0.190054 1.774 89 82 72
-0.633789 -0.582787 2.269 161 156 152
0.106898 -0.3763 1.513 4 5 0
-1.021 -0.678493 2.151 150 157 161
0.104159 -0.385127 1.509 0 9 2
0.365565 0.0592519 0.954 32 26 13
0.353149 0.0477148 1.041 35 25 11
0.160101 -0.267033 1.053 33 35 22
0.347978 0.119943 1.205 16 10 12
0.0936419 0.315802 1.267 144 140 133
0.0344516 -0.320767 1.579 14 21 13
-0.523547 0.287731 1.348 157 163 165
0.229601 0.224614 1.351 68 61 55
-0.765564 0.0295097 1.624 148 147 147
-0.602285 0.2205 1.409 140 149 140
0.387498 0.14767 0.974 31 21 9
0.408011 0.271759 1.005 14 12 0
-0.49941 0.287731 1.348 140 140 144
-0.639472 -0.73733 2.212 156 157 148
-0.469437 -0.725967 2.278 147 138 131
0.125051 0.226443 1.362 116 109 103
-0.485645 -0.686496 2.32 149 139 127
0.312639 -0.00984856 1.252 24 16 4
-0.236874 0.371724 1.227 138 136 143
0.265191 -0.215516 0.997 23 26 29
0.212421 0.304287 1.262 111 112 103
0.326901 0.0563319 1.229 22 13 6
-0.392962 0.0291281 1.603 151 150 154
-0.146646 0.138386 0.376 19 15 6
-0.0484736 0.330985 1.262 146 142 145
-0.240869 0.369727 1.227 143 146 149
-0.400372 -0.774117 2.204 144 134 132
-0.764 -0.592941 2.294 152 152 152
-0.460346 0.304154 1.324 141 147 147
-0.826979 -0.621502 2.303 139 147 144
-0.522195 0.364084 1.27 136 150 154
-0.0234816 -0.289974 1.899 103 93 93
0.167242 0.364453 1.203 142 143 137
-0.990172 -0.781118 2.044 150 166 157
0.388691 -0.276378 0.977 91 92 81
0.350285 0.0311584 0.999 10 11 5
0.316203 0.0608949 1.283 29 16 5
-0.155076 0.105228 1.498 159 154 152
0.0184634 0.0602479 1.532 165 155 155
0.196288 -0.180327 1.291 12 20 17
0.365948 -0.181571 0.955 9 22 21
-0.321351 -0.146338 1.769 153 151 143
-0.380798 0.416828 1.196 144 151 155
0.0195239 -0.0259247 1.62 136 127 132
-0.719812 -0.212045 1.893 141 141 135
-0.167411 0.0894342 0.341 22 18 23
0.362867 0.0327565 0.951 27 24 8
-0.883463 -0.528748 2.228 154 156 143
-0.0296275 0.414318 1.167 134 133 133
0.381686 0.108261 0.897 31 24 7
-0.684013 0.227863 1.412 141 150 143
0.125994 -0.0782661 1.668 60 58 48
-0.487671 -0.719867 2.294 130 134 127
0.244372 0.114908 1.466 52 53 42
0.295859 -0.190029 0.991 2 8 8
-0.397161 0.283974 1.351 140 148 145
-0.763363 0.149804 1.505 125 139 128
-0.15311 0.129453 0.368 26 17 12
-0.679239 0.0699817 1.583 137 137 133
-0.589795 0.286808 1.354 137 145 146
-0.205895 0.247115 1.366 149 144 140
0.276882 -0.48466 1.247 33 48 92
-0.0266692 0.368981 1.205 140 140 140
-0.121175 -0.708651 2.356 145 134 138
-0.327897 -0.162549 1.789 158 153 149
-0.468184 -0.370357 2.017 156 151 147
-0.171123 0.105895 0.344 9 12 13
0.255868 -0.225422 1.005 5 19 10
0.114575 -0.165528 1.7 2 6 1
-0.332821 -0.0921158 1.724 162 156 158
0.014333 0.208466 1.375 150 146 149
0.188374 -0.165545 1.324 16 20 13
0.133919 0.22201 1.362 116 116 112
0.394779 -0.0393159 0.868 128 121 113
-0.663723 -0.0965181 1.753 143 147 142
0.345565 0.0358361 1.092 38 26 10
0.380892 0.132909 0.994 35 22 11
0.361718 0.136998 1.12 37 17 0
-0.125856 0.0185537 1.591 144 135 138
-0.340613 -0.568147 2.212 161 153 150
-0.876783 -0.824684 2.158 162 161 163
0.157951 0.378579 1.192 137 136 143
-0.462244 -0.266928 1.911 143 139 142
0.374876 0.0470098 0.871 41 29 11
-0.362769 -0.350436 1.997 158 153 149
0.264679 0.42908 1.126 145 157 147
-0.443765 0.28581 1.339 141 147 145
-0.627113 -0.257599 1.911 149 147 139
-0.631852 0.300223 1.345 120 133 128
-0.760166 0.055352 1.607 143 149 147
0.1259 0.267319 1.302 118 110 107
-0.308031 0.375244 1.232 140 141 135
0.369772 0.161709 1.09 36 19 5
-0.134552 0.384668 1.205 139 141 132
0.384226 -0.0788419 0.917 1 7 7
-0.154899 0.114653 0.361 19 21 12
-0.255601 0.121394 1.487 157 147 145
-0.73413 -0.324405 2.017 160 158 148
-0.241194 0.348915 1.26 131 134 137
-0.457144 0.225926 1.4 147 147 151
-0.174224 0.094966 0.337 4 16 18
-0.326378 -0.0744531 1.705 157 148 153
-0.486729 -0.519493 2.189 164 154 152
0.1066 0.390791 1.182 143 143 137
-0.851223 -0.12465 1.831 138 142 135
0.27099 -0.0339402 1.406 12 10 0
0.0871627 -0.281296 1.603 4 5 1
0.292854 -0.0997235 0.96 13 10 5
-0.10905 -0.262878 1.882 156 146 144
-0.172301 0.106146 0.343 6 15 8
-0.534657 -0.403864 2.071 155 152 149
-0.104953 -0.353539 1.978 147 142 138
-0.177283 0.110934 0.344 14 14 8
0.185728 -0.0999812 1.668 44 42 34
0.136921 0.389468 1.178 149 147 139
0.27355 -0.130491 0.992 8 8 8
-0.173816 0.0582632 0.331 21 20 20
0.396501 -0.161721 0.939 2 3 0
-0.354592 -0.0456935 1.668 149 145 148
-0.242624 0.185901 1.425 145 137 134
-0.823718 -0.695211 2.204 161 162 151
-0.394343 0.083495 1.547 146 143 140
0.0355448 -0.379513 1.516 8 14 14
-0.306635 -0.0567206 1.673 153 148 144
0.00146418 -0.833306 2.228 153 150 147
-0.992761 -0.65046 2.128 153 160 154
-0.160086 0.100624 0.353 10 20 8
-0.110965 -0.85506 2.228 142 138 129
-0.478101 -0.122889 1.763 148 147 147
-0.0336005 -0.545478 2.151 142 139 134
-0.346652 0.324723 1.286 135 144 137
0.254782 -0.0682442 1.027 7 6 6
-0.775954 -0.172489 1.865 142 143 139
0.257326 -0.0573458 1.419 15 13 1
-0.300415 -0.207564 1.853 166 158 157
0.402195 -0.273304 0.828 147 156 147
0.177909 0.152036 1.412 96 98 89
-0.383788 0.0928392 1.535 136 136 132
-0.480095 -0.203997 1.848 147 147 143
0.0367971 0.406024 1.165 138 141 144
-0.12272 -0.580018 2.244 149 140 131
0.049056 -0.487524 1.477 13 14 5
-0.587389 -0.786778 2.261 165 163 153
0.404682 -0.180119 0.916 3 11 12
0.313329 0.396497 1.143 65 66 53
0.13546 -0.373564 1.502 4 12 0
-0.479167 -0.765286 2.22 133 131 121
0.210997 0.411377 1.143 126 132 132
0.163831 -0.256256 1.044 18 18 14
-0.735563 -0.0531451 1.734 146 154 153
0.39937 -0.199801 0.814 135 141 124
0.413494 0.195702 0.84 33 25 22
-0.73772 0.134687 1.528 131 142 138
0.371047 -0.0344803 0.889 96 32 0
-0.707721 0.158116 1.491 142 151 142
-0.210477 0.383274 1.213 147 148 142
0.32232 -0.164458 0.964 14 20 20
0.345377 -0.0214767 0.954 32 30 18
-0.304829 0.116868 1.491 157 147 147
-0.589478 -0.176357 1.842 157 155 145
0.412274 -0.207758 0.913 94 107 94
-0.155912 0.326111 1.267 143 144 140
-0.37246 0.363268 1.26 151 150 157
-0.257501 0.123564 1.484 143 140 137
-0.538402 -0.0353163 1.691 148 145 140
-0.461912 0.0162155 1.616 149 150 144
0.309573 0.0278319 1.299 15 11 0
-0.0318783 0.401651 1.18 138 137 137
0.399614 0.186802 0.932 31 25 12
0.367707 -0.217005 0.989 35 41 43
0.396197 0.297801 1.252 47 47 27
-0.0566009 0.334561 1.26 131 130 132
-0.996218 -0.63856 2.158 152 155 154
0.316273 -0.0296679 1.083 20 19 23
-0.29646 -0.136845 1.758 149 145 138
0.0396258 -0.48259 1.484 12 15 32
-1.11139 -0.72828 2.143 155 161 163
-0.423894 -0.387744 2.057 161 153 150
-0.352175 -0.160083 1.794 157 154 151
0.420249 -0.0677543 0.889 104 107 89
0.409787 0.189982 0.827 34 24 10
0.2407 -0.196959 1.01 18 29 25
-0.663444 -0.510433 2.196 154 151 148
-0.340986 -0.676603 2.338 154 149 145
-0.451096 -0.815157 2.189 157 153 146
-0.598828 -0.452029 2.107 150 149 149
0.352416 0.162564 1.278 32 36 15
0.111038 -0.461292 1.47 4 8 1
0.366138 0.405979 1.128 57 55 43
-0.428421 0.0368617 1.599 156 153 148
-0.346927 -0.597009 2.253 163 155 152
0.253849 -0.095262 1.03 1 10 3
-0.718245 0.190858 1.463 133 144 140
0.37534 0.00150679 0.794 166 168 155
-0.162916 0.0946679 0.348 8 19 19
-0.476297 -0.24439 1.905 151 146 142
-0.0326576 0.167669 0.44 34 33 37
-0.174682 -0.786402 2.303 156 148 147
0.431361 0.359091 0.98 14 11 0
-0.537669 -0.378641 2.044 161 152 145
0.405615 -0.133801 0.867 85 100 86
0.0756563 -0.454796 1.48 9 10 1
-0.489491 -0.158128 1.805 151 143 140
-0.831948 -0.0529919 1.729 134 142 131
-1.07243 -0.750886 2.128 156 163 157
0.200865 0.355254 1.205 122 123 112
0.210773 -0.122029 1.122 8 13 3
0.417182 -0.159153 0.823 122 124 113
0.370307 0.123454 1.066 40 19 6
-0.525069 0.367952 1.262 138 157 159
0.0203796 -0.23895 1.691 77 67 53
0.424503 -0.088899 0.898 87 95 80
-0.341422 0.267988 1.348 145 145 145
-0.54011 0.100594 1.539 156 152 145
-0.336418 0.112842 1.502 141 137 140
-0.143968 0.135073 0.377 137 148 146
0.419917 0.293675 0.954 23 17 4
-0.0993154 -0.648938 2.294 147 138 131
-0.0555962 0.428482 1.154 127 124 121
0.278444 -0.0242416 1.375 9 11 2
0.39393 -0.26083 0.955 93 105 95
0.2407 -0.21997 1.01 25 26 20
-0.649278 -0.400494 2.071 149 146 141
0.381257 0.0406248 0.801 24 16 2
-0.311415 0.189144 1.432 143 143 137
0.398142 0.353215 1.185 39 40 29
-0.362516 0.39117 1.213 141 156 140
-0.312241 0.225597 1.384 143 144 135
0.210628 -0.124096 1.141 10 11 0
0.370178 0.0467592 0.841 37 30 11
-0.169133 0.0924916 0.34 13 16 17
0.324289 0.373497 1.176 55 56 43
0.070838 0.103963 1.48 154 149 145
-0.158236 0.141852 0.366 10 11 0
-0.433844 -0.284251 1.923 149 145 146
0.405085 -0.0481764 0.875 126 131 121
0.380646 -0.0947373 0.912 9 11 2
-0.00531239 0.333765 1.257 147 146 146
-0.256396 -0.145428 1.758 155 146 149
0.381922 -0.0452093 0.901 88 32 0
0.184368 -0.298388 1.543 8 10 1
-0.726745 -0.211373 1.887 145 145 139
0.357152 0.178446 1.351 40 38 26
0.0916452 0.117294 1.466 147 143 148
-0.705529 -0.130889 1.794 151 151 153
-0.648898 0.0138716 1.65 139 138 138
0.322584 -0.262443 1.009 19 32 29
0.436246 0.394073 1.066 26 33 25
-0.0936087 -0.699432 2.338 143 133 131
0.309145 -0.421621 1.108 128 125 120
-0.147816 0.148124 0.379 17 17 17
-0.405709 -0.0264848 1.655 154 150 151
-0.211354 0.326863 1.278 139 136 133
-0.484191 0.118592 1.513 144 148 143
-0.578014 0.295186 1.342 144 152 151
0.268894 0.391068 1.16 109 110 104
0.18535 0.388395 1.169 140 137 132
0.262542 -0.00726327 1.575 38 40 27
-0.0839204 0.286388 1.302 141 137 130
-0.309 -0.124688 1.748 157 146 150
0.296075 -0.0357682 1.055 1 4 3
-0.461584 0.154541 1.48 142 145 144
0.042672 0.240004 1.351 148 139 142
-0.373183 -0.221641 1.87 161 150 154
-0.226357 0.141536 1.47 149 144 142
0.190275 -0.481364 1.265 30 30 52
0.347453 0.299704 1.26 48 48 44
0.0681052 0.110663 1.473 159 150 157
-0.39741 -0.627693 2.312 150 147 144
-0.81581 0.0983184 1.583 135 139 134
0.229722 -0.102238 1.05 1 8 0
-0.150849 -0.32582 1.947 171 162 165
-0.807301 -0.655647 2.228 164 165 161
-0.903879 -0.695054 2.181 154 160 162
0.32178 -0.0873081 0.944 0 9 0
-1.05609 -0.339709 2.03 139 141 132
-0.0825245 0.0838997 1.509 162 156 158
0.390203 0.103924 0.817 39 24 12
0.272155 -0.0606136 1.208 17 8 0
0.328902 0.054332 1.229 26 15 10
-0.716401 -0.194876 1.876 151 152 143
-0.135373 -0.557348 2.212 143 138 136
-0.016078 0.419146 1.149 136 142 140
-0.159526 0.107378 1.494 164 155 158
0.206301 -0.183562 1.027 16 16 16
-0.374696 0.0343453 1.603 152 151 151
0.310026 0.370927 1.18 52 48 41
-0.295095 0.289836 1.308 146 146 142
0.0593285 0.260081 1.33 122 119 116
0.120573 0.187715 1.387 147 144 141
-0.224576 0.277248 1.319 154 150 151
-0.152915 0.301474 1.294 149 146 143
-0.537233 -0.0409407 1.696 145 143 135
-0.38157 0.0394638 1.599 162 159 154
0.389557 0.0338093 0.794 22 15 0
0.173687 -0.290667 1.583 2 6 1
0.428102 0.254744 0.85 30 27 11
0.388553 0.232929 1.083 20 17 1
-0.107622 -0.81205 2.312 162 162 158
0.0676135 0.418084 1.141 123 124 120
0.416228 -0.148771 0.84 114 118 113
0.268156 -0.252084 1.027 21 36 22
-0.101665 -0.241514 1.859 142 135 129
0.0740134 0.331641 1.249 148 149 140
-0.292633 -0.751776 2.347 153 146 138
-0.627756 0.194149 1.452 152 159 163
0.199614 -0.0589823 1.403 12 13 7
-0.444598 -0.696457 2.303 157 153 144
-0.246787 -0.740317 2.347 136 133 128
-1.05594 -0.462971 2.158 134 142 131
0.0671779 -0.325147 1.563 9 9 5
-0.894088 -0.0388111 1.724 134 146 148
0.0230658 0.224227 1.362 157 151 155
0.332669 -0.333327 1.079 9 10 6
-0.482708 -0.0102443 1.642 151 152 148
0.4055 -0.141507 0.898 7 11 6
-0.917426 -0.0830053 1.769 140 143 144
-0.059957 0.161968 1.439 155 144 137
0.208576 0.377326 1.182 129 134 124
-0.740579 0.0950165 1.571 138 137 137
0.0874137 -0.108064 1.71 56 56 50
-0.0313306 0.0725233 1.528 153 149 150
-0.115154 0.256448 1.345 150 145 141
-0.167233 0.245848 1.359 161 150 154
0.0302392 -0.269953 1.629 62 56 58
-0.174868 -0.514034 2.166 146 141 139
0.366348 -0.16241 0.952 5 17 7
0.405913 0.390418 1.147 45 47 36
0.303971 0.038243 1.369 35 37 21
0.0619971 -0.171061 1.7 4 9 14
0.332207 -0.0191993 1.089 38 28 14
-0.921786 -0.67836 2.173 160 160 160
0.420071 0.322805 0.991 17 14 0
0.352121 -0.237752 0.995 15 18 17
0.422223 0.306493 0.97 11 8 3
-0.499525 -0.19734 1.842 154 150 153
-0.333996 0.198973 1.419 153 153 153
0.189528 -0.0723186 1.396 17 20 19
-0.112606 -0.0207031 1.624 164 154 152
-0.555055 -0.70387 2.22 157 159 148
-0.839293 -0.811977 2.143 161 161 165
-0.164684 0.131761 0.358 14 12 19
-1.00322 -0.329799 2.03 130 143 138
0.172806 -0.158279 1.354 28 26 18
-0.441426 0.369111 1.252 140 148 145
-0.29717 -0.800101 2.158 138 140 131
0.393865 0.180107 0.978 29 21 7
0.36086 -0.356748 0.958 117 125 126
0.352694 -0.178837 0.957 26 17 24
-1.00314 -0.713722 2.173 155 159 152
-0.863434 -0.720497 2.151 158 158 152
0.374778 0.0856632 0.905 29 27 4
-0.811202 -0.213389 1.905 141 148 142
-0.500123 0.191786 1.452 147 148 144
0.3287 0.0196043 1.185 38 17 12
0.41408 0.224087 0.917 27 20 3
-0.178592 0.101298 0.338 17 12 8
0.198466 0.326969 1.239 107 108 102
-0.635603 0.270527 1.372 141 146 151
-0.420445 0.105123 1.532 149 146 141
0.164127 0.27659 1.286 120 118 110
-0.268342 0.213003 1.39 159 151 150
-0.896966 -0.121006 1.821 131 143 135
-0.150131 0.135338 0.371 9 14 19
-1.12684 -0.549282 2.166 145 156 156
0.294083 -0.429405 1.234 3 14 12
0.388733 0.402957 1.135 47 49 40
-0.0448349 -0.269717 1.887 96 85 80
0.0986056 -0.224304 1.664 7 7 1
-0.202118 0.43036 1.154 143 147 142
-0.0530653 -0.125045 1.753 137 129 126
-0.37911 0.407522 1.203 138 157 157
0.405884 -0.171912 0.912 11 11 7
0.190529 -0.146154 1.324 22 25 9
-0.520098 -0.139258 1.789 146 141 139
0.0978547 0.254599 1.324 117 117 111
-0.0589542 -0.0650433 1.677 159 151 150
-0.112339 0.428083 1.158 138 145 139
-0.960164 -0.18432 1.893 140 140 144
0.378334 -0.0190678 0.847 84 34 0
-0.557436 0.257131 1.372 147 154 146
-0.59695 -0.673776 2.228 160 161 152
-0.756629 -0.482311 2.166 153 154 145
0.412439 0.218832 0.92 38 21 5
0.0152966 -0.132536 1.739 113 108 106
0.127922 0.21424 1.369 114 111 106
-0.417627 0.310408 1.305 153 156 155
0.330714 -0.278009 1.024 14 22 11
-0.444669 0.328087 1.291 131 145 136
0.259478 -0.193382 1 14 14 8
0.30071 -0.268011 1.024 1 7 5
-0.343512 0.372741 1.237 153 160 154
-0.309368 0.353576 1.262 131 138 132
-0.11741 -0.112403 1.734 160 152 151
-0.582937 -0.501682 2.189 157 154 149
0.257829 0.26357 1.294 61 63 50
-0.0622167 -0.666475 2.303 145 136 131
0.38403 -0.286091 0.931 106 116 91
-0.858581 -0.341999 2.024 144 144 144
-0.802633 0.0604314 1.603 140 141 137
0.0575089 0.401197 1.162 129 129 123
0.391232 -0.10478 0.909 4 8 3
-0.192731 -0.442003 2.092 164 157 151
-1.01735 -0.732853 2.136 175 177 164
0.129005 -0.400481 1.484 7 7 1
-0.528767 -0.588806 2.278 153 154 148
0.395736 0.148378 0.867 36 28 14
0.398927 -0.196849 0.841 114 124 110
0.345138 0.153323 1.237 36 34 15
-0.526347 -0.175304 1.831 147 142 140
-0.915744 -0.14424 1.853 132 142 130
-0.159303 0.135964 0.363 10 11 5
0.00105608 -0.0152562 1.607 134 132 124
-0.503852 0.00836745 1.624 154 149 145
-0.164143 0.0955252 0.347 17 27 15
-0.0367525 -0.341662 1.947 136 132 121
-0.761912 -0.168364 1.853 138 144 144
0.377374 -0.249138 1.015 6 10 5
0.244751 -0.118382 1.027 6 10 5
0.200903 -0.301837 1.535 10 11 2
0.399449 0.145988 0.845 28 22 7
0.3617 0.197821 1.167 29 25 14
-0.167622 0.3392 1.262 143 146 145
0.414554 0.227045 0.905 29 22 5
0.244871 0.195041 1.375 67 61 48
-0.141838 0.342624 1.252 140 146 146
0.380352 0.269261 1.281 49 43 28
-0.601619 -0.275721 1.929 144 139 137
0.333297 -0.0282708 1.032 31 24 7
-0.702931 -0.451581 2.121 146 147 143
0.414948 0.288884 1.002 12 13 2
-0.424596 -0.808629 2.181 161 161 163
-0.0813312 -0.0287902 1.633 155 151 156
0.210868 -0.409665 1.229 8 27 47
-0.283664 0.172049 1.445 152 149 146
-0.690501 -0.0187499 1.686 143 144 135
-0.708429 0.111475 1.551 135 141 143
-0.264748 0.125979 1.484 150 149 151
-0.712961 -0.587153 2.286 153 150 145
-0.810928 -0.673776 2.228 160 157 154
-0.482157 0.147714 1.484 146 142 143
-0.874349 -0.656951 2.196 159 159 159
-0.891052 -0.0417373 1.729 139 151 141
-0.171235 -0.486097 2.121 154 143 138
0.407954 -0.172886 0.872 102 107 93
-0.00974137 0.273675 1.302 140 140 136
-0.627749 0.181335 1.463 148 152 145
-0.88813 -0.770128 2.143 150 152 143
0.382796 -0.00981615 0.77 187 204 205
0.303924 -0.181965 0.991 6 14 11
-0.669103 0.27276 1.372 136 149 146
0.352527 0.428132 1.114 56 52 45
-0.267229 0.423254 1.176 142 149 143
0.405049 -0.147189 0.897 8 12 7
-0.497292 -0.747331 2.253 159 159 153
-0.0388613 -0.644672 2.253 142 136 140
-0.166159 0.0882842 0.343 18 20 9
0.415781 0.204466 0.815 30 21 16
0.415975 0.202846 0.883 36 24 6
-1.01635 -0.304023 1.991 130 132 119
0.192694 -0.116078 1.591 32 37 25
-0.311291 -0.168842 1.794 153 148 146
-0.290173 0.148308 1.466 148 143 139
0.349738 -0.306111 1.046 6 7 3
-0.861197 -0.187995 1.899 143 145 136
0.113228 -0.343629 1.532 0 7 0
0.260316 -0.417548 1.217 21 51 85
-0.0509068 0.203074 1.384 153 149 150
0.395667 -0.293982 0.837 185 192 198
0.0743289 0.381496 1.189 151 152 148
0.0561638 -0.217294 1.612 10 11 5
-0.0364629 0.313154 1.273 140 139 139
0.370741 0.0461476 0.83 30 23 6
-0.406229 0.432279 1.185 143 158 155
0.132645 -0.12262 1.719 20 29 20
0.397413 0.240291 1.046 15 11 4
-0.0591076 -0.137234 1.763 119 117 107
0.391391 0.235325 1.062 10 12 0
0.251489 -0.330199 1.141 11 14 13
-0.721259 -0.728745 2.114 161 161 155
0.359967 0.188503 1.18 30 25 7
-0.302643 -0.27229 1.905 156 151 149
-0.3006 0.243735 1.372 153 151 143
-0.888103 0.00594322 1.686 140 144 137
-0.255996 -0.217312 1.859 165 159 163
-0.808608 0.100639 1.579 138 142 137
-0.00728244 0.344484 1.244 139 140 134
-0.566767 -0.197929 1.876 149 149 151
-0.563294 0.215914 1.409 147 147 141
-0.314269 -0.44731 2.085 156 148 145
-0.292681 -0.0946461 1.719 158 150 147
0.255396 0.36367 1.194 111 113 95
-0.408986 0.341421 1.278 134 140 138
0.286321 -0.118735 0.975 10 19 12
-0.827383 -0.114068 1.805 133 142 135
0.338877 0.181616 1.375 48 45 31
-0.0662724 0.341803 1.249 143 143 145
0.423511 0.320524 0.984 10 14 7
-0.80226 -0.0648039 1.744 140 147 139
0.277554 0.168125 1.393 61 57 46
0.258972 0.331882 1.22 88 89 78
-0.137783 -0.44731 2.085 153 146 140
-0.278391 -0.795636 2.204 141 136 132
0.297731 -0.360858 1.162 6 14 11
0.403786 0.139509 0.823 18 9 4
-0.176479 0.0870548 0.334 11 12 8
-0.776813 -0.321122 2.017 152 149 144
-0.0429817 0.0107865 1.591 154 150 151
0.308527 -0.215031 0.98 18 29 29
