ply
format ascii 1.0
comment Created by Open3D
element vertex 1345
property double x
property double y
property double z
property uchar red
property uchar green
property uchar blue
end_header
-0.369338 0.26441 1.33 158 154 157
-0.243683 0.306939 1.273 143 140 137
-0.0998182 0.250919 1.316 154 149 159
0.411042 0.36265 0.981 48 56 41
-0.147933 0.142239 1.429 163 154 159
0.0642568 0.305127 1.257 157 151 153
0.373749 -0.0866221 0.875 144 148 143
0.0738913 0.369632 1.182 147 147 147
-0.087749 0.0962805 1.473 165 157 154
-0.143115 -0.516698 2.064 154 138 145
-0.287147 -0.00475991 1.595 164 156 153
0.077035 0.402077 1.143 139 138 140
-0.103307 0.213145 1.362 155 149 151
0.379671 -0.153796 0.823 122 122 118
0.016668 -0.306615 1.599 0 7 1
0.230199 0.0418466 1.498 53 46 36
-0.0766492 0.343794 1.22 140 140 142
0.376141 -0.14632 0.804 146 153 145
0.0298473 0.288295 1.273 160 160 156
-0.0774522 -0.404186 1.789 153 146 140
-0.147392 0.103261 1.47 169 165 168
-0.168392 0.143127 0.374 18 18 18
-0.0124124 -0.21823 1.659 13 12 16
0.346394 0.128409 1.036 34 20 5
0.113892 -0.135973 1.612 47 45 35
0.102511 0.156115 1.387 129 125 128
-0.207262 -0.0364698 1.62 168 164 169
0.177374 0.248253 1.291 115 112 107
-0.706642 -0.321452 1.959 141 140 142
0.0309324 0.030331 1.532 136 128 125
0.0226091 -0.470699 1.477 10 11 5
-0.0147212 -0.0521583 1.616 132 124 123
0.4009 0.280218 0.935 26 16 4
0.107915 -0.326596 1.116 24 36 26
-0.395712 0.427171 1.171 137 151 157
0.354877 0.286688 1.222 52 53 42
0.207176 0.355143 1.185 122 122 126
0.220057 -0.0508802 1.432 9 14 4
0.315439 -0.0177362 0.921 45 36 19
-0.319009 -0.629341 2.212 156 149 141
0.124314 -0.18841 1.682 54 54 56
-0.287616 -0.335364 1.929 175 166 171
-0.120997 -0.12717 1.705 166 155 159
-0.520756 0.127788 1.477 155 151 154
0.244656 -0.364579 1.11 12 20 9
-0.179805 0.108312 0.35 20 17 12
0.158688 -0.179982 1.055 11 11 7
-0.0688801 -0.0176934 1.591 157 148 151
-0.17516 0.371665 1.201 148 143 141
0.377353 0.18628 0.937 36 23 10
-1.01656 -0.387744 2.057 147 150 149
0.22231 0.318658 1.215 102 102 96
0.331077 0.00585766 0.864 38 31 21
-0.0849988 -0.314485 1.826 99 91 88
-0.325422 0.358278 1.222 158 157 164
0.206776 0.039593 1.505 63 56 46
-0.220535 0.294736 1.283 147 143 144
-0.614582 -0.491373 2.114 149 150 144
-1.05208 -0.473702 2.143 147 160 155
-0.558359 0.0211428 1.591 163 163 157
0.316476 -0.0156028 0.975 19 16 2
0.285708 -0.0962972 0.957 44 24 14
-0.634139 -0.457145 2.099 158 157 157
0.311317 -0.247219 0.994 90 104 93
0.350178 -0.31926 0.839 148 155 159
-0.495934 -0.489746 2.107 154 154 148
0.354845 0.06647 0.783 40 21 4
0.138166 0.0203588 1.532 72 63 58
-0.277172 0.110663 1.473 162 151 155
-0.673039 -0.00484646 1.624 157 153 158
0.351443 -0.241018 0.852 118 125 119
-0.310633 -0.119195 1.71 160 152 149
0.365371 -0.164372 0.872 121 126 116
0.304265 -0.0663931 0.91 51 30 17
0.378803 0.246813 1.01 25 14 5
0.0916452 -0.443337 1.466 4 4 4
-0.61467 -0.301136 1.911 156 150 152
-0.50255 0.285184 1.316 145 153 154
0.204493 -0.145507 1.018 7 10 11
0.209059 0.161477 1.375 69 68 51
-0.179911 0.0980658 0.348 15 18 17
-0.253883 0.339156 1.232 146 146 146
-0.0987016 0.00298131 1.571 159 150 157
-0.770305 0.128101 1.509 142 148 146
0.198253 -0.265304 1.02 14 10 11
0.3608 0.086877 0.832 40 22 11
-0.55734 0.309897 1.294 142 144 154
-0.59502 0.0964329 1.513 151 154 153
0.36574 0.100658 0.834 19 11 0
-0.202579 0.357613 1.213 143 142 144
-0.37956 0.368694 1.217 152 155 158
0.0215702 0.393633 1.162 154 151 148
0.312071 0.0491596 1.112 39 24 14
0.0770207 0.288542 1.265 154 150 155
-0.266228 0.320717 1.262 151 151 153
-0.857666 -0.456535 2.128 164 161 158
0.270839 -0.229648 0.988 9 12 11
-0.526591 0.266199 1.339 147 161 152
0.235968 -0.315612 1.055 12 5 0
0.370391 -0.116407 0.931 49 58 40
0.0878738 -0.203744 1.719 2 9 3
0.198174 -0.0798707 1.409 16 20 15
-1.08929 -0.455458 2.107 143 149 149
-0.972965 -0.226126 1.882 141 147 147
0.356729 0.250375 1.182 41 38 33
0.238694 -0.298414 1.037 2 8 8
0.0617667 0.383343 1.171 152 153 149
-0.684246 0.14942 1.477 145 156 152
-0.510315 -0.695416 2.312 156 150 152
0.0635601 0.343489 1.205 148 143 141
0.386472 -0.18879 0.801 133 131 121
-0.27446 -0.513494 2.092 154 144 142
0.115519 -0.183627 1.714 27 34 28
0.0655017 -0.361675 1.524 4 9 0
-0.695998 0.113668 1.513 145 148 151
0.357695 -0.240418 0.795 152 159 163
0.123839 0.053386 1.48 76 63 52
0.219042 0.209827 1.327 70 63 53
0.114858 -0.286585 1.664 7 7 1
-0.369808 -0.159278 1.753 161 156 154
-0.509854 -0.135755 1.744 167 159 158
0.372364 0.0462006 0.785 72 28 0
-0.195108 -0.40826 1.978 154 149 147
-0.65092 -0.5295 2.143 164 161 156
0.0202884 0.351241 1.198 147 150 151
0.372163 -0.205481 0.79 130 131 125
-0.00828933 -0.536518 1.416 5 12 4
0.254945 0.158545 1.369 65 59 44
0.311256 -0.256591 0.999 27 35 32
-0.200171 -0.748893 2.338 154 150 151
0.150813 -0.301583 1.06 4 12 13
0.018138 -0.418394 1.505 9 9 5
-0.0235094 -0.43064 1.505 6 11 16
-0.851392 -0.710449 2.121 167 164 161
-1.07043 -0.6797 2.166 158 170 172
0.125641 -0.459909 1.257 11 15 27
-0.211068 0.386986 1.194 149 150 144
0.279568 0.299059 1.232 61 59 38
0.160351 -0.117566 1.342 9 9 5
-0.29817 0.0259901 1.571 172 162 160
0.0914632 -0.185769 1.734 11 17 17
-0.573069 0.2482 1.372 162 165 168
-0.266421 -0.702476 2.286 147 138 133
-0.340925 -0.310466 1.911 164 158 162
0.338565 0.14806 1.081 29 16 3
0.233286 -0.0746758 1.152 22 18 7
-0.248379 -0.276417 1.87 168 159 164
0.368164 -0.0239812 0.743 114 122 119
0.11625 0.0129384 1.539 66 63 49
-0.0119883 0.235928 1.316 149 144 142
-1.01701 -0.764738 2.128 168 181 178
-1.07452 -0.416773 2.085 145 153 150
0.144084 0.259359 1.294 115 112 107
-0.176534 0.26103 1.313 158 154 145
-0.471939 -0.772511 2.22 164 160 165
-0.850644 -0.654115 2.286 148 145 142
-0.351603 -0.47106 2.085 173 164 157
-0.163733 0.3873 1.189 152 156 151
-0.722303 0.217742 1.406 147 152 161
0.413157 0.283716 0.871 26 19 9
-0.181343 0.134627 0.361 9 15 17
0.274965 -0.414514 1.094 72 87 82
0.288591 0.100596 1.339 37 37 33
0.345589 -0.00502858 0.806 25 16 0
-0.127638 0.112292 1.463 161 152 159
-0.416455 -0.350143 1.959 165 157 156
-0.34167 -0.022929 1.595 166 157 160
-0.139815 -0.805246 2.347 167 163 164
-0.17391 0.111097 0.359 6 17 13
-0.522361 -0.590737 2.189 163 160 155
-0.488649 0.0286193 1.575 160 157 152
-0.151851 0.339707 1.234 152 151 155
-1.08806 -0.605679 2.166 158 162 157
-0.353578 -0.44465 2.057 172 166 168
-0.525661 0.306867 1.299 148 151 150
-0.769796 -0.670361 2.278 167 167 161
0.336093 -0.314276 0.916 115 119 112
0.370743 -0.0869191 0.878 150 151 145
0.305115 -0.315898 1.039 3 11 10
-0.298871 0.413172 1.18 143 149 149
0.207602 0.255066 1.283 79 71 59
-0.410858 -0.711448 2.303 159 154 152
0.3693 0.0664464 0.768 65 30 4
-0.278377 -0.110199 1.7 166 156 156
0.289387 -0.00160391 1.182 36 25 16
0.366475 -0.0413809 0.73 135 141 139
0.369554 -0.0771402 0.849 177 184 188
-0.259518 0.258517 1.322 156 152 153
-0.249844 -0.388947 1.978 175 167 166
0.133127 -0.0306388 1.591 65 59 44
0.391915 0.234047 0.939 18 16 6
0.346819 0.370456 1.143 55 53 34
0.332344 0.00583054 0.86 37 29 15
-0.269534 -0.0531266 1.646 157 149 146
0.130417 -0.459202 1.244 15 19 42
-0.0919855 -0.10082 1.682 144 136 135
-0.672619 -0.222041 1.848 161 159 151
0.112848 0.357674 1.187 154 150 151
-0.372969 -0.399898 2.017 172 164 163
0.161508 -0.142243 1.234 7 11 6
-0.398369 0.371589 1.22 148 156 155
0.000859582 0.243008 1.308 161 157 162
0.426943 0.316441 0.856 7 14 6
-0.743892 -0.593344 2.212 165 161 164
-0.683578 -0.796589 2.158 160 164 159
0.362644 0.150787 0.984 41 24 6
0.306072 0.270442 1.267 54 53 36
-0.408288 -0.0205502 1.612 170 164 166
-0.350733 0.413172 1.18 143 143 143
-0.767886 -0.69826 2.158 162 167 172
-0.0208364 0.34631 1.208 143 142 142
0.32541 0.0560771 1.039 40 27 16
0.0415665 0.229503 1.316 132 124 121
0.365367 0.0836156 0.765 55 25 7
-0.448393 0.38859 1.205 137 145 146
-0.353069 0.178464 1.403 162 158 159
-0.258726 -0.209714 1.794 154 151 148
0.332439 0.0708777 1.009 38 25 14
-0.476443 -0.684129 2.312 157 153 146
0.182604 0.336485 1.201 117 113 114
0.35598 0.0760701 0.863 9 10 4
0.392444 0.0401683 0.792 54 18 0
0.337949 0.0606267 0.905 37 25 9
0.322278 -0.331277 1.029 17 20 21
0.29264 -0.0306177 1.055 50 33 15
-0.127025 -0.286462 1.876 106 92 84
-0.119699 0.208012 1.372 153 148 156
-0.173484 0.127694 0.363 15 19 12
-0.363399 0.303796 1.286 140 143 144
-0.137246 -0.118498 1.7 175 164 168
0.305565 0.24195 1.291 63 62 47
0.140983 0.18265 1.366 118 114 115
-0.0399375 0.310026 1.252 146 143 138
-0.272691 -0.0843974 1.682 158 152 154
-1.13322 -0.663142 2.158 157 164 168
0.0751644 -0.505144 1.425 4 5 0
0.424815 0.323242 0.863 13 21 22
-0.865836 -0.58104 2.22 156 156 150
-0.501132 -0.0736234 1.686 150 146 147
-0.651999 -0.294917 1.911 154 154 148
0.385313 0.20734 0.909 36 21 9
0.385168 0.397314 1.114 46 51 37
-0.373933 0.031024 1.567 155 149 151
0.162464 -0.145224 1.104 6 7 1
-0.163605 0.135073 0.377 60 60 64
0.414973 0.260181 0.832 37 32 12
-0.251537 -0.706196 2.286 146 138 135
0.276689 -0.0415356 1.169 46 27 14
-0.0284091 0.0567369 1.505 164 153 159
0.34876 -0.275982 0.866 133 134 121
0.339379 -0.283285 1.025 17 17 13
0.0992777 0.297654 1.26 155 151 154
-0.677991 -0.136456 1.753 151 151 153
0.347262 -0.287947 0.995 86 80 84
0.179275 0.151601 1.387 69 65 54
-0.449216 0.446415 1.147 143 156 153
-0.168902 0.0478761 1.535 161 153 150
0.244878 -0.443665 1.229 9 9 9
0.340913 -0.0384762 0.82 153 150 136
-0.795481 -0.43179 2.092 158 150 147
0.159144 0.336485 1.201 134 128 132
0.227703 -0.0618727 1.366 14 11 8
-0.474851 0.0459694 1.555 157 160 163
-1.10153 -0.496473 2.151 147 154 148
-0.20095 -0.0473922 1.633 166 157 160
0.15019 0.347542 1.192 147 153 155
0.0212773 0.163239 1.39 156 147 154
-0.703965 -0.634481 2.269 161 157 160
-0.0681419 0.394548 1.176 143 140 137
-0.746184 -0.425518 2.078 163 159 152
-0.173252 0.135525 0.365 12 18 20
0.221162 0.245771 1.289 62 60 41
-0.0990595 0.339776 1.227 147 137 137
0.414454 0.24956 0.815 34 27 6
0.0540495 0.386493 1.169 153 148 146
-0.878688 -0.544428 2.189 163 161 151
0.33123 -0.317773 0.958 89 101 93
0.364643 -0.147933 0.884 108 108 108
0.165226 -0.47102 1.217 20 32 50
-0.098591 -0.0749629 1.655 142 133 136
0.31304 -0.353101 1.01 99 108 99
-0.421803 0.422774 1.18 145 156 154
0.104343 0.312846 1.247 154 151 148
0.150917 -0.203912 1.037 8 14 14
0.370272 0.0300461 0.797 64 21 0
0.155179 0.390917 1.143 143 141 133
0.344843 -0.0501105 0.836 136 128 127
0.194365 0.0994278 1.449 68 62 47
0.371889 -0.114612 0.784 134 143 134
0.390194 0.187984 0.861 40 28 10
0.382112 0.184372 0.898 33 24 15
-0.0627264 0.258843 1.302 142 135 144
-0.193493 0.314483 1.27 150 149 149
-0.0970533 -0.481601 1.887 150 145 143
-0.244428 -0.140621 1.734 169 164 162
-0.694334 0.20821 1.419 148 156 157
-0.335846 -0.515454 2.114 173 163 163
-0.40324 0.443453 1.149 139 154 149
0.381092 0.180117 0.906 34 27 6
0.364787 -0.0686096 0.729 161 176 175
0.299939 0.00211405 1.114 45 27 16
-0.222119 0.24926 1.33 169 165 168
0.408516 0.290077 0.895 24 15 6
0.324315 -0.344721 0.938 107 108 102
0.297418 0.427344 1.098 61 59 47
0.172829 0.28208 1.273 117 115 107
-0.729084 -0.726087 2.244 169 167 157
0.0997064 0.0226132 1.516 74 65 60
-0.0397292 0.380212 1.185 145 145 139
0.13317 0.317102 1.232 153 154 150
0.253228 0.00913904 1.348 28 17 12
0.101533 -0.250894 1.05 17 18 12
-0.0952914 0.129453 1.442 153 145 142
-0.397618 0.429077 1.171 147 157 162
0.393175 0.225798 0.924 32 25 19
-0.322509 -0.0334785 1.603 168 163 161
-0.567656 -0.536718 2.158 156 152 153
-0.81542 -0.218013 1.865 141 139 131
-0.0201666 0.269262 1.291 157 154 151
-0.0618665 0.142239 1.429 164 155 160
0.155256 -0.0201295 1.579 61 53 41
0.347722 0.128714 1.025 36 24 8
0.344286 -0.288304 0.914 101 103 94
0.257498 0.0177541 1.336 22 15 9
-0.170019 0.135073 0.367 17 17 21
0.0432437 0.24825 1.302 125 121 124
-0.701754 0.262675 1.366 147 158 167
0.377825 -0.284252 0.76 192 202 207
0.279313 -0.0881275 1.025 4 4 4
-0.214055 -0.336397 1.917 167 163 164
0.324329 -0.0205186 0.85 48 31 15
-0.422962 -0.108317 1.714 161 156 154
-0.710285 0.235114 1.387 136 146 153
-0.864093 -0.0241797 1.682 145 151 149
0.121358 -0.199962 1.642 56 61 51
-0.320906 0.317864 1.267 149 150 146
0.36992 0.256093 1.055 28 14 0
0.117588 -0.0306388 1.591 73 65 53
-0.663337 0.190465 1.442 138 140 148
-0.696029 -0.263576 1.887 155 154 156
0.210181 0.311314 1.225 108 106 96
0.000852353 0.25996 1.297 154 148 154
-0.613061 0.304037 1.305 139 149 152
0.395053 0.286446 0.977 13 10 7
0.361295 -0.280733 0.803 167 178 174
0.223708 0.396365 1.132 144 155 151
-1.05736 -0.682194 2.22 157 170 165
0.247743 0.187655 1.354 65 62 46
0.220115 0.331173 1.203 112 115 118
-0.96777 -0.697604 2.189 166 166 170
-0.461098 -0.772511 2.22 168 164 167
0.403795 0.250332 0.904 38 25 3
0.404437 0.306177 0.969 9 11 2
-0.993563 -0.787131 2.051 167 177 165
-0.581981 0.0822537 1.524 161 158 153
-0.223427 0.229011 1.351 152 144 143
0.215527 -0.110388 1 15 21 19
0.339694 0.1626 1.096 16 12 1
0.293802 0.00218996 1.154 45 25 17
-0.377305 -0.0152182 1.603 161 156 154
0.0238643 -0.339537 1.559 8 8 10
0.230624 0.370639 1.167 135 143 142
0.0647707 -0.483998 1.452 1 8 0
-0.283917 -0.189519 1.769 164 159 157
-0.520649 -0.827322 2.212 153 146 138
0.28123 -0.133111 0.942 13 17 10
-0.785878 -0.0102942 1.65 148 151 152
-0.297224 0.26855 1.308 155 153 145
-1.06051 -0.688037 2.204 164 167 168
0.180355 0.173042 1.378 75 68 62
0.271403 -0.418074 1.094 81 89 86
0.303448 -0.193801 0.954 15 18 17
-1.13371 -0.572256 2.228 76 89 88
-0.175756 0.121274 0.358 26 13 21
-0.28553 -0.0814175 1.677 165 159 163
0.180146 -0.129086 1.06 3 7 2
0.024827 0.0982086 1.466 159 148 152
-0.610467 -0.215325 1.842 151 152 146
0.0121576 -0.123739 1.696 71 65 67
-0.192977 0.200873 1.369 159 153 157
-0.243899 -0.792998 2.356 161 156 152
0.306132 0.387014 1.137 61 54 33
-0.441034 0.146891 1.452 161 161 157
0.345652 -0.319925 0.848 147 148 144
0.117895 0.0838946 1.466 72 65 57
0.214182 -0.152431 1.009 5 11 9
-0.454379 0.347253 1.254 138 144 144
-0.235686 -0.0311202 1.616 165 155 155
-0.547536 0.295892 1.316 153 152 161
0.209568 0.432257 1.106 150 162 154
0.0704632 -0.359195 1.524 4 4 4
-0.883701 -0.391946 2.044 151 155 150
-0.151276 -0.83962 2.347 164 161 158
-0.709502 -0.250627 1.882 152 151 151
-0.0879272 0.328985 1.239 137 136 136
0.120651 -0.351618 1.169 23 23 19
0.35395 -0.269306 0.952 86 99 94
-0.457691 -0.26919 1.905 173 165 164
0.0682864 -0.164581 1.719 17 25 22
-0.582266 0.265361 1.357 153 161 158
-0.434547 0.250997 1.351 146 146 150
-0.638809 -0.823344 2.173 164 165 159
0.310971 0.0891891 1.162 34 21 8
-0.216628 -0.208545 1.784 159 149 147
0.252048 0.247292 1.286 63 61 49
0.144435 -0.324309 1.09 37 36 36
-0.0735886 0.295883 1.27 156 150 152
-0.574066 -0.373184 1.997 156 152 145
-0.728892 -0.174681 1.794 145 149 144
-0.449227 0.316352 1.286 143 149 149
0.357366 -0.225568 0.821 125 138 121
-0.722433 -0.634481 2.269 165 162 157
0.166865 0.0749099 1.477 72 67 49
0.0684731 0.0203986 1.535 87 79 76
0.352536 -0.176414 0.92 4 6 12
-0.489852 0.293418 1.305 145 150 155
0.233732 0.384148 1.145 144 140 133
-0.0211155 0.0519764 1.509 158 149 156
0.0853486 0.340412 1.208 144 147 150
0.200183 0.384148 1.145 151 152 148
0.396986 0.329033 1.036 31 34 18
0.345044 -0.0514411 0.814 155 161 163
0.0535639 0.144526 1.406 151 143 140
-0.191285 0.212362 1.357 159 155 148
0.085522 0.322937 1.239 153 150 147
0.383519 0.237141 0.964 44 18 5
-0.967226 -0.688037 2.204 164 167 166
-0.0208637 -0.450897 1.491 9 11 17
0.343021 0.123352 1.036 37 22 12
0.318315 -0.124688 0.925 9 20 16
0.0547996 0.280449 1.275 153 147 151
-0.389989 0.337856 1.257 138 151 146
-0.668557 -0.290891 1.905 155 150 146
-0.164935 -0.521955 2.085 154 141 145
0.14524 -0.0802541 1.502 49 47 35
0.326884 0.0063797 0.941 23 18 0
-0.180295 0.0432154 1.547 162 152 150
-0.538065 0.199864 1.409 156 160 155
0.0952279 -0.0623283 1.607 67 66 51
-0.524802 -0.477639 2.099 166 159 153
-0.175177 -0.698473 2.261 148 141 135
-0.179236 0.0986294 0.35 8 21 8
0.401147 0.227017 0.882 36 30 15
0.370661 -0.252666 0.758 164 175 171
-0.835685 -0.0435718 1.691 144 146 152
0.182349 0.372833 1.162 138 134 137
0.355315 0.0756294 0.858 12 13 7
-0.322072 0.129575 1.47 156 155 159
0.371889 -0.286849 0.784 218 228 233
-0.114681 -0.0495286 1.616 153 147 151
0.381308 0.135622 0.785 34 31 17
0.123106 0.423904 1.122 133 142 135
0.375077 0.21622 0.983 32 21 12
-0.452069 0.0459694 1.555 168 164 167
-0.004499 0.162394 0.419 23 29 27
-0.915313 -0.797493 2.078 163 168 158
-0.675379 0.16467 1.463 152 159 163
0.362704 0.231214 1.059 25 19 6
0.011479 0.248822 1.305 160 156 161
0.232577 0.124198 1.409 61 57 48
0.3627 -0.204026 0.923 8 10 1
-0.698415 0.294711 1.33 133 152 152
0.377353 0.180181 0.937 34 23 18
-0.530158 -0.248222 1.887 153 145 142
0.118204 -0.477246 1.265 25 44 73
0.0491956 -0.516621 1.412 8 13 18
0.169668 0.407814 1.128 152 157 145
0.389703 0.276916 1 10 12 1
0.0284004 -0.114166 1.677 65 65 59
-0.683192 -0.769437 2.286 169 165 154
-0.0158163 0.0962805 1.473 156 146 144
-0.326215 0.00558014 1.583 161 152 155
0.357779 -0.247979 0.892 119 124 112
-0.417668 -0.720475 2.32 169 166 161
-0.0865788 0.343794 1.22 143 143 143
-0.0544116 0.210464 1.359 160 156 157
0.0398891 0.350166 1.201 157 157 157
0.19866 0.118984 1.429 69 66 52
0.295831 -0.393714 1.013 142 133 136
-0.532995 0.162644 1.445 147 150 149
-0.510535 0.230339 1.372 155 155 155
-0.308031 -0.0501722 1.637 162 159 156
-0.645328 0.0805588 1.539 148 155 147
0.0946421 -0.458589 1.439 4 5 0
0.199182 -0.329815 1.079 17 27 30
0.0893559 0.38474 1.158 136 139 142
0.2119 0.400472 1.128 141 147 145
-0.0731945 0.366225 1.196 140 139 139
-0.66594 0.290382 1.33 138 151 148
-0.155287 0.0524931 1.524 162 156 158
0.287013 -0.160692 0.951 11 19 16
0.193893 -0.0604666 1.559 42 38 31
0.326011 -0.0833186 0.917 92 28 0
0.348848 0.0935042 0.955 39 25 8
0.407191 0.396099 1.081 82 90 79
-0.396541 -0.75738 2.329 150 143 137
0.331873 -0.318067 0.983 82 88 86
0.334878 0.0258399 0.925 45 26 9
0.0849207 0.394839 1.149 157 158 152
0.0295425 0.303805 1.26 149 149 153
0.135284 -0.303308 1.06 19 19 19
0.05841 0.19056 1.359 134 123 118
0.418745 0.344586 0.924 17 7 7
-0.619191 -0.0428761 1.664 161 156 152
-0.492258 -0.0073555 1.595 160 156 159
-0.809673 -0.14427 1.779 146 152 150
0.363785 -0.218974 0.797 133 133 133
0.344998 0.0610016 0.889 41 29 13
-0.678036 0.254898 1.372 152 160 161
0.00758506 0.187506 1.369 159 150 155
0.0956189 0.358277 1.189 155 155 155
-0.688518 -0.0209326 1.642 147 147 151
0.273364 0.027382 1.278 24 16 4
0.286275 0.387695 1.139 55 56 43
0.245466 -0.230086 0.983 14 12 21
-0.211959 0.228503 1.348 157 152 150
-0.715123 0.210519 1.419 145 160 155
0.353602 -0.278351 0.831 136 137 128
-0.855286 -0.374936 2.024 145 146 140
0.38613 -0.186647 0.803 135 134 119
-0.170178 0.107016 0.361 126 144 138
-0.915423 -0.69826 2.158 163 166 167
-0.216502 0.171982 1.406 163 158 156
-0.370987 -0.247564 1.859 162 157 155
0.339797 0.0253091 0.906 23 14 7
0.385541 0.170972 0.86 38 29 12
-0.932987 -0.768495 2.158 163 169 171
-0.477413 0.19715 1.406 156 155 159
-0.749646 0.205457 1.432 147 153 155
-0.182182 -0.661738 2.212 150 143 137
0.109659 -0.249938 1.046 16 24 13
0.206906 -0.054149 1.524 35 36 25
0.334986 0.144024 1.104 36 19 5
-0.687731 0.244801 1.378 144 155 153
-0.999689 -0.764738 2.128 157 169 171
0.400812 0.223791 0.875 37 30 13
-0.696812 0.16467 1.463 152 156 151
-1.08453 -0.637402 2.166 165 167 158
0.0834424 -0.279399 1.686 5 7 0
-0.156516 -0.224311 1.794 128 122 124
0.137887 0.209076 1.336 123 117 119
-0.31916 -0.446691 2.051 170 166 169
-0.281497 0.218217 1.366 149 146 143
0.0470635 -0.321698 1.571 3 7 0
0.0982649 0.0103865 1.532 79 70 65
-0.328723 0.225945 1.359 161 161 155
0.351013 -0.30223 0.841 140 144 137
-0.286836 0.0158443 1.579 168 163 161
-0.291681 0.406179 1.182 141 147 149
0.274816 -0.0493443 1.13 44 26 17
0.345018 0.353923 1.162 49 48 33
0.231294 -0.460485 1.242 1 18 21
0.00555224 -0.514563 1.419 8 8 8
-0.357637 0.0789885 1.509 158 149 154
0.308717 -0.0973343 0.937 37 13 0
0.179483 -0.119433 1.132 4 6 0
0.363498 0.0985549 0.851 10 13 0
0.241623 -0.394738 1.156 8 18 21
-0.5402 -0.157853 1.769 153 152 152
-0.192339 -0.170202 1.748 171 162 165
-0.521496 0.37953 1.22 145 156 154
0.295248 0.417563 1.11 58 63 51
0.0150767 -0.147366 1.714 52 57 43
-0.166886 0.127833 0.372 32 23 18
0.0978707 0.331066 1.217 154 152 144
0.358609 0.369241 1.145 58 55 39
0.0197634 0.38963 1.167 145 149 144
0.348932 0.103608 0.977 37 23 8
-0.440686 0.441627 1.154 142 156 162
-1.08688 -0.745917 2.057 146 151 158
0.0764303 -0.473566 1.449 2 6 0
-0.517969 -0.467392 2.099 162 147 146
-0.660854 -0.680366 2.312 151 151 151
-0.0642955 -0.34372 1.748 150 140 138
-0.206707 0.301197 1.275 147 143 144
0.286263 0.345501 1.185 52 54 38
-0.0980669 0.0800948 1.484 161 156 154
-1.0531 -0.758554 2.037 163 170 162
0.372977 0.117054 0.789 31 28 14
0.0663015 0.251517 1.297 125 121 122
0.374016 -0.151079 0.869 126 124 112
-0.855467 -0.174346 1.821 144 147 148
-0.685789 0.158281 1.47 153 158 167
0.377545 -0.195457 0.807 132 134 125
0.373575 -0.253322 0.749 167 168 162
-0.198115 0.346346 1.222 130 121 124
0.37329 0.21798 0.991 35 21 15
-0.193823 0.195041 1.375 166 160 164
-0.78768 -0.00222132 1.637 144 152 153
0.359377 -0.263042 0.793 194 202 199
-0.0253556 -0.494782 1.47 11 15 8
0.303908 -0.050279 0.941 45 33 13
-0.0318783 0.382448 1.18 144 146 137
0.365285 0.189041 1 23 16 10
0.380305 0.13024 0.799 36 26 24
-0.154771 -0.195828 1.774 127 121 123
-0.209264 -0.245467 1.821 157 148 153
0.384597 0.171497 0.877 37 25 5
0.357559 -0.0566113 0.759 160 164 157
-0.64231 0.096879 1.52 148 150 158
0.329254 0.198612 1.31 43 45 34
0.242437 -0.402982 1.169 7 15 12
0.260831 -0.421131 1.102 110 116 114
0.359396 -0.108714 0.93 82 84 66
-0.688493 0.120174 1.502 150 153 152
0.359693 -0.194171 0.872 91 99 96
0.259423 0.227062 1.302 62 61 44
0.40092 0.282651 0.928 36 12 0
0.218783 -0.0973693 1 7 6 6
-0.00497851 0.379883 1.178 151 151 151
0.347589 -0.280909 0.939 96 96 96
-0.691492 -0.295843 1.917 145 145 141
0.274832 -0.0365947 1.194 40 28 12
-0.247875 -0.20217 1.779 162 159 156
-0.582585 -0.106143 1.724 153 148 144
-0.152828 -0.30138 1.893 114 97 97
-0.429073 -0.81357 2.204 151 150 150
-0.591805 -0.751916 2.278 147 142 138
0.227405 0.294196 1.254 70 69 52
-0.511347 -0.505134 2.114 160 157 152
0.359614 -0.294934 0.817 162 172 179
0.281149 0.063752 1.257 27 14 1
0.358145 -0.23813 0.796 142 151 144
0.358198 -0.31969 0.826 187 190 189
0.266608 -0.124966 0.95 0 7 4
0.129031 0.363928 1.176 133 138 128
0.306553 -0.0401063 0.954 38 31 14
0.349565 0.0411978 0.868 43 29 10
0.132744 -0.248741 1.027 19 17 24
-0.497573 0.346864 1.26 138 152 143
-0.554691 0.332317 1.283 134 151 152
-0.176107 0.103261 1.47 159 154 152
0.0831983 0.290601 1.265 146 142 147
-0.473629 0.0483751 1.551 154 154 156
0.0654836 0.271345 1.281 146 136 134
-0.520098 -0.177105 1.789 162 156 160
-0.752275 -0.220337 1.859 153 152 156
-0.517197 0.242669 1.366 151 157 157
0.385302 0.138905 0.804 29 22 16
0.362832 -0.204563 0.912 5 11 13
0.31982 -0.139741 0.925 9 12 13
-1.05692 -0.684451 2.204 156 162 164
-1.10756 -0.553748 2.212 151 152 143
-0.0224976 0.162262 0.424 19 27 24
-0.298571 -0.0419742 1.629 163 159 160
-0.611036 0.241502 1.372 147 151 146
0.128913 -0.0543473 1.603 62 58 47
0.140855 0.288542 1.265 129 126 123
0.373253 -0.142824 0.771 178 188 195
-0.241077 0.0996154 1.487 168 160 159
-0.545521 0.32263 1.286 144 152 149
0.374247 -0.179696 0.844 124 129 119
-0.366893 -0.691316 2.286 151 142 147
0.273457 -0.376164 1.081 31 30 32
-0.616036 0.323383 1.289 148 150 156
-0.61274 -0.293991 1.905 163 154 157
0.189323 0.42632 1.114 138 142 137
-0.685251 -0.298962 1.917 148 148 144
-0.718739 -0.75633 2.269 167 166 166
-0.896206 -0.0985772 1.739 138 142 135
0.18465 0.350537 1.189 137 133 126
0.322932 -0.00734709 0.934 35 27 24
0.409202 0.316732 0.958 13 9 2
-0.230515 0.0693493 1.513 169 159 159
0.120678 -0.297878 1.053 24 32 29
-0.175174 0.114283 0.358 24 24 20
0.252487 -0.127977 0.961 9 15 13
0.163191 0.381086 1.147 136 136 132
-0.626983 -0.702941 2.312 110 97 105
-0.360487 0.215361 1.362 155 152 149
-0.168534 0.104962 0.36 129 144 143
-0.00554906 0.23539 1.313 156 152 153
-0.177158 -0.590983 2.151 153 146 140
-0.0133912 -0.497175 1.47 9 9 9
0.191218 -0.344643 1.104 7 15 16
0.23373 -0.0801766 1.03 0 6 6
0.243162 0.150617 1.378 64 57 47
-0.450132 0.263014 1.345 161 159 151
0.125345 -0.272622 1.498 9 13 6
-0.577291 -0.742265 2.294 156 154 144
0.319044 -0.176594 0.945 4 12 11
-0.489173 -0.432728 2.064 161 157 150
0.151574 -0.215945 1.03 12 19 13
-0.59843 -0.650641 2.261 149 150 146
0.356346 0.083989 0.792 42 33 14
-0.725524 0.189032 1.449 145 153 152
-0.0796378 -0.0229865 1.599 156 145 149
-0.489799 -0.346955 1.959 168 163 161
0.279545 -0.394587 1.098 69 67 59
0.199815 -0.101945 1.122 10 10 4
0.314589 -0.344939 1.015 82 91 82
-0.710004 -0.710667 2.253 166 165 165
0.390929 0.249119 0.944 33 21 5
-0.0187607 0.357984 1.201 146 146 146
-0.706942 -0.796057 2.092 167 169 158
-0.618179 0.144907 1.48 146 146 150
-0.197259 -0.878763 2.261 167 157 171
0.389496 0.164986 0.81 29 18 11
-0.343324 0.0259239 1.567 158 154 157
0.0483585 0.104647 1.456 148 143 141
0.318715 -0.019383 0.861 45 31 16
0.222324 -0.106491 0.994 10 21 21
-0.336471 -0.122263 1.714 161 153 150
0.104225 -0.242934 1.06 19 17 7
-0.0689543 0.0303904 1.535 152 143 148
-0.412627 -0.794925 2.212 183 184 175
0.330396 0.100903 1.066 34 19 7
0.203361 0.307078 1.232 113 106 96
0.340304 -0.0149439 0.776 167 173 171
-0.006538 -0.372168 1.547 8 12 5
-0.444705 0.4475 1.145 140 155 154
0.0818159 0.388509 1.158 142 142 144
-0.710937 0.00571057 1.62 141 144 145
0.278893 -0.103866 0.955 27 11 4
0.389279 0.316763 1.029 28 30 14
-1.0385 -0.730999 2.151 157 168 164
0.229285 -0.303285 1.048 12 13 4
-0.0758261 0.326969 1.239 148 147 147
0.319668 -0.0650068 0.891 97 39 0
-1.08053 -0.621001 2.158 162 164 151
-0.685582 -0.76093 2.294 169 166 163
0.304934 -0.369072 1.027 94 95 89
-0.254945 0.33111 1.247 143 143 139
-0.357784 -0.10442 1.696 155 150 146
-0.409585 0.213406 1.378 156 155 157
0.174126 -0.0357269 1.587 52 49 35
-0.257118 0.279386 1.299 160 157 154
-0.140436 0.363098 1.205 143 144 135
-0.0692474 0.163057 0.445 23 36 31
0.00773466 0.1594 1.396 151 140 144
-0.283335 0.319421 1.265 140 140 136
-0.339324 -0.564812 2.158 164 157 149
0.311568 -0.258475 1 36 45 38
-0.538049 0.285834 1.319 149 150 144
-0.12002 0.139914 1.429 162 146 151
0.0619354 0.257253 1.294 126 122 115
0.375729 0.152553 0.883 36 26 14
-0.0166109 0.0255931 1.547 139 124 125
0.379378 0.167735 0.895 38 28 14
-1.03521 -0.631936 2.196 165 168 169
0.337613 -0.245456 1 33 43 31
0.30674 -0.122467 0.931 15 15 19
0.334735 -0.0245804 0.802 164 172 171
-0.285126 0.309011 1.273 145 144 144
-0.680365 -0.771669 2.228 161 163 154
-0.846664 -0.389951 2.051 152 152 152
0.294045 -0.0818234 0.934 50 32 21
0.364427 0.245001 1.059 14 15 2
0.129366 0.126491 1.409 114 106 105
-0.112158 0.254038 1.31 161 151 151
0.415423 0.388868 1.066 41 38 33
-0.347393 0.0458511 1.551 163 157 161
-0.838806 -0.338639 1.985 154 160 160
-0.691971 -0.249828 1.876 150 150 152
-0.147649 0.217578 1.362 167 163 164
-0.172537 0.27093 1.299 139 137 144
-0.247084 -0.616972 2.181 150 146 149
-0.412648 0.436358 1.165 144 152 153
-0.434325 0.329727 1.273 153 155 161
0.310633 -0.00784266 0.997 29 18 11
-0.262059 0.209785 1.369 166 160 162
-0.510855 -0.402475 2.03 160 157 152
-0.461401 0.234804 1.372 143 146 145
0.369184 -0.142822 0.888 112 111 118
0.306378 -0.0289925 0.999 20 16 5
0.199102 0.415115 1.118 147 151 144
-0.0987838 0.297047 1.275 157 153 154
0.279052 0.146132 1.378 55 54 39
0.424163 0.356827 0.913 12 8 9
-0.488094 0.224618 1.378 158 158 152
-0.727596 0.0135858 1.616 156 152 155
-0.323341 0.26437 1.319 156 155 155
0.370936 -0.184905 0.849 121 126 114
0.284463 -0.272036 1.002 16 18 42
0.371399 -0.233533 0.752 168 166 173
-0.135834 -0.391587 1.959 152 143 146
-0.287096 -0.831987 2.244 192 190 182
-0.772218 0.169779 1.466 135 146 146
0.177445 -0.319846 1.075 11 22 18
0.243326 0.347542 1.192 86 82 73
-0.730039 0.0520805 1.587 148 151 152
0.420958 0.293444 0.858 28 19 0
-0.71455 -0.0292486 1.659 145 145 149
0.297772 -0.24995 0.992 9 22 17
-0.354592 -0.0782661 1.668 159 153 157
-0.934457 -0.12943 1.774 146 152 150
-0.417636 0.345212 1.254 149 154 159
0.120856 0.0699129 1.473 72 65 55
0.342382 -0.29193 0.95 96 96 96
0.370068 0.305379 1.194 51 52 41
0.0343021 0.100388 1.463 150 139 143
-0.25385 0.0597759 1.52 166 158 157
0.318079 -0.343096 1 97 98 92
-0.270869 -0.841969 2.261 196 196 190
0.302697 -0.107051 0.942 5 6 0
-0.181796 -0.100521 1.677 159 150 155
0.319651 -0.0318074 0.856 48 25 6
0.37116 0.0971373 0.754 54 35 10
-0.540358 -0.164535 1.779 156 152 153
-0.263848 0.408638 1.178 150 157 149
-0.554886 -0.742265 2.294 156 155 155
-0.961404 -0.18896 1.848 143 148 155
-0.355295 0.0721436 1.52 159 154 152
0.37453 0.0094343 0.809 19 12 2
-0.0511685 0.283188 1.278 146 141 139
0.0820515 0.0372426 1.509 78 72 74
-0.406486 -0.141026 1.739 170 162 161
-0.422637 -0.31339 1.929 167 158 165
-0.944255 -0.349446 2.01 152 152 156
0.010456 0.156868 0.417 34 32 39
-0.852811 -0.808968 2.099 156 147 138
0.296596 -0.0567639 0.947 36 32 21
-0.484641 -0.798524 2.212 186 186 182
-0.378389 -0.534419 2.121 174 164 162
0.37807 0.172188 0.935 32 26 11
-0.35893 0.395118 1.201 146 147 141
0.323433 -0.197732 0.958 6 10 5
-0.0149001 0.349372 1.205 151 154 155
0.204696 0.393256 1.139 142 144 131
0.361677 0.419525 1.087 48 58 35
0.394758 0.218199 0.887 36 22 5
0.401408 0.203842 0.797 31 26 8
-0.71776 0.23911 1.384 142 154 158
-0.0614105 0.365613 1.194 143 139 128
0.349178 -0.097382 0.923 103 93 81
-0.0499884 0.0731936 1.491 155 146 149
-0.785701 -0.0547404 1.696 156 159 158
0.207201 -0.247174 1.007 20 24 19
0.347282 0.0390519 0.852 41 29 13
0.20199 -0.0969267 1.048 4 8 3
0.198512 0.282366 1.265 119 117 109
-0.678078 -0.353539 1.978 153 150 147
0.302289 0.247292 1.286 55 60 50
0.217372 0.208137 1.33 68 64 53
0.288889 -0.15077 0.947 1 11 0
-0.819749 -0.337445 1.978 159 159 161
0.314476 -0.138534 0.927 11 11 7
0.255514 -0.0601638 1.126 40 27 14
-0.268126 0.258517 1.322 152 152 152
0.168191 -0.180838 1.05 10 18 19
0.169876 0.162534 1.384 69 68 53
0.238705 -0.00660381 1.432 31 33 22
-0.693398 -0.558677 2.189 162 157 153
-0.630337 0.30307 1.31 138 148 151
0.252714 0.0197608 1.487 48 46 36
0.376676 -0.201882 0.786 129 131 120
0.288217 -0.0649017 1.027 18 15 10
-0.414742 -0.357793 1.966 165 155 155
-0.475266 0.208929 1.393 153 152 152
-0.0641484 -0.34861 1.744 151 140 135
-0.106609 0.40097 1.178 141 145 138
0.349095 0.0276243 0.802 68 33 5
0.196893 -0.209084 1.013 18 19 15
-0.448316 0.160292 1.445 155 154 156
0.247442 -0.212127 1.004 5 16 12
0.335045 0.132228 1.081 34 21 8
0.0513474 -0.17247 1.714 9 10 6
0.351294 0.0922024 0.883 32 25 15
-0.734572 0.201778 1.439 150 153 156
0.354759 -0.245451 0.803 150 164 166
-0.00495738 0.383997 1.173 155 152 149
0.410573 0.359671 1.032 35 45 22
-0.169284 0.122266 0.368 18 18 22
0.194273 -0.330426 1.081 23 30 22
-0.00738781 0.304287 1.262 151 151 147
-0.599271 -0.533206 2.158 168 156 154
0.282377 -0.289633 1.018 16 20 15
0.34859 0.0452024 0.813 46 21 12
0.335895 -0.107432 0.932 67 67 69
-0.0817323 0.201314 1.372 160 155 163
-0.0192775 -0.349685 1.559 5 12 6
-0.838642 0.0213554 1.607 140 151 147
0.24347 -0.466801 1.232 11 16 23
0.326134 -0.337719 0.966 93 100 92
0.313301 -0.375771 0.975 115 113 103
-0.450593 0.324783 1.278 150 153 154
-0.768227 -0.558677 2.189 161 162 158
0.37824 -0.148896 0.751 152 161 152
0.382796 0.0616073 0.77 62 22 0
0.167665 0.0861037 1.463 69 66 52
0.351134 0.0531633 0.879 28 12 7
-0.522964 -0.637339 2.253 154 150 143
0.201242 -0.238049 1.01 23 34 30
-1.05674 -0.374354 2.057 144 155 151
-0.377602 -0.790458 2.261 155 153 145
-0.0309849 0.157578 1.4 167 158 165
-0.640772 -0.671336 2.294 148 147 147
0.212272 -0.23732 1 18 24 24
0.122323 -0.464895 1.265 20 13 26
-0.0782957 -0.106295 1.682 140 134 136
-0.610407 0.295217 1.313 147 159 161
0.189323 -0.167912 1.044 5 11 11
-0.019406 0.153372 0.432 40 31 38
-0.0626113 0.388209 1.18 134 133 135
0.235534 -0.191838 1.009 1 9 8
0.127383 -0.415958 1.254 18 33 57
-0.261931 0.408638 1.178 149 156 148
-0.348877 0.339771 1.249 147 144 141
0.307847 -0.163249 0.939 9 15 15
-0.845792 -0.401134 2.057 154 155 149
-0.810913 -0.83251 2.151 154 162 163
0.37501 -0.0812442 0.747 147 153 155
-0.43701 0.372655 1.217 137 146 137
0.278392 -0.143215 0.948 11 17 15
-0.929991 -0.512063 2.143 158 155 152
-0.452673 0.326863 1.278 155 161 159
0.36537 0.0388795 0.792 67 23 0
-0.260969 -0.353243 1.941 169 163 167
-0.56361 0.0750099 1.528 152 149 144
0.31188 0.0205705 1.039 41 27 21
-0.924711 -0.211943 1.865 147 147 147
0.365626 -0.00106791 0.787 36 18 24
0.373106 -0.0693834 0.792 142 148 146
0.0758608 -0.451196 1.484 5 7 0
-0.0497537 -0.480175 1.484 115 111 114
-0.266679 -0.0988996 1.696 166 156 156
0.104499 0.365166 1.18 159 158 160
-0.539407 0.0912667 1.509 150 154 149
0.376497 -0.125511 0.92 96 98 87
-0.0778851 -0.301053 1.799 99 92 84
0.358072 0.266404 1.12 44 39 17
-0.358942 -0.00474798 1.591 167 164 161
-0.605057 0.279273 1.339 152 165 164
0.106898 -0.395997 1.513 4 5 1
-0.27149 -0.448492 2.044 172 163 168
0.134131 -0.0569559 1.603 62 60 50
0.325459 0.0284981 0.964 43 28 16
-0.416792 -0.835632 2.196 145 144 144
0.216504 -0.241475 0.997 13 21 22
0.293176 -0.0126445 1.137 46 24 14
0.0781796 -0.513038 1.396 6 7 3
-0.0696573 0.164486 0.443 26 34 31
-0.0309977 0.16341 0.427 22 22 24
0.367333 0.41351 1.104 48 56 57
-0.289011 0.246588 1.339 156 147 152
0.166807 -0.101363 1.359 8 8 10
0.22431 0.252978 1.283 70 67 51
0.366705 0.13189 0.889 41 29 9
0.0614186 -0.508888 1.429 1 9 0
0.0206568 -0.155734 1.714 8 15 9
0.268447 -0.0296192 1.227 24 15 6
-0.70664 0.109247 1.52 149 158 151
-0.704095 -0.363435 1.997 154 153 153
-0.642209 0.321784 1.291 140 148 149
-0.110281 0.209325 1.366 156 150 156
-1.0909 -0.747624 2.071 144 146 152
0.164577 -0.413998 1.242 16 11 19
-0.644203 -0.1776 1.794 153 154 150
0.367377 0.0785332 0.764 67 34 7
0.381937 0.139848 0.825 29 7 0
0.274984 0.354962 1.178 57 57 35
0.370914 -0.131433 0.756 172 175 174
-0.425096 0.304504 1.289 150 145 153
0.222811 -0.324107 1.066 11 17 19
-0.0431364 -0.53761 1.425 153 144 139
0.378428 0.241643 1.009 31 17 0
0.270676 -0.127788 0.948 4 8 1
-0.536659 -0.695416 2.312 156 152 153
-0.178696 0.0383779 1.555 158 152 154
-0.287602 0.39891 1.189 150 156 156
0.140771 0.269681 1.283 122 117 115
0.386543 0.0544403 0.775 55 20 0
0.40429 0.338139 0.984 15 17 4
-0.601693 0.260452 1.366 153 152 156
-0.448666 0.424565 1.185 145 158 155
-0.821078 0.00836745 1.624 153 155 161
0.00338177 -0.466838 1.48 4 7 8
-0.44185 0.440907 1.162 144 153 163
-0.776955 0.0743744 1.567 127 133 131
0.34976 0.166298 1.041 40 21 17
-0.507455 0.364728 1.244 140 151 149
-0.339652 -0.807522 2.278 150 142 141
0.163869 0.416253 1.126 133 128 124
0.282439 -0.372327 1.075 18 15 10
0.37229 0.0159773 0.807 24 14 2
0.376823 -0.29719 0.781 213 220 226
-0.209638 -0.198715 1.774 161 153 152
-0.0937356 -0.136209 1.714 160 152 151
0.299017 -0.0536823 0.975 24 14 14
-0.568436 0.0313408 1.583 157 157 157
-0.609261 -0.779736 2.22 161 163 154
-0.229565 0.347765 1.22 152 151 155
0.351293 0.110301 0.966 37 23 15
0.0637943 0.262552 1.289 138 134 135
-0.404889 0.262837 1.333 148 150 158
0.370108 0.139141 0.908 42 31 8
-0.768896 -0.709996 2.151 170 168 158
-0.395182 0.341131 1.254 153 163 168
-0.799501 -0.736889 2.158 163 169 167
-0.234169 -0.783604 2.374 161 152 157
-0.269127 -0.213937 1.805 156 151 149
-0.611005 -0.0289488 1.642 161 158 155
0.339446 0.381464 1.137 47 54 48
-0.379346 0.380357 1.21 145 150 157
-0.336072 0.434868 1.156 139 145 143
0.099276 0.074707 1.473 76 69 52
0.173444 0.186137 1.359 77 70 60
0.2341 -0.0650077 1.339 20 12 0
0.291141 0.248803 1.283 61 60 60
0.0483408 0.390297 1.169 134 133 137
0.341447 0.142804 1.068 38 22 15
0.300656 -0.345858 1.053 13 14 5
-0.107585 0.0472835 1.516 161 155 157
0.352002 -0.277799 0.85 133 141 128
-0.34688 0.104244 1.484 155 152 149
0.369781 0.112835 0.769 36 28 16
0.295201 0.308563 1.222 63 57 44
0.367505 0.24704 1.053 16 18 2
0.131421 0.0487004 1.484 76 62 47
0.357939 0.0514411 0.787 70 37 10
-1.02491 -0.615765 2.228 160 160 156
0.119046 -0.220413 1.085 17 21 14
-0.76325 -0.037753 1.677 148 154 152
-0.526802 -0.489746 2.107 168 164 157
-0.443791 -0.33318 1.953 166 159 153
0.361824 -0.297459 0.813 192 200 197
-0.890355 -0.38862 2.044 147 154 146
0.222036 -0.301004 1.046 10 13 14
-0.139504 -0.0255886 1.599 157 151 155
-0.581226 -0.8535 2.196 154 166 156
-0.19965 0.294736 1.283 162 161 165
0.360683 -0.188464 0.892 3 16 11
-0.163975 0.363098 1.205 133 135 141
-0.79185 -0.795904 2.128 169 168 168
0.311954 -0.0854583 0.924 93 28 0
0.408012 0.322278 0.97 16 15 15
0.103176 -0.442614 1.396 17 9 8
-0.439816 0.387945 1.203 146 157 155
-0.164219 0.13814 0.377 15 17 23
-0.677742 -0.571184 2.196 167 166 166
0.081535 -0.0436938 1.595 74 67 57
0.280676 -0.309809 1.03 8 20 12
-0.756966 0.0910475 1.547 143 144 138
-1.02348 -0.767845 2.071 150 159 152
-0.672481 -0.0182605 1.642 157 157 159
0.361349 0.255808 1.217 42 42 22
0.336012 0.104614 1.051 37 20 4
-0.413553 0.343172 1.254 142 150 151
-0.3425 -0.461157 2.071 173 164 167
-0.446634 -0.457489 2.085 160 150 148
-0.239456 0.120578 1.477 164 155 158
0.264362 -0.216164 1 3 7 2
0.216524 -0.397998 1.194 22 27 15
-0.848316 -0.126186 1.769 153 153 149
-0.0216891 0.407927 1.149 140 139 139
-0.574044 0.249885 1.369 161 167 167
-0.0952267 0.284296 1.283 154 154 148
0.123195 -0.161905 1.366 26 32 30
0.0665054 0.396557 1.154 138 139 133
0.326478 0.205946 1.316 47 45 35
-0.0301413 0.103261 1.47 166 153 159
-0.591457 -0.826375 2.181 150 148 138
-0.571461 0.273347 1.342 159 162 165
-0.406338 -0.72425 2.32 148 149 140
0.324686 -0.357652 0.948 112 110 102
-0.0529076 0.0567369 1.505 157 151 153
0.403213 0.255309 0.906 40 22 11
-0.0895988 -0.233719 1.799 93 87 74
-0.599219 -0.201568 1.826 161 159 151
0.373823 -0.116532 0.932 62 67 57
-0.0851662 -0.127543 1.71 161 152 157
0.263844 0.314704 1.215 61 59 49
-0.809516 -0.746671 2.166 167 167 163
0.315197 0.135307 1.185 29 15 7
0.369585 -0.217936 0.766 135 143 132
0.426959 0.294498 0.845 30 25 7
0.228631 0.0201993 1.52 53 51 41
-0.378393 0.196743 1.387 160 156 157
-0.143264 0.263081 1.302 162 151 155
0.2599 -0.0545235 1.162 41 23 12
0.0590636 0.317617 1.234 144 144 138
-0.405958 0.244401 1.351 145 148 151
0.255203 -0.411897 1.141 72 75 78
-0.685305 -0.190966 1.81 159 158 160
0.00723047 0.248822 1.305 159 153 159
0.349383 0.247762 1.267 42 40 28
-0.372462 -0.510319 2.107 173 164 169
-0.50033 0.173677 1.439 154 154 148
-0.20928 0.088399 1.502 157 153 156
-0.978905 -0.761275 2.128 166 166 170
-0.972154 -0.764137 2.136 172 167 175
0.24753 -0.432321 1.203 7 13 11
-0.239299 0.0926043 1.491 166 158 157
0.380628 0.392864 1.122 51 52 41
-0.815142 -0.294555 1.929 145 145 147
-0.261714 0.314483 1.27 162 156 158
-0.384931 0.427901 1.173 138 147 157
0.0153058 0.287616 1.27 159 158 160
0.209877 -0.1183 1.012 7 11 6
-0.961127 -0.725522 2.166 160 161 157
0.326995 -0.126057 0.924 16 12 13
-0.16463 -0.300425 1.887 123 113 113
0.157712 0.333684 1.205 133 129 130
0.358195 -0.228625 0.799 132 132 126
0.304002 0.00905437 1.077 45 26 11
-0.274826 0.222662 1.366 153 153 147
-0.818362 -0.829414 2.143 151 157 159
-0.259885 -0.82066 2.294 156 161 151
-0.780922 0.067065 1.575 140 143 142
0.39268 0.360251 1.152 38 43 29
0.00822223 -0.451196 1.484 7 7 3
0.273139 0.370266 1.154 67 70 49
0.0826544 -0.325979 1.567 2 6 1
0.336964 -0.0294906 0.83 63 33 15
-0.543123 -0.298027 1.911 164 153 157
0.273531 -0.158757 0.958 5 14 7
-0.653719 0.0784601 1.547 147 151 146
-0.157953 -0.852007 2.278 165 160 158
0.0639447 0.379238 1.176 149 149 151
0.155342 0.170428 1.375 107 100 90
-0.0395228 0.32092 1.239 155 152 147
-0.0431082 0.0567369 1.505 151 142 147
-0.201449 -0.0778438 1.659 171 162 165
-0.118678 0.100869 1.47 160 156 159
-1.04472 -0.456535 2.128 153 153 149
-0.0123453 0.153718 0.431 71 61 61
0.266256 0.320754 1.208 58 59 55
-0.170739 0.0158041 1.575 158 152 158
-0.641934 -0.397233 2.037 159 160 149
0.383627 0.148341 0.82 28 14 6
-0.114883 0.320963 1.247 153 150 145
0.346453 0.27473 1.249 51 48 34
0.412029 0.367812 1.118 45 41 34
0.216731 0.22257 1.313 68 69 60
0.186265 -0.195206 1.018 20 15 11
-0.0417284 0.375059 1.187 143 140 137
0.320175 0.0128505 0.967 36 32 23
0.144377 -0.474116 1.225 6 19 44
0.153262 -0.163565 1.171 19 20 9
0.283997 -0.320043 1.036 7 17 5
-0.416763 0.32895 1.27 137 147 150
0.358724 -0.154659 0.898 9 10 6
-0.0384878 0.0448164 1.516 169 159 159
-0.814596 -0.0870066 1.734 148 154 152
0.33077 -0.321619 0.999 78 91 90
0.173648 0.399343 1.13 136 131 129
0.411891 0.32886 0.957 11 15 8
-0.268233 -0.210298 1.799 163 160 157
0.372501 0.027521 0.799 67 21 1
-0.640118 0.108456 1.509 143 143 143
-0.9531 -0.15605 1.815 143 147 142
0.0353273 0.312846 1.247 151 151 151
-0.559778 -0.8535 2.196 161 161 165
0.295168 0.0153089 1.152 40 22 11
0.391649 0.172681 0.809 30 21 14
0.135398 0.104144 1.449 64 61 47
-0.196423 -0.385211 1.959 151 146 144
0.177937 -0.0303307 1.575 54 50 39
0.307397 -0.353775 1.041 57 59 46
0.290634 -0.205032 0.963 14 25 36
-0.202514 0.0309448 1.563 159 159 159
-0.405486 0.199 1.387 161 153 152
-0.0480103 0.137877 1.432 160 149 157
-1.12695 -0.519232 2.173 148 156 145
0.378798 0.129553 0.757 32 21 14
-0.195576 -0.0668832 1.655 170 161 166
-0.407201 0.380746 1.205 150 158 155
0.264947 0.395569 1.135 87 87 89
0.319786 0.0987237 1.12 40 20 10
-0.276506 -0.0392026 1.624 165 155 155
0.409373 0.267014 0.872 34 22 4
-0.0274664 0.399125 1.156 149 149 149
-0.578034 0.285408 1.327 144 147 146
-0.408599 0.0334883 1.563 152 148 153
-0.174214 0.0645527 1.516 161 157 160
0.166087 0.149667 1.39 69 70 59
0.372689 -0.289031 0.783 218 227 237
-0.287521 0.0551174 1.528 158 153 151
-0.153697 0.329608 1.249 149 150 146
0.396089 0.342577 1.162 44 40 41
0.372285 -0.119928 0.769 147 151 144
0.238417 0.306311 1.237 65 71 54
-0.379979 -0.0528361 1.637 172 167 163
0.365568 -0.220781 0.776 130 135 125
0.295137 -0.375443 1.064 60 68 57
0.3453 -0.286562 1.013 61 61 65
0.116769 0.106722 1.452 72 66 53
-0.969245 -0.791479 2.107 141 148 142
-0.27957 0.11306 1.473 160 151 154
-0.608802 0.241502 1.372 147 150 151
-0.696785 -0.753464 2.294 168 163 161
0.22414 0.313307 1.225 89 88 73
0.217705 0.263007 1.281 68 67 50
-0.0520405 0.311315 1.249 157 148 151
0.336162 0.190871 1.126 16 12 1
-0.175079 0.11986 0.359 18 18 18
0.197621 0.247292 1.286 71 69 50
-0.423038 0.116006 1.48 163 161 151
-0.41831 -0.795636 2.204 193 193 189
0.168334 -0.101822 1.336 3 6 5
0.414464 0.398288 1.068 44 45 34
0.148145 -0.339917 1.118 68 54 48
-1.05161 -0.443211 2.114 153 157 152
-0.584451 0.128048 1.48 154 153 155
0.3489 0.230532 1.114 28 33 23
0.295753 -0.382656 1.06 97 96 96
-0.129513 0.25462 1.313 163 157 161
-0.177416 0.125118 0.359 8 16 13
0.145852 -0.174024 1.291 22 22 22
-0.0280119 -0.0603449 1.624 139 135 136
-0.477389 0.258164 1.354 140 146 148
0.147502 -0.261601 1.025 10 19 10
0.317221 0.161552 1.254 36 38 27
-1.04008 -0.368662 2.044 145 153 152
0.181234 -0.371907 1.167 8 9 5
0.371098 0.11148 0.777 35 26 7
0.3734 0.282872 1.106 38 36 13
0.176237 -0.283226 1.037 28 32 27
0.37597 0.336933 1.182 48 56 45
0.158758 -0.153442 1.26 11 15 10
0.363656 0.3906 1.126 51 53 35
0.266818 0.416506 1.112 112 109 104
0.20952 0.395569 1.135 146 147 141
-0.503661 0.199864 1.409 151 151 151
0.376676 -0.0944394 0.786 145 145 145
0.139186 -0.460787 1.232 9 17 34
-0.374031 0.186661 1.396 162 156 158
-0.950551 -0.522671 2.158 156 159 160
0.36213 0.14133 0.974 32 22 10
0.347032 0.0402486 0.848 36 34 15
0.178042 -0.373181 1.171 7 6 6
-0.00334159 0.272405 1.286 164 156 155
-0.801255 -0.309022 1.941 152 153 149
0.211162 0.227585 1.305 68 70 52
-0.336958 -0.524064 2.121 170 165 163
0.201414 -0.058954 1.52 37 38 29
-0.139504 -0.0229865 1.599 157 148 151
0.334516 0.0558849 0.924 34 25 16
0.113233 0.371909 1.171 149 147 137
0.0632024 -0.239828 1.659 3 6 5
-0.91367 -0.649804 2.196 163 169 167
0.381755 -0.163111 0.816 129 127 119
-0.513561 0.121149 1.484 156 148 147
-0.306261 0.360773 1.217 150 150 150
-0.145101 0.00811499 1.575 170 164 168
-0.27733 -0.324933 1.923 169 165 168
-0.210429 0.320208 1.26 147 146 150
-0.059354 0.327127 1.232 145 144 146
0.0694709 0.19056 1.359 125 118 112
0.170846 -0.239228 1.015 13 18 23
-0.133966 -0.748089 2.312 161 153 150
0.106826 0.244012 1.302 125 119 123
-0.786967 -0.763154 2.143 170 168 160
0.352926 -0.258654 0.82 138 145 139
-0.273542 -0.498204 2.085 161 153 150
-0.602108 -0.844121 2.181 150 151 142
0.00506314 0.261465 1.294 152 147 155
-0.191478 -0.24843 1.821 151 142 147
-0.323582 0.133994 1.466 159 154 152
-0.747542 -0.309022 1.941 156 154 146
-0.356955 0.22782 1.357 159 154 152
-0.720872 0.231099 1.39 152 164 168
-0.0375738 0.0871042 1.48 170 161 164
0.398191 0.232596 0.898 38 26 6
0.060356 -0.298501 1.655 5 6 0
0.0857689 -0.519847 1.372 6 10 3
-0.48405 0.263601 1.348 151 150 152
-0.963715 -0.549743 2.196 154 155 146
-0.384147 -0.404579 2.024 166 158 157
0.210479 -0.109522 1.007 20 19 19
0.347087 0.219655 1.114 23 16 8
0.0266117 0.412192 1.135 157 153 154
0.318258 -0.0345934 0.856 53 28 10
0.337442 -0.0152135 0.79 159 159 159
0.17584 0.218465 1.327 96 96 92
-0.913942 -0.236689 1.893 150 147 142
0.335574 0.118747 1.055 27 12 11
-0.0501239 0.354665 1.203 141 141 137
-0.325507 0.0531475 1.543 148 147 151
-0.047338 -0.499495 1.484 106 102 107
0.0272134 0.0934373 1.466 152 148 151
-0.2269 0.210244 1.372 164 158 160
0.0286097 0.405087 1.141 140 146 148
-0.821676 -0.722539 2.189 168 168 164
-0.0041653 -0.289122 1.603 8 9 3
0.222884 0.0442843 1.498 51 49 37
0.360946 -0.219363 0.882 110 114 107
-0.452074 0.40253 1.194 147 158 156
-0.0504639 0.168524 0.433 21 27 25
0.12329 0.274224 1.275 123 116 108
-0.447549 -0.72226 2.338 160 155 163
0.341383 0.161709 1.09 27 14 1
0.185864 -0.116967 1.126 5 5 1
0.0627187 -0.530441 1.406 8 9 3
-0.00731344 0.159502 0.424 38 39 52
0.204199 -0.446208 1.225 12 32 68
0.0407768 0.260858 1.291 142 136 142
-0.106195 -0.0361771 1.607 157 146 152
-0.00143654 -0.481289 1.48 4 8 3
-0.799214 0.0470336 1.591 147 147 147
0.31683 -0.243247 0.991 98 108 115
-0.106651 -0.562057 2.01 149 140 143
0.205989 -0.0920732 1.051 3 11 8
-0.0907162 0.370118 1.196 144 143 143
0.327234 -0.20908 0.96 1 10 1
0.0858856 0.218261 1.339 128 124 125
0.318795 -0.314377 1.034 6 6 8
-0.0256495 -0.221338 1.642 9 15 17
0.244215 0.42763 1.108 132 132 132
-0.0686522 0.146479 1.425 154 148 150
-0.656443 -0.0236047 1.642 143 146 147
0.257324 -0.0100767 1.281 18 11 1
-0.186769 0.0384766 1.559 157 149 148
-0.729084 -0.737042 2.244 164 162 154
-0.219484 -0.633484 2.189 150 140 140
0.362096 0.0964335 0.799 43 31 11
-0.18769 -0.269281 1.842 156 145 149
-0.169883 0.131249 0.368 17 24 28
-0.0536654 -0.514823 1.459 163 158 154
-0.829954 -0.816682 2.128 165 162 157
-0.0558054 0.268845 1.289 157 153 156
-0.804955 0.0520805 1.587 142 149 143
0.38574 0.154257 0.816 31 21 7
-0.775194 0.0620962 1.579 142 143 137
0.0769167 -0.0623283 1.607 78 67 62
-0.677988 0.240839 1.381 144 157 142
-0.298497 0.425266 1.171 148 146 138
-0.357653 0.432566 1.165 145 148 149
-0.447012 -0.80281 2.204 190 184 186
0.364611 -0.156751 0.877 120 123 102
0.353299 -0.194429 0.942 4 7 6
0.111092 -0.413874 1.354 12 12 16
-0.227235 -0.219081 1.799 163 154 159
-0.176513 0.110748 0.356 17 21 16
0.113984 -0.399861 1.509 8 8 8
0.368571 0.258763 1.066 19 13 0
-0.214235 -0.367009 1.947 162 156 160
0.0435094 0.239116 1.31 129 129 125
0.0378066 0.30018 1.262 154 151 148
-0.448286 0.273683 1.333 145 152 156
-0.277272 0.34233 1.229 138 140 129
-0.62538 -0.266647 1.887 159 153 155
0.076904 -0.184698 1.724 4 7 6
0.414388 0.358127 0.952 17 7 7
0.319858 -0.325525 1.032 12 12 6
-0.846739 -0.164911 1.815 143 154 152
-0.24868 -0.780633 2.365 158 149 154
0.329144 -0.318367 0.999 68 81 78
-0.647663 -0.0685402 1.696 152 153 149
-0.452673 0.322703 1.278 142 152 157
0.0504842 -0.365673 1.52 6 6 2
0.196927 0.000417205 1.543 52 48 41
-0.735122 -0.440524 2.085 154 151 148
-0.144099 -0.425856 1.985 158 148 148
-0.941931 -0.625741 2.212 162 170 171
