ply
format ascii 1.0
comment Created by Open3D
element vertex 1345
property double x
property double y
property double z
property uchar red
property uchar green
property uchar blue
end_header
-0.187404 0.227994 1.345 164 153 157
-0.812634 -0.484238 2.128 165 161 164
-0.0869725 -0.203177 1.691 6 7 3
0.337556 -0.157825 0.679 170 178 175
-1.14459 -0.565005 2.228 151 163 155
-0.022263 -0.0409951 1.591 66 63 49
-0.611032 -0.164073 1.774 163 161 153
-0.0350351 -0.0639735 1.583 68 59 54
-0.74559 -0.0237197 1.65 158 152 156
-0.290995 -0.315977 1.87 130 121 114
0.0373033 -0.0202825 1.591 57 50 44
0.232595 0.174628 1.26 39 40 29
0.366954 0.20454 0.743 22 15 7
0.306442 0.317568 1.196 42 48 31
-0.547308 -0.729674 2.278 145 139 126
0.247011 -0.267111 0.923 111 111 107
0.363136 -0.0185726 0.825 25 26 15
0.317196 -0.17702 0.726 188 196 195
-0.495022 0.248246 1.348 156 159 158
-0.116383 0.272405 1.286 155 149 151
0.139383 -0.162613 0.991 9 20 20
0.332022 0.0950422 0.655 23 27 22
-0.108468 -0.544126 1.4 8 9 5
0.0540656 -0.239917 1.025 9 20 18
-0.577358 0.36833 1.229 152 154 162
-0.25873 -0.302643 1.774 105 94 98
0.121194 0.238854 1.297 67 65 57
0.104209 -0.383873 1.135 6 16 21
-0.727668 -0.322651 1.947 162 159 154
-0.808016 -0.555751 2.22 166 166 160
-0.00918023 -0.383041 1.227 13 12 19
0.0731246 0.311593 1.234 119 113 115
-0.733646 0.143928 1.47 145 156 154
-0.674924 0.0641743 1.567 151 157 157
-0.333313 0.292648 1.283 148 147 147
0.337598 0.0637644 0.737 8 15 9
-0.303818 -0.322944 1.893 135 131 124
0.274574 -0.150381 0.935 105 96 87
0.277102 -0.164525 0.858 128 126 116
-0.853111 -0.147165 1.779 160 156 159
-0.588643 0.211195 1.393 151 151 147
0.077484 0.118651 1.425 67 57 45
0.216393 -0.0932784 0.927 99 41 0
-0.439783 0.300309 1.289 149 149 151
-0.547828 -0.794187 2.22 195 196 192
-0.0825037 0.15933 0.431 32 31 33
0.100494 -0.437466 1.201 11 12 6
-0.0664569 -0.0307158 1.595 78 69 64
0.368167 -0.0699874 0.731 113 119 100
-0.346289 0.343285 1.247 151 154 155
0.330108 0.300422 0.997 21 19 0
-0.54159 0.273683 1.333 151 157 157
0.30707 0.234127 1.012 32 17 7
-0.274616 0.231723 1.354 159 153 159
-0.547666 0.341254 1.262 136 155 155
0.155492 0.33313 1.203 72 69 53
-0.340335 0.297746 1.278 145 144 148
0.356617 0.191147 0.757 19 14 10
-0.694414 -0.844121 2.181 141 147 149
-0.0409026 0.333867 1.22 147 142 140
-0.266376 0.254599 1.324 165 162 159
-0.213725 0.366837 1.198 153 147 149
-0.344611 -0.496803 2.024 156 148 145
-0.08929 -0.377115 1.459 3 6 7
0.190902 -0.128643 0.966 5 6 2
-0.0929699 -0.190426 1.7 4 8 3
0.14523 -0.406354 1.096 81 77 66
-0.1267 -0.541847 1.4 0 13 12
-0.525913 -0.297091 1.905 169 164 162
-0.23355 -0.283816 1.696 91 85 89
-0.592887 0.268585 1.351 144 147 146
0.0560172 -0.184633 1.062 9 10 0
0.304831 -0.164556 0.739 176 179 180
0.273994 0.34655 1.182 57 49 35
-0.0114964 -0.459685 1.262 14 14 32
-0.251415 -0.0755518 1.668 139 128 132
-0.594101 0.24543 1.369 145 151 151
-0.140693 0.307906 1.26 153 150 147
-0.456656 0.0600905 1.528 160 159 161
-0.773316 0.0340882 1.591 153 156 157
-0.0076688 -0.195771 1.31 20 20 22
0.30357 0.147403 0.878 41 28 17
-0.652267 0.0108407 1.599 151 153 144
-0.407547 -0.655758 2.204 148 139 142
0.259807 -0.301722 0.821 201 205 200
0.322947 0.0954967 0.723 53 14 0
-0.924885 -0.462429 2.092 158 161 160
0.147025 0.380872 1.152 153 154 148
-0.203805 -0.474064 1.48 18 17 21
0.142841 0.0296531 1.384 19 20 11
0.25046 0.385787 1.128 57 54 38
0.301542 0.0957286 0.804 36 27 18
0.246348 0.177013 1.143 19 10 3
0.315346 0.295284 1.092 24 26 10
-0.628607 0.296982 1.302 147 156 166
-0.0946306 -0.405091 1.432 4 10 10
0.290797 -0.224669 0.772 133 138 128
0.110617 -0.104548 1.039 3 6 7
0.184661 -0.215689 0.983 13 15 4
-0.0587759 0.331882 1.22 149 151 142
-1.13687 -0.559364 2.22 123 131 128
0.261195 0.169734 1.096 31 15 12
-0.472563 -0.0707115 1.682 157 152 148
0.292754 -0.141645 0.745 202 207 212
0.33487 -0.0396397 0.79 66 68 78
-0.803688 -0.432282 2.078 150 149 149
0.327618 -0.072186 0.767 144 144 144
0.316185 -0.259105 0.721 235 246 246
0.100953 -0.249554 1.01 18 17 24
-0.0985045 -0.184893 1.7 0 9 2
0.0362881 0.19056 1.359 120 116 117
-0.495994 0.288147 1.31 156 155 157
0.136136 0.182115 1.362 62 61 46
0.126801 0.190279 1.357 66 62 51
0.274785 -0.135549 0.81 139 137 129
-0.351657 0.289821 1.289 152 149 144
-0.198969 -0.465203 1.498 16 16 10
0.274834 0.0311393 0.826 62 28 20
-0.174672 0.337229 1.225 145 142 139
-0.509404 -0.445808 2.078 171 163 160
-0.0878839 -0.31861 1.607 5 5 5
-0.0119154 0.249394 1.308 119 113 115
-0.637223 -0.0716785 1.705 168 162 164
0.2944 0.366792 1.149 54 59 26
-0.612858 0.134633 1.473 147 150 153
0.277087 -0.144842 0.841 140 139 124
0.027151 0.386625 1.158 148 148 142
-0.603918 -0.0744531 1.705 162 159 156
-0.156465 0.385634 1.178 138 138 138
0.0221292 -0.18876 1.096 13 14 8
0.203112 -0.355953 0.995 100 97 94
0.0694191 -0.205888 1.03 17 18 9
0.354394 -0.0861533 0.737 94 102 91
-0.187537 0.0574532 1.524 159 149 147
0.225012 0.19858 1.324 51 45 30
0.318861 0.127761 0.761 32 22 20
-0.0727989 -0.504218 1.372 4 6 0
0.325378 0.373537 1.108 73 81 66
0.2616 -0.29768 0.81 200 203 204
-0.226633 -0.400302 1.52 125 121 114
-0.140513 -0.108448 1.673 70 70 64
-0.24805 -0.0980832 1.682 152 144 143
-0.546954 0.414389 1.189 134 148 139
0.292783 -0.266652 0.742 246 252 252
-0.398713 0.199 1.387 156 152 157
0.0149584 -0.0953559 1.435 14 18 13
-0.0416281 0.248822 1.305 128 120 117
0.191479 -0.174893 0.961 8 11 10
-0.637667 -0.263576 1.887 163 154 157
-0.0163639 0.0326527 1.524 81 72 67
0.306982 -0.243515 0.727 171 175 170
0.116242 -0.0887371 1.244 24 15 6
-0.30869 -0.0125781 1.599 162 157 155
0.284192 -0.165644 0.778 179 186 180
0.237739 0.321384 1.203 53 55 44
0.263749 -0.225087 0.86 127 128 119
0.20463 -0.120533 0.964 27 9 0
-0.0404422 0.219946 1.336 124 114 112
-0.638356 -0.0571613 1.686 159 160 156
-0.0218541 -0.414084 1.267 13 28 54
0.362374 -0.0492924 0.78 81 90 81
-0.345862 0.370512 1.21 148 148 144
-0.5694 0.295089 1.322 153 152 159
0.317978 0.125865 0.796 39 30 11
0.383823 0.32517 0.832 23 9 3
-0.118695 0.0403033 1.532 139 131 130
0.232551 0.431476 1.104 60 59 42
-0.893196 -0.333183 1.991 152 153 149
0.323828 -0.180558 0.712 185 193 190
-0.974439 -0.624789 2.196 166 166 170
0.20791 -0.200621 0.972 7 11 6
0.180438 0.12078 1.396 47 40 30
0.354617 0.279962 0.877 21 16 12
0.225996 0.0838423 1.116 28 15 4
-0.530566 -0.390051 2.017 176 171 167
0.304568 0.420197 1.098 46 49 33
0.367304 0.23413 0.777 37 25 9
-0.166505 -0.540745 1.409 9 12 13
-0.0929158 0.327262 1.225 153 152 152
0.341654 -0.149187 0.685 117 119 127
0.253622 0.00764199 0.909 39 28 21
0.295901 -0.0230111 0.84 30 14 11
-0.510141 0.289836 1.308 147 150 149
-0.163626 0.342948 1.217 149 144 142
0.0269897 -0.15668 1.237 21 17 18
-1.09958 -0.637184 2.107 160 168 167
-0.0796298 0.337606 1.205 149 143 149
-0.666179 -0.499963 2.136 168 165 162
-0.148621 -0.366067 1.532 9 9 13
0.00277625 -0.189483 1.215 21 21 17
0.168287 0.0334107 1.27 23 16 6
0.0863358 -0.105969 1.281 25 14 5
0.303668 -0.199838 0.745 161 166 173
-0.0129835 -0.26969 1.05 22 24 15
0.168288 0.231299 1.302 65 61 50
-0.480694 -0.642097 2.244 150 147 144
-0.563179 0.19673 1.403 155 161 163
0.196501 -0.145827 0.955 12 18 18
0.268955 0.11639 1.005 40 23 9
-0.588126 0.410302 1.194 146 156 161
-0.0784758 0.155481 0.432 29 37 34
-0.0738058 -0.366241 1.435 5 5 5
0.266636 -0.00791765 0.834 45 17 0
0.303908 0.164105 0.941 38 23 13
0.228797 -0.242366 0.994 26 26 20
-0.254729 -0.0417423 1.62 146 142 135
-0.353821 -0.0152182 1.603 166 160 162
0.176275 0.248803 1.283 64 61 45
-0.699745 -0.015541 1.637 145 145 145
-0.983659 -0.767518 2.017 167 172 177
-0.500027 0.0630276 1.539 149 149 149
0.358284 0.312022 0.908 22 17 0
0.329848 -0.246477 0.715 197 205 202
0.203458 -0.0995976 0.944 89 44 21
-0.609472 -0.687435 2.261 141 139 131
0.339695 0.390099 1.079 73 93 88
-1.04126 -0.643534 2.128 161 162 158
0.209255 -0.0440605 1.009 19 14 12
-0.1071 -0.521216 1.412 6 6 0
-0.227659 -0.0948359 1.673 150 144 146
-0.736102 0.0953371 1.535 153 153 155
0.326102 -0.261168 0.717 214 237 244
-0.493951 -0.133222 1.748 161 155 157
-1.03032 -0.435663 2.078 155 163 160
0.315912 -0.115664 0.734 127 129 135
-0.0465442 0.152242 0.423 49 46 60
0.339698 0.0358345 0.755 19 20 16
-0.0479213 0.15293 0.423 42 44 52
0.263563 0.214939 1.137 20 20 14
0.193767 -0.0307338 1.059 37 23 8
0.153919 -0.011905 1.254 37 18 12
0.352919 0.304499 0.921 23 18 0
0.235146 0.0114285 0.98 44 31 20
0.0992378 0.305568 1.234 108 106 96
0.167956 0.212945 1.333 58 59 50
0.281958 -0.134604 0.891 122 123 110
-0.503838 0.0556585 1.543 158 154 145
-0.179707 0.255193 1.305 148 141 135
0.354124 0.0464081 0.71 20 17 12
0.0295859 -0.165584 1.108 11 20 13
0.106959 0.122511 1.416 64 58 43
-0.342339 0.304149 1.27 150 150 146
0.106991 -0.439427 1.145 79 78 87
-0.369088 -0.099716 1.71 170 162 161
-0.109846 0.273857 1.283 154 148 150
0.253681 0.17438 1.126 26 15 8
-1.1103 -0.590737 2.189 160 174 165
0.119237 0.111695 1.425 59 56 42
0.219489 -0.285772 1.034 43 43 45
-0.0560404 0.217051 1.345 123 115 114
-0.530624 -0.776877 2.286 154 149 145
0.33868 -0.108945 0.729 109 119 107
0.279041 0.16025 1.024 23 12 16
-0.483419 -0.368512 1.972 175 165 165
-0.161997 0.172287 1.39 150 144 150
0.377188 0.243666 0.737 19 25 25
0.29054 -0.0572826 0.768 177 189 191
0.327796 0.187978 0.874 39 29 15
-0.0808387 0.203529 1.357 123 117 119
-0.582443 -0.608513 2.228 150 145 141
0.154555 -0.405845 1.062 114 110 101
-0.419819 0.315226 1.273 147 147 143
-0.713841 0.270783 1.351 155 170 167
0.0224118 -0.180333 1.11 11 9 1
-0.749242 -0.191493 1.815 159 163 158
-0.867606 -0.305864 1.941 155 156 152
0.307192 -0.0686199 0.769 178 186 187
0.118482 0.339567 1.205 110 111 105
-0.882524 -0.290891 1.905 153 155 146
0.327726 -0.258027 0.718 197 212 225
0.286904 -0.194143 0.807 142 138 127
-0.606974 -0.844561 2.173 141 146 151
-0.878518 -0.420715 2.071 159 154 152
0.334475 0.0836669 0.684 100 108 95
0.326845 -0.184781 0.706 180 188 187
-0.0176313 0.299704 1.26 145 141 144
0.309437 0.220536 0.988 31 17 13
0.301537 0.335904 1.192 44 37 29
0.269466 0.420417 1.108 50 58 43
-0.587518 -0.00741084 1.607 158 159 155
0.310098 0.0728847 0.77 64 34 0
0.0392923 -0.477421 1.244 23 53 87
-0.389649 0.0107051 1.579 162 152 150
-0.0304899 -0.11575 1.487 48 44 33
0.325142 0.301484 1.017 14 13 0
0.220032 0.193422 1.333 40 42 24
0.328464 -0.272092 0.712 210 227 228
0.0940645 -0.147383 1.043 10 11 7
-0.0557579 0.153653 0.425 35 40 47
0.205576 0.0609818 1.165 37 23 8
-0.279879 -0.274528 1.837 101 94 86
0.28592 0.308959 1.208 52 54 45
0.260561 -0.307475 0.815 198 201 202
-0.0044291 -0.258944 1.048 20 20 16
0.0210674 -0.467299 1.244 13 24 45
-0.812692 -0.644672 2.253 144 144 138
-0.0379278 0.364082 1.189 150 146 147
0.2002 0.0578283 1.178 40 20 10
-1.08096 -0.52984 2.173 158 164 162
-0.888706 -0.711997 2.136 162 162 162
-0.602111 -0.665358 2.261 141 140 140
-0.424961 -0.830314 2.22 193 189 190
-0.819507 -0.553748 2.212 157 158 152
0.161624 -0.247665 1.009 21 15 19
-0.543488 0.44191 1.145 135 142 146
-0.20779 -0.545331 1.409 174 170 171
-0.0177012 -0.407255 1.265 12 26 48
-0.180854 0.286384 1.283 155 147 144
-0.382751 -0.548035 2.107 154 151 148
0.00580657 -0.0841222 1.484 47 48 39
-0.238821 0.222416 1.351 164 153 157
0.255238 0.233822 1.281 46 39 31
0.250757 0.0353239 0.937 35 25 11
0.217154 -0.0363407 0.978 34 20 12
-0.120165 0.11436 1.459 149 143 145
0.18423 -0.169164 0.964 8 12 5
-0.038191 0.152569 0.422 77 67 77
-0.317433 0.192229 1.387 161 161 155
0.208435 -0.0359927 1.013 26 22 13
0.239292 0.0648835 1.018 38 23 13
-0.044822 0.282524 1.275 152 148 149
0.125155 -0.413077 1.124 83 76 66
0.149456 0.307577 1.234 68 63 59
-0.022151 -0.0150283 1.583 71 60 53
0.277297 0.0890003 0.909 36 26 12
0.309536 -0.0262048 0.855 42 26 33
-0.841341 -0.621206 2.261 150 146 149
0.287653 -0.186433 0.791 146 142 143
0.299399 0.0917381 0.827 48 29 16
-0.442359 0.248246 1.348 158 162 157
0.025838 -0.180827 1.102 5 4 4
-0.22559 -0.430467 1.513 115 111 112
0.23528 -0.124849 0.961 47 39 38
0.287267 0.0753649 0.855 43 30 19
-0.381289 -0.445166 2.044 160 149 153
0.328464 -0.215318 0.712 173 185 187
-0.591921 0.350965 1.26 143 153 158
0.349242 0.378055 1.06 77 86 68
0.284176 -0.0629525 0.761 145 150 140
-0.629194 -0.231688 1.853 169 166 163
-0.318058 0.351185 1.232 155 151 154
-0.541554 -0.538708 2.166 158 149 144
-0.895153 -0.0990873 1.748 148 153 160
0.306641 0.385743 1.112 71 69 59
-0.642837 0.27677 1.327 150 155 160
-0.897092 -0.0610775 1.719 150 158 159
-0.0777726 0.154778 0.432 34 42 39
0.308852 0.110395 0.806 43 29 10
-0.602278 -0.26594 1.882 166 158 155
0.0565686 0.392777 1.143 143 139 142
0.224207 -0.205672 0.981 4 11 3
0.335003 0.00161116 0.849 29 27 19
-0.0443253 0.392801 1.154 150 155 143
-0.593961 0.378164 1.222 139 152 151
-0.565678 0.3087 1.289 142 147 154
0.308587 0.390861 1.106 55 57 48
-0.232173 -0.219038 1.686 85 80 76
0.274267 -0.163204 0.797 189 194 199
0.210234 0.0526651 1.149 25 15 3
0.0807616 -0.2199 1.025 18 24 24
-0.412199 0.422774 1.18 149 157 146
-0.0256714 0.307988 1.252 150 146 149
0.294859 -0.189766 0.763 165 162 159
0.140115 0.0876378 1.449 54 46 43
-0.379388 -0.0584838 1.646 168 164 165
-0.622656 0.215729 1.393 149 162 159
0.15732 -0.372646 1.081 18 20 11
-0.340286 0.124451 1.466 154 148 152
-0.602383 0.375717 1.227 136 147 147
0.153474 -0.157297 0.978 18 18 14
0.142845 -0.207226 1.004 6 9 10
0.319169 0.11518 0.736 36 27 6
-0.521159 0.444079 1.141 141 160 150
0.378151 0.0123416 0.746 34 49 44
-0.463729 0.410519 1.189 144 157 152
0.0196088 0.269261 1.281 119 114 112
0.276139 -0.136851 0.834 142 140 128
0.320458 0.0900134 0.756 76 34 20
-1.06545 -0.496452 2.121 157 161 156
0.32017 0.141034 0.832 16 17 8
-0.106079 0.316888 1.239 147 147 141
0.0589687 -0.0978676 1.372 16 15 15
-0.27322 0.13744 1.452 161 153 150
0.318532 -0.245026 0.721 189 195 195
-0.721218 0.0543875 1.579 157 161 156
-0.452896 0.429077 1.171 149 157 156
0.347287 0.288569 0.918 31 13 4
0.305764 0.149962 0.868 42 28 9
-0.29183 -0.119474 1.714 165 160 158
0.0691236 -0.191272 1.051 4 13 6
0.32347 -0.057581 0.772 107 117 122
0.373557 0.309114 0.855 21 9 9
0.125399 -0.0149243 1.342 28 17 12
-0.302195 -0.0391061 1.62 161 153 150
0.267887 0.265267 1.262 45 47 31
-0.475678 -0.214039 1.831 168 162 164
0.337302 -0.260804 0.716 197 207 214
0.334154 0.0724535 0.74 21 28 22
0.205296 -0.265824 1.022 37 43 43
0.232222 0.212371 1.316 47 45 35
0.34225 -0.110554 0.724 115 119 114
0.029608 -0.0696496 1.595 50 46 35
-0.541463 -0.0237197 1.65 168 160 157
0.179902 -0.28439 1.029 12 20 19
-0.69564 -0.467392 2.099 163 155 152
0.276896 0.236932 1.154 33 34 23
0.06883 0.0230159 1.543 59 55 48
0.301607 -0.242068 0.737 153 154 150
0.130721 0.00932209 1.375 37 30 20
0.299766 0.345501 1.185 41 43 30
0.303496 -0.255212 0.73 218 223 228
0.268175 -0.272467 0.783 177 176 176
-0.521351 -0.807522 2.278 167 164 159
0.251124 -0.0614285 0.806 188 187 191
-0.474526 0.445636 1.145 141 153 155
-0.487031 0.215179 1.375 155 155 151
0.00293163 0.269681 1.283 129 128 135
0.269895 0.062717 0.914 33 24 17
-0.675693 0.0160449 1.599 153 153 153
-0.0113597 -0.48466 1.247 9 20 20
-0.473923 0.131608 1.466 158 153 151
0.35524 0.328908 0.935 5 11 13
0.315427 -0.0982628 0.747 134 138 133
-0.946991 -0.377344 2.037 147 155 154
0.330191 0.37084 1.1 69 61 49
-0.0114782 -0.467158 1.26 16 32 51
0.316789 0.177783 0.887 44 30 15
0.300815 -0.236391 0.738 149 154 144
0.290608 -0.131962 0.752 167 170 169
-0.0889823 -0.234243 1.677 4 9 0
0.299934 -0.203057 0.757 150 153 152
-0.0893058 -0.286561 1.633 5 7 0
-0.761923 0.185772 1.442 145 156 156
-0.333515 0.379483 1.201 149 149 149
0.163245 -0.0353192 1.217 41 26 16
0.318866 0.414836 1.098 43 39 30
0.297011 0.128271 0.884 44 23 18
-0.480578 0.366232 1.222 146 158 164
0.34267 0.233022 0.883 37 25 7
-0.390789 0.0411188 1.563 163 157 159
-0.934496 -0.566589 2.22 158 158 160
0.279069 0.129839 0.983 41 29 13
-0.106575 0.261465 1.294 158 152 158
0.23516 -0.311419 0.912 127 128 119
0.295207 0.0467303 0.794 67 23 3
0.209464 -0.334362 1.018 91 89 81
-0.418403 0.313646 1.275 148 148 142
-0.0823903 0.0980076 1.463 155 146 149
-0.0927543 0.162887 0.433 27 31 24
-0.0666633 -0.340108 1.484 3 7 2
-0.369287 0.113367 1.477 158 150 147
0.10993 -0.166879 1.017 6 12 14
-0.982023 -0.67623 2.189 162 166 161
0.31128 0.266912 1.037 18 11 3
0.192391 0.385337 1.143 57 61 40
-0.698942 -0.777373 2.173 147 145 137
0.0933751 -0.264524 1.017 27 38 34
-0.667937 0.165794 1.452 147 153 151
-0.734007 0.010895 1.607 152 152 152
0.318944 0.118992 0.73 36 28 16
0.349584 0.406902 1.077 62 67 57
-0.0101117 -0.234523 1.11 20 20 14
0.31982 0.131857 0.716 28 26 3
-0.885161 -0.344098 2.017 155 156 150
0.246613 -0.260429 0.905 120 120 116
-0.426049 0.249882 1.345 154 155 151
0.232109 -0.0469128 0.878 68 31 17
-0.640455 -0.522525 2.143 169 165 158
0.127788 0.076947 1.47 54 47 37
0.321831 0.245436 0.972 33 20 9
0.336313 -0.243255 0.709 213 225 227
0.129005 0.0535303 1.484 54 47 39
0.345057 0.0552187 0.735 69 83 74
0.335504 0.151456 0.664 27 19 5
0.0393916 0.00809438 1.571 60 53 45
0.222695 -0.167409 0.954 4 11 19
0.269696 -0.0398906 0.795 118 125 119
-0.681612 0.220263 1.393 152 162 165
-0.684756 -0.106759 1.734 153 153 153
-0.663691 0.225597 1.384 140 157 162
0.127702 0.0191628 1.442 47 40 34
-0.391843 0.287398 1.297 151 151 151
-0.34723 0.238938 1.345 162 158 161
-0.809763 0.0187986 1.612 153 157 150
0.102542 -0.382699 1.137 8 18 25
0.235183 -0.170984 0.948 5 13 0
0.131332 0.320636 1.215 109 110 101
-0.209274 0.287348 1.278 157 153 156
-0.583322 -0.517475 2.151 172 170 158
0.369772 0.31559 0.869 9 17 6
0.0270278 0.104647 1.456 76 67 58
-0.554702 -0.0570257 1.682 162 157 155
-0.115511 0.237362 1.324 157 148 155
-0.813146 -0.0946461 1.719 150 150 152
-0.224908 0.382141 1.185 150 147 144
-0.0627483 -0.359392 1.348 0 5 3
0.316542 0.0449803 0.786 101 99 87
-0.415718 0.169311 1.422 156 154 146
-0.329971 0.0945845 1.484 160 151 156
0.219877 -0.248319 1.005 18 20 28
-0.373082 0.115457 1.473 159 154 150
-0.569569 0.0559471 1.551 161 163 154
-0.428064 0.201257 1.387 164 161 158
0.191136 0.422694 1.114 104 103 88
0.284591 -0.221834 0.827 127 132 122
0.12625 -0.157896 1.002 12 17 24
-0.599847 0.401929 1.198 148 153 160
0.314674 0.060511 0.772 75 72 58
0.386798 -0.022956 0.791 61 62 51
-0.872189 -0.412575 2.064 152 155 158
0.31085 0.113716 0.775 38 29 10
0.369663 0.261556 0.807 30 19 23
0.395126 -0.00487884 0.782 35 44 35
0.214931 -0.156542 0.954 13 14 10
-0.579064 0.0487494 1.563 162 163 159
0.0952204 -0.451494 1.234 4 9 18
-0.669448 -0.795636 2.204 146 146 142
0.340054 -0.120308 0.712 116 118 102
0.349334 -0.249914 0.705 236 247 243
0.0644567 0.320494 1.222 130 130 124
-0.369048 -0.168793 1.763 163 155 154
0.271431 -0.0702904 0.76 129 128 137
-0.744781 0.164219 1.459 151 158 152
-0.603538 -0.132917 1.744 162 160 152
-0.451492 -0.0152562 1.607 167 159 156
0.0298885 0.36694 1.192 150 150 150
0.36672 0.267066 0.824 32 21 12
-0.365559 0.239471 1.348 158 152 154
0.183212 0.023857 1.205 37 22 12
-0.605362 -0.312181 1.941 162 157 153
0.0390712 0.310337 1.237 155 152 147
-0.874344 -0.34962 2.03 158 158 152
-0.00277513 -0.243029 1.068 18 21 24
0.260007 0.354759 1.171 52 56 35
-0.53377 0.176253 1.422 157 160 159
0.335159 -0.148398 0.697 141 149 150
-0.666393 0.3087 1.289 147 162 159
-0.119943 -0.312505 1.616 4 4 6
-0.669484 -0.735412 2.228 161 161 157
-0.617455 0.0801924 1.532 154 160 158
-0.319439 0.0183672 1.575 153 142 146
0.304063 -0.285148 0.743 236 249 246
0.185186 -0.195271 0.969 13 22 13
-0.206107 0.00809438 1.571 152 142 152
-0.270568 0.358105 1.208 152 148 149
-0.0655133 0.151962 0.43 58 51 45
-0.351422 -0.570439 2.064 149 144 140
-0.0143477 -0.00213719 1.575 67 59 47
-0.132572 0.136209 1.439 159 151 148
-0.0061365 0.109085 1.452 81 70 65
0.120562 -0.145863 1.009 9 13 6
-0.714279 -0.422652 2.064 158 158 154
-0.482418 -0.31456 1.917 171 163 160
0.130238 0.355743 1.187 132 132 128
0.112846 0.372538 1.167 156 149 141
-0.640587 0.0236126 1.583 158 159 153
0.0589707 -0.19335 1.053 9 17 4
0.211747 0.124155 1.189 24 17 7
0.299316 0.138528 0.904 43 29 12
0.252453 0.0336187 0.932 43 31 15
0.271651 -0.289935 0.782 186 185 187
0.218037 -0.339733 0.954 116 118 102
0.282398 0.357957 1.169 50 48 38
-0.633789 -0.641866 2.269 155 150 146
0.324087 0.141304 0.705 33 23 11
-0.36924 -0.466717 2.051 155 153 143
-0.413035 0.0836773 1.505 160 152 151
-0.700508 0.226575 1.39 151 162 162
0.308524 0.371013 1.139 73 77 54
-0.590519 -0.79205 2.204 185 189 182
-0.407574 0.356057 1.242 136 141 148
-0.0854129 0.167275 0.428 28 27 29
-0.210415 -0.372571 1.528 27 26 30
0.237602 -0.288526 0.997 89 91 82
-0.757211 -0.782053 2.128 155 148 140
0.332916 0.147281 0.69 26 23 7
0.0842506 -0.105969 1.281 26 15 10
-0.106931 -0.416689 1.473 8 10 1
-0.127883 -0.197089 1.686 2 9 3
0.0880441 0.390233 1.141 136 136 130
0.303968 0.108758 0.855 17 10 0
0.295254 0.323948 1.198 46 48 30
0.277126 -0.233954 0.813 134 133 118
0.349047 0.0588601 0.721 65 75 82
0.15975 0.219294 1.319 61 57 50
0.0597583 0.373176 1.169 143 143 139
0.367466 0.305651 0.877 20 10 0
-0.577533 0.109295 1.487 144 145 136
0.0212368 0.298277 1.254 146 140 142
-0.65202 -0.273656 1.893 162 162 162
-0.0491412 0.224295 1.336 126 123 118
-0.69919 -0.706982 2.196 164 162 154
-0.704205 0.0469154 1.587 156 161 166
-0.144407 0.336403 1.222 149 144 140
0.273463 0.0312901 0.83 47 30 16
-0.150665 -0.300304 1.607 5 5 5
-0.647002 -0.182129 1.81 160 160 154
-0.411676 0.0814441 1.509 158 148 148
0.128356 -0.413429 1.12 78 73 69
-0.0392986 0.174521 1.372 123 114 117
-0.823541 0.0467971 1.583 150 163 162
0.0256035 -0.330235 1.092 29 29 31
0.289305 -0.305099 0.785 249 255 254
-0.0118438 -0.0330608 1.583 64 60 53
0.30017 -0.133747 0.722 143 150 144
-0.337647 -0.1848 1.779 130 126 117
-0.0289754 0.0253945 1.535 72 65 55
-0.758463 0.120414 1.505 151 156 161
0.331009 -0.275949 0.71 215 225 230
-0.732534 0.155146 1.463 148 154 156
-0.120643 -0.135097 1.7 53 61 46
0.374705 0.253379 0.774 35 25 11
0.238462 -0.220054 0.974 4 7 6
0.283869 0.427567 1.094 58 59 50
0.332874 -0.170981 0.683 207 220 215
0.235183 0.317347 1.21 57 56 41
0.2339 -0.262253 1.002 10 15 5
0.0900383 -0.0709199 1.369 22 13 6
-0.523745 0.42134 1.176 142 155 150
0.0845794 0.257755 1.286 113 108 106
0.244656 0.124937 1.11 35 21 6
0.0890517 -0.08777 1.354 13 11 0
0.328848 0.0971328 0.677 11 11 15
-0.429086 0.370675 1.217 136 139 142
0.20927 0.420881 1.114 59 63 56
-0.190172 0.193645 1.381 158 150 147
0.268637 0.184769 1.09 22 13 8
-0.90231 -0.0642465 1.729 147 155 156
-0.102759 -0.333605 1.555 7 7 3
-0.167237 0.24598 1.324 157 148 155
-0.91223 -0.437566 2.071 151 151 147
0.352153 0.183999 0.758 30 17 4
0.347715 0.269988 0.896 16 17 6
-0.104039 -0.182127 1.7 2 8 6
0.071717 -0.283773 1.039 26 32 32
-0.479874 0.341254 1.262 139 145 147
0.0605695 -0.295602 1.051 35 43 40
0.0642016 -0.218658 1.027 16 14 6
-0.575737 0.342065 1.265 146 163 166
0.319894 -0.0110655 0.868 29 15 11
0.00779204 -0.213744 1.087 18 22 17
-0.792619 0.0493732 1.583 153 154 150
0.235858 -0.0122001 0.957 27 17 5
-0.816866 -0.475742 2.121 158 154 155
-0.164007 0.196418 1.369 159 153 155
0.257339 0.416934 1.118 58 58 38
-0.324402 -0.117365 1.724 163 159 160
-0.891884 -0.569679 2.204 157 158 154
0.0931336 0.0996336 1.452 58 53 35
0.323962 0.112452 0.633 4 15 24
0.346739 -0.0280157 0.868 44 44 38
0.201259 0.349638 1.173 56 59 36
0.334504 -0.147475 0.698 146 146 146
-0.836282 -0.346175 2.01 162 158 159
0.182562 -0.0500961 1.106 56 31 24
-0.333786 -0.123333 1.729 161 152 155
-0.282417 0.337698 1.234 152 152 148
0.287727 0.0794273 0.869 24 16 4
0.131006 0.350068 1.194 117 114 109
-0.484942 0.159959 1.442 157 153 154
-0.48284 0.39608 1.198 154 167 164
0.0978269 -0.209037 1.029 13 17 12
-0.431199 0.159183 1.435 160 156 159
0.0219661 0.121819 1.435 93 88 84
-0.967783 -0.648915 2.181 161 167 169
-0.227997 0.289427 1.278 153 152 156
0.283056 -0.273635 0.758 204 212 209
-0.526114 0.287326 1.316 149 150 144
0.0811514 -0.108698 1.098 13 9 2
0.310947 0.0890584 0.769 143 124 107
-0.69963 -0.164535 1.779 154 154 148
-0.775043 -0.287381 1.923 155 159 152
0.19793 0.184219 1.345 55 48 31
-0.843524 -0.748292 2.181 154 151 146
-1.06545 -0.641417 2.121 160 172 164
-1.04397 -0.457489 2.085 157 161 154
-0.0949243 0.189734 1.369 156 146 146
0.341521 0.0643467 0.73 14 29 24
-0.422398 0.033574 1.567 169 166 163
-0.124271 0.281768 1.281 161 156 152
-0.191109 -0.437853 1.513 11 11 13
-0.716088 -0.702384 2.204 162 163 154
0.326557 -0.245174 0.718 189 195 193
0.127132 -0.273937 1.009 21 27 27
-0.341289 0.40253 1.194 148 151 150
0.25517 -0.202768 0.904 94 93 93
-0.152004 -0.394315 1.516 5 11 9
-0.387607 -0.394743 1.991 159 149 147
-0.113511 0.158254 1.406 154 150 153
0.352051 -0.123799 0.699 115 116 110
-0.370883 -0.0755518 1.668 164 159 157
-0.428778 0.386629 1.205 152 153 149
-0.297602 0.0620857 1.516 155 153 160
-1.021 -0.639989 2.151 167 170 171
-0.701218 -0.0918487 1.719 152 155 154
0.102652 -0.300429 1.044 18 38 33
0.269777 0.308772 1.215 51 52 39
0.291489 -0.196265 0.784 151 152 148
-0.913918 -0.321452 1.959 155 147 146
-0.0482952 -0.420571 1.313 25 20 28
-0.42846 0.213871 1.381 164 166 157
0.239968 0.343573 1.185 57 54 40
0.316365 -0.0662031 0.77 176 190 192
0.317491 0.117214 0.749 36 27 8
0.332555 0.0499377 0.764 62 68 68
0.344929 -0.0138745 0.867 37 42 32
0.228128 0.313307 1.225 59 60 47
-0.0799777 -0.326014 1.555 6 5 7
-0.746287 -0.191493 1.815 155 154 154
-0.0564981 0.255193 1.305 136 128 127
-0.324071 0.178846 1.406 154 150 151
-0.373452 0.106659 1.484 167 158 161
0.0134365 -0.175852 1.289 20 28 17
-0.773718 -0.0797676 1.7 152 151 151
-0.684393 0.0442211 1.583 155 157 163
0.319269 0.05437 0.774 31 39 40
-0.166041 -0.424418 1.509 4 8 1
0.119957 0.314014 1.22 113 113 107
-0.293276 0.35033 1.229 161 162 158
0.181646 -0.113426 0.984 43 28 16
-0.551649 -0.331133 1.941 172 164 163
-0.68067 -0.260505 1.887 155 155 149
-0.471831 0.095923 1.505 155 150 148
-0.759677 -0.150482 1.784 150 152 158
0.313043 0.075195 0.768 55 26 3
-0.328332 -0.367009 1.947 150 140 138
-0.481917 0.26441 1.33 154 155 149
0.348563 -0.1076 0.72 107 110 109
0.279878 -0.154556 0.889 123 116 110
-0.150434 0.290367 1.273 147 142 140
-0.741082 0.0519492 1.583 160 160 164
0.232374 0.256615 1.27 59 52 42
-0.569821 0.354849 1.252 135 152 153
0.00619393 -0.0176044 1.583 64 56 44
-0.0674478 0.153022 1.4 156 146 146
0.181089 -0.0465805 1.108 55 31 19
-0.612401 0.276473 1.336 145 154 164
-0.731719 0.0690975 1.563 150 155 160
-0.285859 -0.423999 1.837 157 147 145
0.298287 -0.136851 0.726 160 160 156
0.32771 0.145326 0.731 29 23 8
-0.398035 -0.0728374 1.668 165 160 158
-0.252889 0.27093 1.299 153 148 146
0.306913 0.413802 1.1 39 41 28
0.013727 0.402523 1.139 147 148 142
-0.0443129 0.160168 0.415 23 26 25
-0.403181 -0.478008 2.071 151 144 136
0.299109 -0.112349 0.728 160 160 160
0.281569 -0.128708 0.834 141 139 131
0.0283339 0.412215 1.13 141 144 143
-0.370171 0.25416 1.333 156 153 148
-0.341546 0.203991 1.375 161 160 162
-0.660424 0.0491237 1.575 154 152 159
-0.794971 -0.0885851 1.71 142 136 140
0.314947 -0.187242 0.729 181 187 187
-0.425206 0.303087 1.283 153 156 157
0.238801 -0.290086 0.944 107 98 91
-0.218833 -0.213985 1.668 60 58 50
-0.224865 0.192229 1.387 156 147 150
0.315984 -0.13499 0.71 176 177 173
-0.573249 -0.390051 2.017 167 164 159
0.289306 -0.196979 0.792 144 145 136
0.194311 0.260311 1.278 58 55 39
0.0397537 0.399517 1.141 147 144 141
0.346964 -0.103485 0.724 109 110 99
0.101881 0.105987 1.442 61 55 42
0.326813 -0.174346 0.701 194 202 199
-0.526105 -0.305201 1.917 171 162 157
-0.0275323 -0.384299 1.244 22 26 49
-0.599469 0.249338 1.366 150 152 158
0.22814 -0.280243 1.02 38 38 40
-0.139624 0.342385 1.215 149 143 145
-0.246612 -0.355727 1.71 155 147 146
0.146551 -0.216039 1.007 2 8 6
0.0458509 -0.113147 1.316 8 12 5
-0.20095 -0.0686516 1.633 141 135 137
0.0261662 -0.166779 1.116 12 20 21
-0.270575 0.258894 1.313 156 151 149
0.0779734 -0.183416 1.055 8 10 1
0.00264143 -0.2085 1.156 23 23 19
-0.65216 0.282608 1.324 150 164 170
0.389966 -0.0100329 0.787 39 47 36
0.332296 0.220837 0.886 41 29 13
0.223015 -0.0430276 0.917 44 31 20
-0.503559 0.193476 1.396 158 154 155
-0.427376 0.0630276 1.539 161 154 148
-0.0128993 0.136336 1.416 122 114 113
-0.0248528 -0.038406 1.591 68 62 49
-0.0916569 -0.532302 1.387 4 10 12
0.323227 -0.199267 0.721 167 174 180
-1.07043 -0.612729 2.166 163 172 165
0.323486 0.256238 0.977 28 17 10
-0.146497 0.311264 1.257 155 156 152
-0.420336 0.359205 1.232 145 142 139
-0.0247519 0.124154 1.435 111 112 103
-0.585751 -0.795054 2.173 145 144 144
-0.295487 0.309011 1.273 148 147 151
0.280793 0.412144 1.11 46 50 43
-0.196274 -0.0307158 1.595 136 128 127
-0.362366 0.301197 1.275 152 153 147
0.319989 -0.259557 0.719 228 240 244
0.282021 -0.130361 0.779 143 144 140
0.297442 0.219854 1.03 35 15 7
-0.208925 -0.267959 1.633 35 39 34
0.300752 -0.10701 0.732 147 150 153
0.243106 0.238363 1.283 48 47 47
0.267795 -0.180762 0.897 127 123 116
-0.87891 -0.110213 1.744 153 159 159
-0.347152 -0.0553644 1.633 168 167 169
-0.365161 -0.209215 1.815 133 130 125
0.308805 -0.197692 0.737 175 181 179
0.295271 -0.0279026 0.823 56 39 41
-0.331999 0.287054 1.286 151 147 138
-0.945317 -0.731374 2.092 166 169 168
-0.483968 -0.457489 2.085 155 150 146
0.282311 0.403476 1.116 60 59 42
0.208415 -0.361673 0.967 113 113 109
0.174519 -0.217005 0.989 16 18 9
-0.385559 -0.120868 1.734 168 161 155
0.355675 0.186956 0.755 30 24 11
-0.534345 -0.687595 2.286 146 142 135
0.10721 -0.248813 1.007 18 18 14
-1.01973 -0.765832 2.004 168 169 163
-0.501633 0.23613 1.354 156 163 157
0.358671 0.209077 0.764 24 18 5
0.303849 -0.113534 0.728 157 157 159
0.315559 0.0808076 0.762 76 27 1
0.319119 -0.195653 0.725 183 188 193
0.168712 0.200829 1.339 63 59 48
-0.226975 -0.338877 1.629 130 129 129
0.282281 -0.141294 0.906 112 110 91
-0.0394711 0.154948 0.421 28 36 35
-0.00735854 -0.466046 1.257 9 27 50
0.321407 0.215599 0.952 37 25 9
0.323574 0.373537 1.108 73 81 66
-0.186355 -0.291003 1.599 8 11 10
-0.0600148 0.34545 1.205 148 145 142
0.302853 -0.035647 0.787 140 146 144
0.0314625 0.115374 1.442 71 64 58
0.330929 0.220896 0.91 38 29 12
0.260694 0.0230981 0.878 43 28 18
0.256011 -0.0360693 0.826 97 86 92
-0.541301 -0.652005 2.253 149 145 134
0.0488214 0.31233 1.229 154 151 146
-0.500827 -0.82433 2.204 146 146 148
-0.587415 0.240974 1.369 147 164 167
0.190241 0.311314 1.225 61 59 40
-0.184373 -0.367739 1.539 4 11 5
0.257591 -0.283254 0.814 208 210 218
-0.916839 -0.259071 1.899 153 152 152
-0.00570965 0.204828 1.351 123 115 114
-0.55219 0.353999 1.249 145 160 155
-0.549521 -0.0237197 1.65 170 167 162
0.353595 -0.081353 0.748 83 91 88
0.344785 -0.184073 0.678 192 203 201
0.212001 -0.351383 0.969 121 114 108
-0.0430653 0.1592 0.416 28 35 29
0.243106 0.242539 1.283 45 49 44
0.343932 0.31055 0.963 15 11 4
0.244523 -0.284268 0.892 132 122 122
0.17902 0.178446 1.351 52 48 39
0.0795244 0.212199 1.342 78 73 55
0.00485968 -0.476654 1.242 6 23 24
-0.114689 0.161178 0.436 40 36 37
-0.909147 -0.392422 2.064 146 148 137
-0.572405 0.120822 1.48 147 151 146
0.336577 0.0778226 0.712 21 26 33
-0.417009 0.382707 1.205 142 150 149
-0.623432 -0.196857 1.81 163 155 152
-0.180227 -0.144577 1.714 50 49 34
-0.346647 0.0334026 1.559 165 160 158
-0.0889717 0.383997 1.173 149 147 139
0.21121 -0.0483067 0.995 31 27 20
0.363925 -0.0247263 0.852 20 20 20
-1.05261 -0.734695 2.017 158 170 160
0.0372102 -0.0817072 1.484 42 39 36
-0.438677 -0.102499 1.71 169 163 167
-0.351357 -0.327039 1.917 144 137 131
-0.0779777 0.376688 1.18 148 145 140
0.0474841 -0.242056 1.027 14 21 15
0.000765606 0.381378 1.165 138 138 134
0.25193 0.331192 1.196 53 55 42
-0.363206 0.00301167 1.587 168 165 162
0.123355 0.115843 1.419 59 55 46
0.310005 -0.177303 0.737 167 170 169
-0.636679 0.383501 1.22 139 154 153
-0.156646 0.129723 1.445 157 153 154
0.276088 0.314857 1.208 51 58 32
-0.805793 -0.704176 2.244 160 157 152
0.327687 0.0831789 0.739 6 13 5
-0.370956 0.00301167 1.587 168 163 159
-0.652755 -0.31534 1.941 166 158 155
-0.0233936 -0.285249 1.057 19 16 11
0.0279951 0.361726 1.194 152 149 146
0.0146429 -0.389181 1.215 43 12 1
-0.517245 -0.378543 1.991 175 170 166
-0.770488 -0.778041 2.136 157 152 148
0.00362626 -0.0383095 1.587 59 52 42
0.231445 0.0911067 1.116 29 20 3
-0.720403 -0.635514 2.286 156 150 152
-0.816173 -0.0212641 1.668 145 150 155
-0.554206 0.16431 1.439 154 154 156
-0.0336408 0.0375141 1.52 76 68 56
-0.403937 0.234791 1.359 165 162 157
0.119391 -0.232162 1.013 5 11 9
-0.485019 0.410519 1.189 152 162 165
0.286313 0.076599 0.869 29 19 5
-0.569313 0.446486 1.152 142 155 164
-0.11779 0.399125 1.156 158 158 154
0.22526 -0.282456 1.022 43 45 51
-0.0941178 -0.533453 1.39 4 10 10
0.171395 -0.365371 1.07 15 18 21
-0.174647 -0.164102 1.714 10 18 15
0.118073 0.261941 1.286 71 68 65
0.335766 -0.104771 0.733 110 115 103
0.0982728 0.314529 1.222 115 111 112
-0.415403 -0.256752 1.882 171 162 165
-0.256926 0.0691659 1.509 153 147 151
-0.390237 0.159626 1.439 168 158 156
0.21222 -0.339117 0.97 117 110 102
-0.0999581 -0.0280497 1.591 85 71 63
0.333741 -0.235332 0.706 232 242 245
-0.114473 0.382448 1.18 153 150 147
-0.767096 -0.257599 1.911 152 149 144
-0.549373 -0.49809 2.128 163 158 154
-0.966096 -0.24281 1.917 153 152 152
0.24852 -0.298068 0.837 145 152 144
-0.192519 -0.274153 1.607 10 10 10
-0.792646 -0.0716785 1.705 147 148 142
0.256418 0.170709 1.114 16 12 1
0.152651 -0.221931 1.004 12 24 14
0.240787 -0.0573464 0.863 91 37 9
0.0271577 0.0932461 1.463 78 67 62
-0.537989 -0.355676 1.972 169 164 162
0.221201 -0.0341451 0.961 37 29 26
0.25139 -0.0950609 0.901 118 108 108
0.31488 -0.0339684 0.808 126 131 136
0.359015 0.416437 1.079 45 37 34
0.0522234 -0.0788442 1.432 37 33 26
-0.109555 0.205737 1.357 149 140 143
0.154409 -0.399572 1.073 107 98 91
0.249232 -0.196447 0.937 11 11 5
-0.564556 0.280822 1.336 147 150 151
0.159636 0.395569 1.135 146 146 140
0.235388 -0.0591593 0.869 95 42 9
-0.511917 0.307078 1.291 138 148 151
-0.73853 -0.331016 1.959 167 165 157
-0.351687 -0.126512 1.734 162 158 159
0.172694 -0.294755 1.036 25 22 19
0.263911 -0.306528 0.809 204 210 210
0.31807 -0.209494 0.728 175 180 185
-0.877381 -0.125402 1.758 152 160 161
-0.919457 -0.517475 2.151 163 166 165
0.370068 0.243599 0.767 37 24 13
0.21158 0.280581 1.257 54 53 38
0.247466 -0.270219 0.972 91 87 88
-0.420198 0.104455 1.487 161 152 157
-0.0732914 0.132565 1.425 156 147 152
-0.131652 -0.407228 1.509 6 7 3
0.234191 -0.107279 0.944 87 30 0
0.205047 0.359596 1.162 55 56 45
-0.223355 -0.500593 1.466 156 151 147
0.301163 -0.252682 0.733 188 184 187
0.369764 0.268793 0.813 24 21 7
0.0589937 0.357241 1.192 152 152 148
-0.950161 -0.406639 2.051 153 157 150
0.174489 0.283482 1.27 58 55 41
-0.677152 -0.100824 1.729 157 159 150
-0.544214 -0.613554 2.22 153 150 147
-0.570731 0.349294 1.254 139 156 159
0.0237792 0.271345 1.281 122 116 118
-0.862242 -0.297695 1.929 158 159 150
-0.378826 -0.808489 2.143 197 195 185
-0.274399 0.199516 1.375 163 157 159
-1.02495 -0.585227 2.236 146 141 139
0.0124375 -0.271784 1.032 10 21 19
0.302141 0.147403 0.878 38 25 14
0.258073 -0.0788914 0.824 231 230 234
0.100036 0.155778 1.384 65 61 50
0.279781 0.227077 1.106 24 16 4
-0.0952092 0.401006 1.156 158 153 149
-0.368817 0.294736 1.283 154 154 148
-0.117463 0.288748 1.275 152 149 146
0.354622 0.0603578 0.711 7 20 31
0.377345 0.280467 0.801 30 21 16
0.344982 0.266216 0.908 23 10 0
-0.463184 0.205326 1.384 165 161 162
-0.40958 -0.582371 2.158 153 140 144
0.346548 0.288951 0.924 33 14 1
0.236726 -0.166356 0.948 13 14 10
-0.555587 -0.168793 1.763 165 160 156
-0.083162 -0.488049 1.396 4 7 10
-0.497765 0.127442 1.473 161 161 161
0.345204 0.00144037 0.759 20 17 12
-0.2984 0.335845 1.242 151 150 154
-0.136589 -0.509956 1.432 5 11 11
-0.412268 0.225873 1.372 154 155 151
0.307744 -0.142473 0.707 162 162 162
0.310709 -0.170377 0.733 180 188 185
-0.333903 0.0624133 1.524 157 153 156
-0.750283 -0.761275 2.128 143 149 147
0.173188 0.0975315 1.357 38 39 30
-0.295463 0.275565 1.291 162 158 159
0.00828666 0.387838 1.156 140 139 141
0.335405 -0.0791555 0.762 89 93 86
0.117354 -0.288008 1.024 18 27 20
-0.641321 -0.387537 2.004 166 154 154
0.217553 0.424789 1.11 60 61 48
0.179829 0.0281707 1.222 37 21 14
0.242291 -0.216226 0.964 1 11 0
0.0972262 -0.418139 1.185 15 21 19
-0.504032 0.0388715 1.575 164 159 155
-0.716816 0.117965 1.505 156 155 157
-0.902116 -0.410604 2.071 153 153 153
0.0137836 0.00807377 1.567 66 59 51
-0.137362 -0.448471 1.491 4 11 3
-0.442814 0.0857259 1.498 152 144 143
0.283202 0.175761 1.027 28 19 2
0.355072 0.0655848 0.705 12 18 18
0.379072 -0.0332538 0.791 67 69 51
-0.258179 0.0761778 1.502 157 153 158
0.265002 0.0847084 0.961 44 25 8
0.164471 -0.0598856 1.156 46 28 17
0.3178 0.241682 0.989 24 15 10
0.24737 -0.249462 0.93 85 83 75
-0.848064 0.0136194 1.62 150 161 161
-0.0123345 0.196469 1.354 122 118 111
0.310401 0.28066 1.057 13 15 0
0.37477 0.405271 1.059 17 17 11
0.32467 -0.0431661 0.784 92 95 94
0.342332 0.0380382 0.75 18 20 28
-0.827362 -0.652005 2.253 143 136 128
0.271759 0.213448 1.11 19 18 3
0.278238 0.139841 1.009 42 23 10
0.209577 0.317347 1.21 56 54 42
-0.436843 -0.597862 2.189 150 141 132
0.332764 0.145393 0.676 25 18 12
0.24271 0.264882 1.27 55 52 38
0.164927 -0.386835 1.062 90 85 67
0.235622 0.428401 1.11 53 55 37
0.292278 -0.173061 0.766 172 172 172
0.229677 0.249913 1.278 51 49 41
0.233696 -0.317682 0.884 132 131 131
-0.09067 0.309283 1.249 158 151 145
0.311413 0.109615 0.764 40 28 12
0.206081 0.205508 1.327 57 53 46
-0.295335 -0.280841 1.859 100 96 87
-0.389609 -0.673691 2.204 155 143 141
-0.103182 -0.125753 1.686 61 59 49
-0.201988 -0.268462 1.62 17 18 12
-0.241064 0.0737336 1.502 154 150 153
-0.529512 -0.120868 1.734 164 159 155
-0.580971 -0.153572 1.753 160 157 154
-0.97788 -0.282329 1.953 147 152 159
-0.00667324 -0.0124208 1.579 69 60 53
-0.720435 -0.298027 1.911 161 161 155
0.0726083 0.407418 1.132 148 147 147
-0.872143 -0.252881 1.876 153 145 144
0.282763 0.119824 0.942 38 26 8
-0.586082 0.143536 1.466 150 158 157
-0.0218692 0.146187 1.4 126 123 120
-0.468538 -0.580439 2.204 153 144 147
0.307134 0.0818681 0.772 120 95 88
0.140542 -0.0664687 1.244 38 23 11
0.364913 0.337472 0.921 20 8 8
0.271444 0.354759 1.171 49 56 34
0.323161 -0.0386454 0.796 116 119 122
0.332103 -0.172848 0.686 214 227 222
-0.360725 0.392815 1.194 149 149 149
0.350241 0.275513 0.895 11 13 2
0.269742 0.110755 0.984 41 24 8
0.320537 -0.0769774 0.765 142 157 156
0.269567 -0.0528281 0.776 125 121 114
0.0267327 0.228744 1.324 127 125 117
-0.979728 -0.421218 2.057 160 164 159
-0.117223 -0.391072 1.513 4 8 1
0.192927 -0.0598879 1.027 31 24 14
0.270481 -0.268422 0.775 154 165 161
0.337069 -0.118637 0.723 111 111 111
0.165905 0.314529 1.222 65 62 46
-0.212802 0.350294 1.215 150 149 151
-1.1188 -0.588265 2.22 167 168 162
-0.640109 0.347415 1.262 139 148 158
0.320858 0.199592 0.928 38 29 12
0.248721 -0.0552108 0.811 152 148 149
0.195083 0.394416 1.137 78 71 61
0.340441 0.333487 0.994 16 14 2
-0.322904 0.355706 1.22 150 149 158
0.323618 0.0936476 0.709 25 17 3
0.319894 -0.012478 0.868 29 15 11
0.204321 -0.0872443 0.927 62 33 19
-0.292224 0.184389 1.396 162 157 153
0.314126 0.118257 0.78 41 32 13
0.235531 -0.285081 1.002 77 81 74
-0.0818292 -0.0254606 1.591 81 70 63
0.19753 -0.113784 0.96 64 20 0
-0.702983 0.0667243 1.567 162 163 152
0.0262915 0.343489 1.205 150 140 140
0.173814 -0.109384 1.053 0 4 0
0.13377 0.395569 1.135 143 142 142
-0.619859 -0.84767 2.181 146 146 150
-0.788855 0.0314991 1.591 152 156 151
-0.187298 0.395327 1.167 138 137 139
-0.0600149 -0.362715 1.336 3 7 0
-0.258135 0.407897 1.187 147 155 152
-0.722697 -0.302082 1.917 162 162 162
0.278862 0.319427 1.203 47 49 31
0.366016 0.220185 0.751 39 16 11
0.320435 -0.243514 0.72 184 191 185
-0.394372 -0.067247 1.664 160 157 152
0.330988 0.241144 0.931 23 13 11
-0.482889 -0.82433 2.204 150 151 142
0.279512 0.0442572 0.82 52 23 9
-0.0322943 -0.150794 1.575 36 41 31
-0.26174 -0.0898717 1.682 153 148 144
0.24839 -0.261085 0.832 136 136 140
0.286775 0.282248 1.22 45 47 31
0.348568 0.321817 0.95 10 14 7
0.193164 0.284672 1.257 60 58 48
-0.556462 0.25702 1.348 152 152 154
0.0684072 0.355743 1.187 150 149 149
0.295258 0.0937806 0.858 17 12 8
-0.712159 -0.0772277 1.705 155 154 154
0.0483096 0.419172 1.124 143 143 145
0.0514941 -0.0869342 1.412 38 33 29
0.050822 -0.415665 1.229 20 27 19
-0.419501 -0.589955 2.173 152 142 140
0.115979 -0.185821 1.012 16 16 18
0.0935234 -0.197162 1.037 6 7 3
-0.34415 0.335009 1.254 147 144 139
-0.635905 0.300775 1.291 147 155 154
0.0346304 0.0725063 1.477 72 63 56
0.221061 -0.324912 0.947 112 109 104
0.268964 -0.119653 0.921 125 122 106
0.193394 -0.378622 0.995 113 112 112
0.153635 -0.116944 1.044 0 7 1
0.332851 0.0821098 0.709 31 40 31
-0.186562 -0.489928 1.477 8 12 7
0.357829 0.251774 0.854 36 21 9
-0.51729 -0.031775 1.65 170 165 161
-0.664463 -0.00219282 1.616 149 157 156
-0.31687 0.260434 1.31 160 160 156
-0.538652 -0.607743 2.212 158 155 150
-0.128401 0.0181806 1.559 129 121 118
-0.226097 -0.460855 1.484 153 148 144
0.274091 0.137775 1.018 39 24 12
-0.803847 -0.797549 2.114 165 166 162
0.34895 -0.209077 0.684 204 212 211
-0.754703 -0.224083 1.865 152 152 156
0.0827314 -0.185964 1.05 6 7 3
-0.224201 0.128341 1.456 163 157 161
-0.286691 0.232579 1.359 164 158 162
0.215278 -0.320708 1.022 81 81 81
0.0950661 0.307078 1.232 108 104 97
-0.207774 -0.240054 1.624 28 29 20
-0.612619 0.360961 1.252 133 144 142
-0.490613 0.23613 1.354 152 155 154
-0.623409 -0.553086 2.181 163 161 149
-0.495031 0.028692 1.579 166 158 157
0.27308 0.0915649 0.951 36 28 16
0.3168 0.0795676 0.762 57 21 0
0.15612 -0.0791786 1.11 34 26 14
-0.238974 0.293816 1.27 162 160 152
-0.946547 -0.52984 2.173 159 157 164
0.271392 -0.0866998 0.774 161 161 155
-0.188335 -0.360511 1.551 8 12 7
0.273735 -0.24856 0.788 142 139 136
0.283743 -0.229985 0.813 126 127 123
0.303437 0.0150274 0.827 64 27 0
0.115631 0.365842 1.176 139 140 136
-0.540047 0.316464 1.278 145 156 152
0.28717 -0.227684 0.819 128 132 125
-0.114861 0.1209 1.452 161 155 159
-0.403484 0.398644 1.194 152 152 152
0.172361 -0.281342 1.024 13 14 10
0.33456 0.0635837 0.749 15 7 4
-0.47718 -0.460882 2.085 155 151 144
-0.548709 0.286918 1.324 143 147 142
0.0608462 0.227362 1.316 121 113 112
-0.309026 -0.235797 1.815 109 107 88
-0.119814 0.168914 0.434 35 29 31
0.178766 -0.0702031 1.083 43 29 21
-0.0196354 -0.480365 1.257 7 17 45
-0.984847 -0.22961 1.911 147 151 163
-0.265488 0.386986 1.194 147 144 141
0.281461 -0.0869716 0.744 137 148 148
-0.220016 0.0405927 1.543 161 155 157
0.270152 0.0346058 0.845 41 26 14
-0.0907162 0.356494 1.196 150 147 144
0.318532 0.119872 0.721 45 36 29
-0.723389 0.0667243 1.567 153 159 157
0.33054 -0.102159 0.74 114 118 111
-0.02022 -0.0983719 1.445 39 36 31
-0.44581 0.171625 1.422 161 159 151
0.109011 -0.0914911 1.254 27 16 7
0.107143 -0.134437 1.022 10 10 12
-0.588349 0.339283 1.27 147 161 163
0.363456 0.236443 0.802 33 26 7
-0.983659 -0.353945 2.017 149 153 146
-0.00317009 -0.214087 1.22 19 20 11
-0.315572 0.322765 1.254 154 153 153
0.221891 -0.126808 0.964 13 11 3
0.157808 0.4166 1.122 138 145 139
-0.208822 -0.543431 1.416 165 160 158
0.272155 0.314857 1.208 53 55 44
0.280368 -0.136582 0.924 100 96 89
-0.539073 -0.183439 1.794 164 158 160
0.0682545 0.244618 1.294 115 108 98
0.0676743 0.26133 1.283 113 112 112
-0.981984 -0.620521 2.181 164 164 168
-0.0159636 0.267161 1.291 125 124 124
0.331845 0.00290464 0.824 28 32 25
-0.0203179 0.109085 1.452 83 75 63
0.14463 -0.051001 1.262 31 17 11
0.332587 0.0851518 0.687 93 102 82
0.0802101 -0.241591 1.018 24 32 31
0.186403 0.039807 1.213 35 20 8
0.280219 -0.129441 0.83 139 137 129
-0.344811 0.337738 1.249 138 141 142
0.346741 -0.100226 0.726 109 110 106
0.197424 -0.362261 0.999 105 106 100
-0.296151 0.0945845 1.484 154 148 152
0.0122065 -0.176904 1.171 23 23 17
0.0541735 -0.0782936 1.422 37 33 24
-0.195953 0.401197 1.162 147 146 146
0.0991579 -0.298443 1.043 25 38 37
-0.18879 -0.519474 1.439 9 16 10
-0.208703 -0.192738 1.696 81 72 65
-0.582159 -0.15029 1.748 160 156 157
-0.0387924 -0.118942 1.528 49 47 37
0.14738 -0.00593052 1.286 20 11 4
-0.0405773 0.0468468 1.502 81 72 63
0.341433 -0.062444 0.77 90 103 98
0.285837 0.0368518 0.804 71 31 7
0.336566 0.165603 0.794 14 10 1
-0.818668 0.0866797 1.559 161 159 151
-0.739721 -0.743913 2.189 189 189 183
-0.283649 0.350323 1.222 153 151 158
0.335934 0.0859292 0.667 80 95 92
0.00296362 0.253628 1.297 119 114 110
-0.0938253 -0.327644 1.575 4 7 6
0.211991 0.356055 1.169 54 53 38
-0.469552 0.325584 1.273 138 139 133
0.0156358 0.400217 1.143 148 145 140
0.0687451 -0.243726 1.02 19 25 25
0.238828 -0.0474056 0.861 92 54 18
-0.197199 -0.0603449 1.624 138 127 133
-0.371772 0.291239 1.286 156 153 150
-0.629088 -0.138593 1.744 166 161 159
0.319263 -0.258746 0.72 230 240 247
-0.0775868 0.231335 1.339 128 123 121
0.140436 -0.355919 1.073 16 16 16
-0.238398 0.0502756 1.532 156 155 157
-0.154857 0.323719 1.242 146 145 149
-0.129758 0.171543 1.384 167 155 155
0.0690821 -0.224904 1.025 15 19 14
0.245795 -0.26674 0.837 138 137 137
0.250387 0.206525 1.267 40 41 30
-0.296586 0.396701 1.194 138 145 139
-0.725397 0.224313 1.39 142 156 147
-0.537442 0.220134 1.378 158 162 157
-0.0921886 -0.323205 1.591 6 6 8
0.140711 -0.154238 0.989 11 14 13
-0.492258 0.0108136 1.595 166 166 160
-0.0111138 0.333867 1.22 154 153 153
0.205056 0.39209 1.141 62 58 47
-0.631272 -0.832058 2.196 142 146 139
-0.0468044 0.38459 1.169 147 146 146
-0.0678112 0.281109 1.278 158 155 152
-0.00101528 -0.290791 1.046 25 29 24
0.241879 -0.0247263 0.852 48 33 21
-0.0175193 -0.486604 1.252 16 17 32
-0.621468 -0.582545 2.212 159 160 151
0.226233 0.23409 1.294 57 53 42
-0.0658419 0.245609 1.322 130 118 118
-0.761033 -0.0128771 1.637 145 148 149
-0.256199 0.383742 1.196 146 144 151
-0.358228 -0.37814 1.972 147 142 138
0.00959848 0.218261 1.339 129 125 118
-0.223801 0.333141 1.232 150 146 149
0.0378963 0.39766 1.141 145 146 142
-0.0151911 0.155364 0.413 46 41 51
-0.0323106 0.35844 1.196 144 143 143
0.379304 -0.0214123 0.831 46 43 38
-0.0760166 0.167763 1.39 160 151 146
0.304861 -0.283557 0.742 243 249 249
-0.912567 -0.208909 1.865 150 154 149
0.233011 -0.084515 0.898 106 38 5
0.234379 -0.148311 0.951 8 8 10
0.345742 0.275688 0.91 19 10 3
0.34932 0.241501 0.857 38 20 9
0.376749 0.399841 1.036 17 20 2
0.363071 0.271343 0.85 29 22 3
-0.78545 -0.764984 2.158 168 164 167
0.280891 -0.188416 0.828 132 134 123
0.24946 0.283539 1.252 50 49 34
-0.457719 0.248246 1.348 159 158 160
-0.758672 -0.648119 2.278 158 157 161
0.243668 -0.230334 0.951 6 15 6
-0.406963 -0.126147 1.729 170 166 169
0.242202 0.146994 1.141 26 12 6
-0.51378 -0.808855 2.261 170 170 166
0.280562 -0.295025 0.782 214 224 227
-0.927769 -0.361761 2.024 152 153 149
-0.587576 -0.0999492 1.714 168 167 167
-0.452586 0.187196 1.4 160 160 164
0.0254394 -0.326352 1.085 26 26 30
0.296812 -0.0925251 0.74 151 154 153
-0.359482 -0.0903526 1.691 161 160 160
0.172666 -0.081225 1.089 43 30 19
0.342571 0.332553 0.977 15 6 0
0.293276 0.220084 1.039 29 14 2
0.331941 -0.241967 0.712 203 211 208
0.0102052 0.159068 0.407 111 83 84
-0.275206 0.386986 1.194 150 147 144
-0.149032 0.322215 1.244 148 144 147
-0.623889 0.201726 1.406 156 153 150
-0.567199 -0.505089 2.143 166 161 159
0.362858 -0.088649 0.709 105 117 107
-0.031268 0.240211 1.316 124 121 118
-0.410569 0.401856 1.192 147 147 141
-0.0405949 -0.173908 1.599 45 40 36
0.336796 -0.0697805 0.768 105 114 105
0.0920124 -0.190779 1.039 6 13 5
-0.226616 0.373385 1.194 149 150 146
-0.069794 0.203529 1.357 128 119 122
0.121963 -0.242258 1.007 9 12 11
0.228187 -0.169978 0.951 7 11 4
-0.107088 0.0593433 1.509 143 135 134
0.259539 0.09247 0.994 40 21 15
0.245461 -0.124459 0.958 99 97 87
-0.524014 -0.271198 1.876 173 164 167
-0.13708 0.400506 1.16 153 149 142
0.353925 -0.116831 0.705 98 107 100
-0.158031 -0.0631816 1.629 139 132 126
0.00698114 0.293553 1.26 153 143 141
-0.669028 0.328942 1.278 153 160 166
0.167216 -0.0583054 1.162 47 30 16
0.230484 -0.313674 0.923 117 119 108
0.0773252 0.281416 1.27 124 117 111
0.264238 -0.256891 0.802 153 152 163
0.342566 0.183354 0.787 21 15 19
-0.904714 -0.771344 2.166 164 167 166
-0.0478805 0.186548 1.362 130 119 123
0.328953 0.366496 1.114 84 86 77
