ply
format ascii 1.0
comment Created by Open3D
element vertex 1345
property double x
property double y
property double z
property uchar red
property uchar green
property uchar blue
end_header
-0.565315 -0.29051 1.923 166 158 155
0.249973 -0.223784 0.744 188 188 190
-0.643706 0.178098 1.456 147 149 140
0.196155 -0.223828 0.877 135 126 129
-0.384052 0.263429 1.336 161 158 153
0.21414 -0.0801943 0.772 147 145 152
-0.930505 -0.268788 1.947 160 160 154
-0.331075 -0.177734 1.659 23 29 27
0.187825 -0.301213 0.816 191 190 190
-0.0214318 0.199081 1.372 80 73 63
-0.0827357 -0.470304 1.252 20 55 86
0.229041 0.246116 1.079 25 14 5
0.17423 0.192782 1.171 33 22 13
0.0155676 -0.246319 1.017 23 22 26
-0.132153 -0.11091 1.487 40 38 30
-0.786043 -0.758162 2.189 149 143 147
0.112148 -0.0124777 1.122 53 31 21
-0.147238 0.14148 1.445 143 138 136
-0.106562 0.159986 0.429 119 126 120
-0.851044 -0.783967 2.078 147 144 139
-0.33464 -0.369412 1.505 24 24 18
-0.434115 0.375559 1.22 146 157 153
0.237725 0.158278 0.952 41 27 10
-0.391623 0.0262548 1.587 157 152 150
0.174346 -0.0771223 0.897 96 44 33
0.262172 0.356185 1.139 78 83 71
-0.627842 -0.210141 1.876 164 159 157
-0.827623 -0.327687 1.997 161 157 150
-0.136303 0.153866 1.429 148 141 135
0.173708 -0.192691 0.941 43 38 46
0.0148971 -0.334644 1.089 34 42 29
0.0781353 -0.333945 1.081 7 10 9
-0.582364 0.344769 1.275 136 147 145
0.0712309 0.0579128 1.31 25 15 15
0.315004 0.283139 0.878 27 13 9
0.166868 -0.0973343 0.937 76 26 0
-0.479517 0.194355 1.419 156 155 155
-0.03602 0.0546846 1.516 67 58 51
0.341229 0.280558 0.805 34 16 7
-0.0175834 0.153113 1.422 74 63 54
-0.663337 -0.292323 1.935 169 164 162
0.33482 0.249923 0.775 32 23 2
-0.497638 0.0643381 1.571 155 151 152
0.312779 -0.107943 0.678 118 119 113
-0.221155 0.379849 1.196 156 146 146
0.329946 -0.0625195 0.653 125 132 124
-0.0738838 -0.0941711 1.351 12 9 4
-0.490267 -0.0541272 1.677 172 165 159
0.256202 -0.254234 0.741 188 192 187
-0.15825 0.287054 1.286 148 139 144
0.290754 0.0779179 0.637 8 18 21
0.222591 0.144969 0.988 41 24 10
0.140298 0.162325 1.26 42 39 23
-0.557459 0.330245 1.275 151 149 158
-0.283619 -0.0452004 1.65 133 127 131
-0.0194239 -0.219084 1.029 17 24 32
0.312319 -0.0415098 0.855 43 47 40
-0.726659 -0.697468 2.294 146 143 138
0.168872 -0.00597066 0.957 26 14 14
0.136272 0.309571 1.242 61 59 51
-0.344354 -0.434786 1.494 88 79 84
-0.0535413 -0.24705 1.041 30 35 25
0.23067 0.27246 1.13 39 32 24
-0.893228 -0.652464 2.181 160 164 159
0.346033 0.231273 0.71 26 16 2
-0.33815 -0.33615 1.532 49 45 38
-0.601529 0.200375 1.429 159 163 158
0.260876 -0.106162 0.769 113 121 120
-0.431316 0.37033 1.229 144 152 151
0.240525 0.186961 0.989 38 18 8
-0.193974 0.251424 1.33 152 145 139
-0.160149 0.0381804 1.547 78 67 58
0.27496 0.111949 0.68 4 10 10
-0.343384 -0.0073924 1.603 141 142 133
-0.0592513 0.245052 1.319 123 116 108
-0.7529 -0.579508 2.228 143 144 140
0.315353 0.0427 0.706 5 5 1
-0.556137 -0.359103 1.991 154 150 151
-0.901188 -0.623303 2.166 160 164 159
-0.0252348 -0.0424585 1.463 35 31 20
0.137581 -0.179132 0.967 5 15 18
0.14945 0.362381 1.171 52 53 40
-0.0323097 -0.119011 1.128 8 10 1
0.215719 -0.193653 0.816 144 144 140
0.31593 0.216292 0.772 30 24 9
0.115185 -0.147201 0.964 9 15 15
0.203316 0.297923 1.244 50 44 31
0.343385 0.256988 0.755 38 21 5
0.268995 -0.0871479 0.778 91 96 84
0.0632499 -0.00589363 1.278 36 21 9
0.34946 0.222015 0.685 20 18 8
-0.467236 0.333102 1.278 152 148 149
0.16679 -0.195353 0.954 11 13 4
0.299987 -0.231198 0.697 230 243 252
-0.848576 -0.0186053 1.673 151 149 156
-0.609665 0.0545253 1.583 168 160 157
-0.511647 0.24543 1.369 153 165 157
-0.687204 0.0162557 1.62 161 168 162
0.282069 0.203872 0.869 42 33 14
-0.350185 -0.18337 1.686 77 67 53
0.286654 0.0138281 0.761 17 25 26
0.335889 -0.260871 0.713 250 255 251
-0.313656 0.0435506 1.559 150 144 148
-0.288065 0.179228 1.409 162 152 152
0.212754 -0.117621 0.852 135 130 126
0.261277 -0.0498086 0.809 98 95 90
0.29154 -0.12583 0.704 122 115 105
0.206421 -0.135225 0.816 140 140 142
0.288027 -0.0777124 0.785 105 100 96
-1.05088 -0.690522 2.092 160 166 164
-0.483865 0.190539 1.425 161 156 154
-0.0931375 -0.07956 1.445 10 14 7
-0.461307 0.38366 1.208 147 146 146
0.251634 -0.152335 0.721 190 194 187
0.140032 -0.323485 0.921 138 131 123
-0.602919 0.115286 1.502 148 149 136
0.165237 -0.245033 0.954 44 40 33
-1.00668 -0.791703 2.037 151 168 154
0.105147 -0.030298 1.106 58 34 20
0.307704 -0.19194 0.667 231 236 245
0.0344724 -0.0605765 1.291 27 16 7
0.000743919 0.414787 1.132 138 136 124
-0.469345 0.284534 1.313 154 153 153
0.338002 0.217282 0.725 10 11 0
0.333399 -0.246075 0.691 250 255 251
0.000885869 -0.0829938 1.348 31 17 11
-0.260417 0.359157 1.225 154 150 151
0.196571 -0.0204703 0.848 28 15 4
-1.03486 -0.585883 2.158 156 153 150
0.182396 0.427085 1.116 55 60 46
-0.3484 0.333039 1.262 153 152 152
0.259411 0.428349 1.096 53 51 39
-0.104133 0.169332 1.403 125 114 109
0.316899 -0.036113 0.827 55 55 59
0.27241 -0.0180773 0.803 16 15 15
0.0313895 -0.369332 1.108 12 11 18
-0.265916 0.35319 1.232 151 147 140
-0.138106 0.389854 1.185 152 149 144
0.206772 -0.157372 0.807 166 156 156
-0.282661 -0.195728 1.629 6 15 8
-0.524639 -0.0738417 1.691 168 162 164
-0.584236 0.250433 1.372 158 158 160
0.233428 0.185448 1.007 19 17 7
-0.962199 -0.281462 1.947 159 160 156
-0.298079 0.000435861 1.612 140 130 128
-0.468278 0.251561 1.366 158 158 160
-0.555387 0.242558 1.378 158 158 152
0.0754572 -0.382068 1.068 97 91 93
-0.0576197 0.372064 1.196 144 143 143
-0.156232 0.404979 1.162 148 151 150
-0.949464 -0.362193 2.064 152 153 149
0.236168 -0.205792 0.758 174 173 173
-0.874167 -0.176931 1.848 159 153 157
-0.41805 0.282397 1.313 164 159 155
-0.0864808 0.156372 0.423 154 150 155
0.316683 0.400307 1.055 10 29 19
0.175365 -0.286492 0.839 202 201 210
-0.878518 -0.761105 2.071 145 145 141
-0.478423 0.362675 1.237 153 157 150
-0.387507 0.347901 1.249 156 159 162
-0.149956 0.418817 1.143 158 159 155
0.163152 0.156993 1.16 26 18 4
-1.04813 -0.678329 2.107 165 167 154
-0.183 0.398376 1.176 151 150 150
-0.193674 -0.442974 1.39 5 5 7
-0.956055 -0.784696 2.071 158 155 150
0.303371 0.390822 1.081 62 70 59
0.347195 -0.00100007 0.737 61 55 40
-0.651229 0.378899 1.244 146 156 159
0.155985 -0.178576 0.964 6 10 3
0.0861855 -0.269581 1.03 13 13 7
-0.215993 -0.147022 1.71 3 11 10
0.237716 -0.115898 0.759 150 149 151
-0.363312 -0.468889 1.502 157 155 145
-0.674955 0.23911 1.384 147 157 160
0.0748564 -0.13681 0.991 5 12 6
0.270481 0.024515 0.786 15 26 26
0.195987 0.273482 1.262 54 52 40
0.085453 -0.134106 0.983 9 9 9
0.311387 -0.0609525 0.767 95 96 87
-0.169273 0.108266 1.473 152 142 142
-0.867704 -0.611675 2.253 156 161 151
0.115346 0.385289 1.154 102 96 98
-0.540855 0.33647 1.275 148 154 154
0.312894 -0.061298 0.741 115 120 108
-0.289946 0.110963 1.477 157 149 146
-0.465658 0.194355 1.419 164 162 152
-0.296243 -0.464134 1.449 7 11 4
0.236355 0.30589 1.196 40 42 26
-0.583733 0.219561 1.403 165 161 152
-0.889378 -0.661982 2.189 165 164 168
-0.952991 -0.606921 2.196 162 164 153
0.280753 0.0369736 0.779 9 13 6
-0.0662902 -0.0021589 1.591 54 45 36
0.25001 0.0603293 0.786 58 22 1
-0.0432907 -0.23643 1.039 19 19 21
-0.175045 0.233409 1.351 129 120 115
-0.77179 -0.793784 2.189 150 147 142
-0.678025 0.107335 1.528 161 161 155
0.140059 0.337606 1.205 62 60 48
-0.913568 -0.0586192 1.729 152 155 158
0.165148 0.229878 1.294 44 42 30
-0.879836 -0.612139 2.228 159 163 158
0.273745 0.0684972 0.763 15 22 26
-0.1848 -0.0668832 1.655 73 65 53
0.286931 0.204522 0.854 45 27 16
0.343609 0.00952822 0.717 70 65 75
0.321923 -0.0517871 0.726 103 104 95
-0.808039 -0.168419 1.821 162 152 152
0.311178 -0.273943 0.723 250 255 254
0.322712 -0.0891863 0.678 124 126 115
0.0898125 0.360212 1.189 107 112 102
-0.0219576 0.298653 1.273 121 116 114
-0.400632 0.284924 1.305 158 155 152
-0.844775 -0.714948 2.166 157 150 142
-0.147952 0.3304 1.252 158 153 151
-0.333043 -0.323498 1.543 26 25 27
-0.610753 0.399387 1.208 148 155 159
0.0826711 -0.147651 0.988 14 13 15
-0.557182 0.36212 1.242 144 150 161
-0.86517 -0.348586 2.024 158 155 152
0.182319 0.0297549 0.954 45 30 20
0.297211 -0.0958779 0.738 111 113 102
0.303817 0.162861 0.714 32 22 8
0.231142 0.213732 1.041 47 14 13
0.282902 -0.0495111 0.826 48 51 52
0.207297 -0.0935159 0.789 162 162 156
0.20754 -0.140822 0.81 150 150 144
0.29186 0.153507 0.785 40 31 14
-0.0424113 -0.456661 1.265 5 18 27
-0.638654 0.0903412 1.535 157 154 151
-0.518725 0.300859 1.319 160 161 155
0.275214 -0.281646 0.737 206 206 208
0.316636 0.346999 0.947 11 16 6
0.0216753 0.159379 1.416 68 62 49
0.230248 0.275998 1.137 40 36 27
-0.388519 0.312167 1.286 159 154 150
-1.02064 -0.704664 2.114 151 155 150
-0.686761 -0.735267 2.261 166 162 153
-0.42028 0.236518 1.369 164 162 150
0.16593 -0.239824 0.958 23 18 16
0.27703 -0.0423994 0.845 42 44 28
0.100042 0.30602 1.244 67 60 52
-0.233632 -0.0259247 1.62 96 96 92
-0.810777 -0.104537 1.744 158 160 149
-0.586182 0.412245 1.194 142 155 152
-0.113516 -0.0906854 1.435 30 23 13
-0.00354947 -0.0663186 1.366 15 11 0
0.122344 0.0420956 1.167 26 17 12
0.278196 -0.0482835 0.828 58 61 60
-0.26814 0.16503 1.425 161 150 154
-0.228975 0.0996154 1.487 156 147 150
0.114787 0.000305536 1.13 44 27 13
-0.530265 0.419643 1.182 144 158 149
0.304304 0.311554 0.947 16 13 0
-0.649895 0.158281 1.47 151 152 146
-0.371295 0.0703576 1.535 159 153 155
0.149549 -0.318217 0.906 134 132 120
0.0673972 -0.160835 1 17 17 19
0.266455 -0.217468 0.723 188 194 194
-0.0516772 0.115222 1.47 73 61 59
-0.264 -0.524743 1.403 6 13 5
-0.386729 0.0979146 1.498 165 157 156
-0.558231 -0.0429791 1.668 167 159 156
-0.013441 -0.119992 1.087 6 7 3
-0.30323 0.200822 1.384 153 149 142
0.202928 -0.066384 0.787 145 145 139
-0.0908639 0.195041 1.375 113 109 102
-0.561628 0.369828 1.234 146 154 151
-0.0348589 -0.397743 1.217 22 21 30
0.330175 0.301822 0.858 23 17 4
0.25746 0.298877 1.073 23 20 6
0.143989 0.0528737 1.114 37 24 13
-0.0792394 -0.00733706 1.591 57 47 47
0.21755 -0.0379131 0.808 132 129 124
-0.538831 0.362675 1.237 143 146 147
0.288505 0.106278 0.621 85 102 105
-0.0941545 0.270513 1.297 126 121 119
0.157212 -0.090943 0.934 105 29 0
-0.449607 0.385988 1.203 139 147 146
-0.583897 -0.213875 1.882 170 164 166
0.31561 -0.0872696 0.689 115 123 110
-0.757537 -0.800908 2.189 145 143 150
-0.0189436 -0.0145442 1.532 30 28 16
-1.02002 -0.763594 2.024 153 150 147
0.0175449 -0.15651 1.036 9 9 9
0.13737 0.144995 1.252 35 24 15
-0.657318 -0.599129 2.261 150 143 137
-0.28232 0.281322 1.308 156 153 150
0.244006 0.144444 0.923 48 29 14
0.300995 0.136497 0.59 6 5 12
-0.22804 0.275794 1.302 154 149 147
-0.403976 0.0611524 1.555 156 156 150
0.271615 -0.284045 0.737 214 219 224
-0.246859 0.348584 1.237 144 140 133
0.343975 0.249277 0.743 36 23 10
0.279945 0.0984952 0.636 33 47 38
-0.0285358 -0.34357 1.124 9 10 6
-0.501418 -0.0262768 1.642 163 157 159
0.226991 -0.0476529 0.795 126 123 118
0.0864628 0.101272 1.348 42 37 35
-0.285074 0.088399 1.502 160 150 150
0.352216 -0.280159 0.73 250 255 251
0.294933 0.308707 0.972 9 11 2
-0.930883 -0.519624 2.22 159 154 152
-0.270725 -0.241976 1.637 6 11 1
0.322011 0.0733866 0.652 40 62 46
0.204005 0.246053 1.189 38 40 27
0.267858 -0.180307 0.702 212 226 232
0.0294584 0.0668741 1.459 53 52 37
0.139919 0.0936911 1.171 40 20 10
0.0226041 -0.137965 1.036 5 12 4
-0.109666 -0.390361 1.257 5 15 31
-0.641336 0.180467 1.456 145 149 144
-0.747132 0.165795 1.473 155 161 159
-0.847662 -0.716335 2.078 144 146 137
-0.588541 -0.037753 1.677 157 152 150
0.332472 -0.0480073 0.658 126 130 125
-1.00321 -0.384128 2.092 146 150 162
-0.640488 0.277995 1.354 151 162 160
-0.632946 -0.0929173 1.739 169 167 159
0.241311 -0.00253663 0.85 67 20 0
-0.507393 0.365812 1.234 143 147 142
-0.264867 0.216942 1.372 160 156 157
-0.0204633 0.251907 1.31 120 112 111
0.130251 0.106216 1.205 24 15 10
0.249302 0.2539 1.039 18 10 0
0.319858 -0.274322 0.724 250 255 251
-0.243509 -0.402895 1.502 9 10 6
0.0290948 -0.121725 1.027 13 21 10
0.286066 0.143537 0.722 33 29 18
0.240534 0.35986 1.169 60 53 36
-0.703194 -0.0295659 1.677 169 168 170
0.323659 0.203346 0.752 14 10 0
-0.823984 -0.411992 2.078 162 159 154
0.124578 0.293122 1.267 59 56 42
-0.0598502 0.160168 0.415 52 45 58
-0.843041 -0.116819 1.758 154 160 158
0.191769 -0.165065 0.932 122 115 107
0.246776 -0.204567 0.749 185 185 189
-0.0953272 0.428815 1.135 144 144 146
-0.0208774 -0.336268 1.106 12 24 16
-0.0940069 -0.199825 1.098 21 27 25
0.324994 0.033319 0.702 0 5 10
0.265134 -0.275195 0.739 214 214 218
0.20839 0.00296104 0.84 79 29 6
-0.00274655 -0.142481 1.057 6 9 8
-0.823108 -0.557348 2.212 158 153 149
-0.369925 0.162306 1.442 168 161 155
-0.988283 -0.223063 1.882 150 158 155
0.332744 0.251213 0.779 33 26 9
-0.542909 0.171342 1.459 162 158 159
0.262035 0.186501 0.923 44 29 17
0.331127 -0.0598393 0.647 124 126 117
0.215886 -0.178768 0.797 171 172 168
-0.390244 0.211623 1.381 156 146 144
-0.737007 -0.67397 2.303 139 138 140
-0.467923 -0.0827769 1.705 168 160 159
-0.577055 -0.418755 2.078 159 151 150
0.179835 -0.171253 0.941 90 77 64
-0.453169 0.123564 1.484 159 153 155
-0.858827 -0.214444 1.887 159 160 156
-0.751255 -0.681482 2.278 141 139 127
-0.583344 -0.745424 2.204 164 156 153
0.210915 -0.275633 0.774 223 222 231
-0.287207 0.036124 1.567 144 136 135
0.268574 -0.122172 0.752 107 113 111
0.272138 -0.121035 0.745 113 119 119
-0.335501 -0.340937 1.52 39 40 29
0.244664 -0.291496 0.75 194 187 196
-0.226819 -0.433469 1.473 5 6 2
-0.481148 0.416324 1.189 138 145 137
0.266578 0.101705 0.717 13 13 7
0.26508 -0.122822 0.756 102 106 101
-0.812955 -0.734664 2.204 156 156 150
-0.045456 -0.0784588 1.425 27 28 22
-0.39132 0.0636829 1.555 167 163 166
0.243411 0.16002 0.944 41 29 9
-0.114729 0.211548 1.366 125 116 119
-0.389809 0.415796 1.182 152 152 148
-0.271688 0.365509 1.213 145 145 141
-0.520632 0.2306 1.387 145 146 137
0.306782 -0.135092 0.665 159 162 163
-0.702898 0.114795 1.528 161 160 160
0.272003 -0.230305 0.719 190 198 197
-0.680338 -0.140978 1.774 162 165 164
0.11235 -0.354394 1.009 105 103 95
0.0299597 -0.421471 1.122 88 89 80
-0.814874 -0.470215 2.143 173 163 161
-0.441055 0.0441093 1.579 157 149 148
-0.77235 -0.696001 2.253 146 143 138
-0.0929158 -0.179082 1.225 24 20 9
-0.309002 0.361662 1.22 146 143 138
0.316704 -0.132451 0.652 143 155 157
0.282524 -0.144287 0.716 137 137 137
-0.0392835 -0.295169 1.068 12 17 22
-0.784775 0.0320733 1.62 143 148 153
-0.303326 0.272335 1.316 165 156 151
0.308947 -0.188118 0.665 222 226 238
-0.622232 0.237371 1.387 156 165 156
0.215387 0.0757704 0.91 33 22 15
0.209016 0.115811 1 35 24 15
0.105186 0.0416776 1.21 37 22 12
-0.0706025 0.279766 1.291 119 116 111
0.161269 -0.266839 0.977 106 97 100
-0.526114 0.304458 1.316 154 154 148
0.145701 0.342919 1.203 59 57 36
-0.687912 0.307333 1.31 144 157 154
-0.950084 -0.487406 2.173 156 157 148
-0.558656 0.344228 1.273 145 151 149
-0.33938 0.368089 1.215 151 155 148
-0.130401 0.252063 1.322 128 119 122
0.226619 -0.225833 0.776 168 168 168
-0.949132 -0.528551 2.212 152 154 141
0.226517 -0.0708708 0.78 169 170 183
0.208541 0.364287 1.171 58 49 42
0.335003 0.305564 0.849 31 17 2
0.283895 0.37534 1.108 50 53 35
0.325498 -0.0356017 0.786 58 66 55
0.339775 -0.258254 0.709 250 255 251
-0.378934 0.310797 1.289 157 153 154
-0.789815 -0.738946 2.261 177 177 173
0.264129 0.242919 0.981 27 18 9
0.349129 -0.280543 0.731 250 255 251
-0.689001 -0.135204 1.774 166 166 160
-0.181868 0.0429919 1.539 91 92 83
-0.599116 -0.276258 1.911 170 162 161
-0.293736 -0.410141 1.484 6 10 3
0.152002 0.145762 1.176 28 17 8
0.0233894 0.303805 1.26 117 109 106
0.228549 0.245719 1.085 28 14 6
-0.218966 0.162369 1.422 158 153 151
0.323405 -0.152448 0.638 229 251 252
0.275952 0.343807 1.077 29 27 15
0.162302 -0.263377 0.895 131 129 117
-0.388677 -0.195828 1.774 97 90 80
-0.257266 0.35633 1.229 153 146 140
0.346908 0.240055 0.719 28 23 19
-0.455215 0.158706 1.452 155 151 154
0.267469 0.161441 0.854 37 30 20
-0.245779 -0.354842 1.516 3 7 2
-0.357993 0.211164 1.378 149 143 145
-0.362636 -0.103038 1.719 129 122 114
-0.22521 -0.206931 1.655 4 8 3
-0.77399 -0.23819 1.905 156 152 155
0.337686 -0.247644 0.686 250 255 251
-0.197112 -0.0755518 1.668 68 61 53
0.0487118 -0.360444 1.092 7 15 12
-0.648927 -0.163457 1.799 165 161 162
0.27945 0.100469 0.642 25 26 17
-0.400642 -0.0915815 1.714 149 140 133
-0.25518 -0.320987 1.543 6 10 3
-0.711352 0.125646 1.509 147 155 144
-0.979231 -0.19311 1.859 153 156 155
-0.486285 0.431642 1.178 160 166 166
0.343049 -0.0171632 0.711 88 88 92
-0.228737 0.342545 1.237 152 149 146
-0.153828 0.159717 1.419 150 140 138
0.18059 -0.0222626 0.864 49 23 12
-0.605647 -0.754448 2.22 168 160 159
0.130325 -0.345579 0.916 128 124 115
0.278607 -0.231717 0.709 199 198 209
0.0835123 0.246131 1.302 67 61 46
0.298761 0.144428 0.599 0 6 4
-0.0870271 0.163076 0.419 29 41 31
0.306619 -0.184342 0.667 226 223 242
-0.0183702 0.383066 1.176 153 150 147
0.2701 0.115716 0.696 6 9 8
0.246272 0.00158269 0.834 37 9 6
0.172664 0.222661 1.242 40 44 23
0.230729 0.110796 0.918 41 27 12
-0.553245 -0.532987 2.143 157 149 146
0.306777 -0.0560426 0.804 61 59 66
-0.528208 -0.109897 1.739 174 166 165
0.168355 -0.135769 0.972 33 33 35
0.282759 -0.0140866 0.799 7 15 14
-0.670694 -0.709148 2.32 165 156 159
0.306046 -0.273564 0.722 250 255 254
-0.168058 0.14588 1.442 152 143 150
0.18362 0.0628439 0.986 43 28 16
0.266455 -0.153934 0.723 144 143 150
-0.554939 0.364689 1.237 148 155 161
0.144087 0.206437 1.333 48 47 32
-0.526011 0.0315783 1.595 163 158 156
-0.415047 0.38859 1.205 141 139 131
0.197311 -0.154901 0.944 105 101 90
-0.982156 -0.216938 1.882 159 159 155
0.32575 -0.279034 0.724 250 255 251
0.10539 -0.169507 0.975 7 10 11
-0.461384 -0.199802 1.81 125 116 121
-0.233784 0.416324 1.162 143 145 129
-0.62137 0.38233 1.229 142 154 158
0.182758 0.269015 1.27 48 48 42
0.308523 0.262057 0.884 36 22 7
-0.0855143 0.347411 1.205 153 147 149
0.307318 0.0521078 0.725 4 7 8
0.218711 -0.256579 0.766 158 159 155
-0.197077 -0.117871 1.691 46 47 43
0.152079 0.209827 1.327 42 44 28
-0.267518 0.266516 1.319 155 150 146
0.340495 -0.256178 0.694 250 255 251
0.312118 -0.0538492 0.791 78 74 75
0.141099 0.0856277 1.165 41 24 10
-0.0518468 -0.233497 1.041 15 14 21
0.16757 0.0163121 0.986 45 34 25
-0.543649 0.344667 1.267 150 150 152
-0.0112851 -0.186141 1.051 10 10 10
0.361193 0.26749 0.708 35 24 17
0.280216 -0.1904 0.693 215 225 239
0.208802 -0.254001 0.785 146 145 149
-0.0326486 0.274497 1.286 119 115 108
-0.815944 -0.0610775 1.719 155 161 163
-0.325303 0.259495 1.327 163 158 154
0.257266 0.0887205 0.777 109 82 85
0.151519 -0.229183 0.986 3 11 8
-0.462258 0.0134428 1.599 163 154 159
-0.353791 0.344662 1.252 158 155 152
-0.491044 0.340619 1.275 150 156 154
-0.528256 -0.145428 1.758 164 160 163
0.335398 0.310073 0.85 16 15 0
0.109752 0.408498 1.135 151 151 153
-0.128081 -0.464 1.257 13 18 27
0.207526 0.351879 1.187 61 51 37
-0.461242 0.379326 1.213 137 141 136
0.287094 -0.217275 0.696 245 248 251
-0.556975 0.297354 1.313 151 154 155
-0.404148 -0.103638 1.729 132 123 118
0.315384 -0.0316588 0.852 40 49 40
-0.663444 -0.549743 2.196 153 150 145
0.0448198 0.15279 1.419 63 57 42
0.227572 -0.13039 0.75 153 152 152
0.258546 0.226261 0.978 27 15 0
0.0586677 -0.264784 1.018 11 18 10
0.0434959 -0.246755 1.012 24 26 32
-0.260813 0.240004 1.351 165 154 158
0.281367 0.0715674 0.719 23 37 26
-0.965815 -0.73319 2.107 156 162 162
-0.331623 -0.475924 1.449 61 45 54
0.0505823 0.174172 1.387 69 59 45
0.0415316 0.0791233 1.466 52 43 34
-0.367628 0.113597 1.48 164 158 160
-0.463729 0.416324 1.189 154 155 142
0.168177 -0.0541799 0.88 98 46 24
0.242263 0.264207 1.06 20 11 2
-0.109975 0.391633 1.173 148 146 138
0.309485 -0.083114 0.711 114 116 107
0.139899 0.353811 1.187 54 56 38
-0.298822 0.380115 1.203 150 150 144
0.0849562 0.201618 1.359 58 53 49
-0.00281411 -0.103689 1.083 7 11 4
0.127254 0.229503 1.316 60 54 41
0.191988 0.0967379 1.022 41 26 16
-0.434601 0.234804 1.372 163 156 150
0.00600046 -0.325751 1.083 12 11 13
0.180045 0.417343 1.124 59 54 50
-0.567601 -0.0630203 1.696 167 166 168
0.246485 -0.0740683 0.787 174 182 181
0.0886883 0.321806 1.227 65 62 48
-0.405642 -0.0623143 1.677 167 159 156
-0.776018 -0.699668 2.253 143 144 138
-0.246818 -0.0180159 1.62 128 116 114
0.0141858 -0.279851 1.037 18 23 28
0.0308555 0.242353 1.316 68 66 56
0.133311 0.363246 1.18 64 58 45
0.285286 -0.125696 0.723 104 103 105
0.33054 0.224186 0.74 29 24 4
0.182715 -0.223745 0.888 135 127 124
0.0839382 -0.134242 0.984 9 8 8
-0.740031 0.185588 1.459 152 155 156
0.238921 -0.235693 0.755 172 171 173
-0.246165 0.281067 1.297 157 152 148
0.202812 -0.144569 0.927 114 106 94
0.187754 0.112834 1.064 33 23 11
0.209001 0.0563949 0.908 21 14 8
-0.448316 0.172049 1.445 161 158 153
0.218057 -0.29061 0.777 233 230 251
-0.280697 -0.193551 1.633 8 15 9
0.282373 0.0776637 0.69 101 112 110
0.238288 -0.281633 0.753 225 231 231
-0.0556496 0.00558014 1.583 55 46 39
-1.04559 -0.63239 2.173 163 172 163
-0.258504 0.146588 1.449 168 160 159
-0.733352 -0.334187 1.997 160 160 156
0.0462061 0.301369 1.267 103 96 88
-0.129817 -0.479218 1.254 12 20 37
-0.653648 -0.0638749 1.719 158 164 162
0.230623 -0.111749 0.756 156 152 157
-1.02989 -0.755239 2.037 159 161 152
-0.177071 0.0156837 1.563 78 68 56
0.0226041 -0.132907 1.036 9 14 4
-0.0089857 -0.406195 1.201 15 18 17
0.264981 -0.195204 0.719 188 194 194
-0.560996 -0.125045 1.753 160 157 152
-0.784197 0.141794 1.498 156 162 162
-0.40044 0.164652 1.442 152 143 148
0.263196 -0.234051 0.727 187 187 187
-0.145723 0.43218 1.139 151 150 152
0.339886 0.0095548 0.719 52 46 52
-0.598092 -0.127898 1.753 167 164 159
-0.185628 -0.480042 1.348 7 7 1
0.0415665 0.240211 1.316 65 58 48
-0.0545499 -0.446654 1.26 14 26 58
-0.0967585 -0.0810045 1.429 13 14 10
-0.880615 -0.421576 2.092 163 157 161
-0.0632279 0.160168 0.415 47 41 56
0.188363 0.193388 1.13 21 17 8
-0.617926 0.0470336 1.591 166 170 163
-0.0682805 -0.0688481 1.52 45 41 32
-0.285161 -0.0876008 1.691 120 113 103
-0.128591 -0.432987 1.262 14 15 28
0.302418 -0.235611 0.7 243 254 252
-0.673365 -0.0266288 1.664 168 164 165
-0.249809 0.284628 1.294 150 146 147
-0.348602 -0.00478379 1.603 136 132 133
0.0518859 -0.209496 1.015 6 7 3
-0.32244 0.39891 1.189 153 153 149
-0.877118 -0.694135 2.212 184 180 183
0.30169 -0.252485 0.709 250 255 251
0.253956 0.248524 1.017 28 13 3
0.230248 0.383314 1.137 70 72 56
-0.11374 -0.138962 1.381 37 37 41
0.0703627 -0.392171 1.044 124 121 118
-0.151464 0.401711 1.169 157 148 153
-0.142727 0.331803 1.242 155 151 152
-0.179781 0.39397 1.18 146 147 141
-0.468409 0.393164 1.201 141 147 145
-0.192242 -0.509408 1.333 17 8 3
0.193783 0.0895041 0.997 41 25 20
0.166353 0.156451 1.156 24 18 3
-0.442994 0.391209 1.201 136 141 129
0.269798 -0.113606 0.752 110 111 105
0.0785554 -0.121414 0.997 8 8 8
-0.527633 0.448281 1.147 149 155 153
-0.00102596 -0.159682 1.057 13 14 5
-0.947815 -0.684189 2.136 158 148 146
0.286686 -0.23864 0.709 206 211 216
0.0565447 -0.325931 1.072 14 21 25
0.147118 0.0190069 1.046 43 29 21
0.202598 -0.217373 0.874 139 132 124
-0.75301 -0.71687 2.261 148 141 133
-0.490572 0.139427 1.473 161 152 157
0.246542 0.221499 1.007 37 24 13
-0.970864 -0.542596 2.196 158 153 149
0.198319 0.380421 1.145 49 50 37
-0.35503 -0.406697 1.498 138 131 121
-0.491932 0.419487 1.187 141 149 148
-1.08243 -0.575466 2.107 161 168 162
0.20352 0.107351 0.997 40 27 14
-0.023096 0.231335 1.339 116 111 107
-0.499461 -0.404579 2.024 162 148 142
0.220114 0.11865 0.97 41 25 20
-0.175277 -0.445332 1.336 14 10 13
-0.359544 0.0387728 1.571 170 162 159
0.176384 -0.156614 0.964 13 13 13
0.249462 0.222991 0.999 40 23 7
-0.322528 -0.12896 1.729 77 73 64
-1.00697 -0.526617 2.189 148 153 141
0.187158 0.0804095 1.005 43 28 18
-0.0590032 -0.149895 1.112 15 20 8
0.299389 0.178458 0.788 12 8 0
0.164261 0.0811442 1.104 40 23 9
-0.541267 -0.0770012 1.7 168 163 161
0.260975 -0.0979091 0.773 144 144 144
0.334032 0.275408 0.813 29 20 11
0.33466 0.205149 0.728 36 20 13
-0.304056 -0.296887 1.575 10 10 12
-0.299982 -0.511023 1.422 5 14 5
0.329105 -0.206661 0.662 181 187 185
-0.318082 -0.00218061 1.607 139 132 124
0.318975 0.184068 0.689 36 29 19
0.239897 0.117687 0.891 36 28 14
0.201422 -0.135486 0.851 140 135 131
-0.175917 0.212942 1.375 162 150 150
0.124868 -0.0634482 1.004 31 25 12
0.0250133 0.0845241 1.477 51 49 37
-0.570556 0.101826 1.52 158 159 153
-0.0286881 0.417732 1.13 145 149 144
-0.0784482 0.172659 1.393 121 113 112
0.0126062 -0.125679 1.046 8 12 7
0.323453 -0.0240879 0.83 34 42 31
0.213257 0.0662237 0.901 21 15 0
-0.55783 -0.407828 2.057 154 148 150
-0.269601 0.410555 1.178 153 149 150
0.293639 0.0715924 0.655 42 46 39
0.217544 0.0204353 0.828 78 28 5
-0.914669 -0.734779 2.092 146 142 133
-0.82171 -0.636997 2.278 149 140 133
-0.200537 0.206229 1.375 171 163 160
0.0319891 0.360989 1.198 144 143 143
0.278076 0.178779 0.844 40 31 10
-0.729061 0.195158 1.442 149 162 161
0.297978 0.0625149 0.672 19 21 10
-0.359023 0.415796 1.182 141 144 147
-0.314264 -0.468746 1.456 10 13 16
-0.927798 -0.127613 1.789 159 158 162
0.20216 -0.0781084 0.789 138 137 137
0.357571 0.264109 0.724 35 20 10
0.130929 0.178842 1.354 49 47 35
0.337229 -0.0283522 0.731 88 91 92
-0.588786 0.366194 1.249 145 157 163
0.129424 0.302358 1.254 61 57 50
-0.0402519 -0.122668 1.145 12 10 2
0.182941 -0.30503 0.83 201 200 202
0.0432397 0.408498 1.135 139 133 137
-0.582302 -0.00221046 1.629 160 156 159
-0.831064 -0.168882 1.826 147 150 151
-0.101239 -0.411876 1.254 19 37 60
-0.567952 0.311095 1.299 149 156 150
-0.489526 0.264188 1.351 155 159 154
0.25129 0.0884691 0.786 44 30 22
0.315145 0.204541 0.761 22 22 0
-0.494881 0.00305912 1.612 165 162 159
0.27204 -0.167502 0.701 168 167 171
-0.511883 0.196135 1.432 153 149 142
-0.116996 -0.140169 1.393 46 46 42
-0.0692222 0.403088 1.162 150 146 147
-0.556217 0.24543 1.369 163 163 157
-0.0892889 0.352707 1.203 146 143 138
0.202641 -0.142173 0.893 124 117 107
0.172225 0.380421 1.145 58 58 38
0.286172 0.405163 1.096 64 66 72
0.202833 -0.0921886 0.823 155 147 144
0.295556 -0.15893 0.679 159 167 164
0.243653 0.042033 0.803 64 19 0
0.13235 -0.0824366 0.941 57 33 19
-0.510909 0.446718 1.143 142 148 150
-0.778888 -0.789835 2.121 150 146 137
0.226924 0.18821 1.022 31 17 0
0.263931 -0.271587 0.739 207 203 208
-0.724872 0.0546631 1.587 155 162 166
0.320072 0.214837 0.758 29 20 0
-0.471257 0.321285 1.289 161 157 158
-0.0195773 0.414039 1.135 136 135 135
0.266569 0.0993475 0.743 124 108 101
-0.287118 0.404034 1.187 151 151 145
0.244487 0.301635 1.143 38 41 20
0.278196 0.163263 0.828 31 23 9
-0.170422 -0.502757 1.299 58 24 12
0.0658859 0.125608 1.425 53 51 39
0.125581 -0.290471 1.051 39 40 36
-0.339594 0.304977 1.291 158 156 146
-0.971628 -0.466483 2.158 161 156 154
-0.472408 0.0759426 1.547 159 152 146
0.220302 -0.173521 0.785 165 162 159
0.23648 -0.113428 0.759 152 151 151
0.297306 0.146622 0.6 2 8 6
0.202228 -0.157045 0.826 151 147 140
-0.368436 0.0865843 1.513 160 156 157
-0.582091 -0.769125 2.121 149 146 141
0.314855 -0.16768 0.657 200 206 204
0.249632 0.352446 1.176 54 54 30
0.0349967 -0.372938 1.108 13 13 13
0.231731 0.0863567 0.882 21 13 10
-0.421965 0.346729 1.267 157 148 153
-0.884457 -0.41338 2.085 159 159 161
-0.134554 0.185458 1.387 149 144 142
-0.0611414 -0.329001 1.118 37 37 31
0.339006 -0.0227547 0.705 112 110 98
0.33478 -0.0236609 0.772 60 66 64
-0.507121 0.181455 1.445 156 156 150
0.351289 0.246044 0.716 31 26 4
-0.479042 0.0924158 1.528 162 158 151
-0.085822 -0.0952167 1.366 16 16 10
-0.662504 0.280525 1.345 153 160 164
0.341721 -0.0204361 0.746 70 84 88
-0.125251 0.397359 1.173 139 136 131
0.0157863 -0.418468 1.154 107 89 95
0.247105 -0.195077 0.75 187 187 187
0.293677 0.14676 0.617 45 46 40
0.25343 0.130841 0.863 35 23 3
-0.267685 0.156848 1.435 164 154 154
-0.0328517 0.261465 1.294 116 107 112
0.288095 0.0780402 0.638 12 23 19
-0.623151 -0.0323912 1.682 156 154 144
0.309753 -0.0915541 0.696 126 123 120
-0.747059 0.0215814 1.624 162 162 162
-0.382511 0.305686 1.294 164 161 158
0.301109 0.221202 0.828 36 24 4
-0.219292 0.102035 1.487 159 148 154
-0.469661 0.061467 1.563 163 159 150
0.268011 0.233373 0.955 19 8 12
-0.100674 -0.387255 1.247 14 7 16
-0.183087 0.3873 1.189 152 145 139
-0.534694 0.260368 1.354 162 166 159
-0.63013 0.16705 1.463 155 151 152
-0.0901026 0.0307864 1.555 69 62 45
-0.807301 -0.713658 2.228 168 168 164
-0.783932 -0.342904 2.01 159 152 146
0.108811 0.15544 1.381 47 38 29
-0.564359 0.443941 1.165 146 159 154
-0.249446 -0.0703332 1.673 73 69 60
-0.518675 0.22137 1.4 154 156 147
-0.0952461 0.0645527 1.516 72 63 58
-0.00133753 0.186497 1.378 75 68 62
-0.0708306 0.385365 1.189 146 140 144
-0.696578 -0.774792 2.269 200 196 197
0.0888544 0.213622 1.351 64 61 45
0.341226 -0.00995638 0.781 45 49 42
-0.0451033 0.282208 1.283 120 121 112
-0.272842 -0.0991329 1.7 61 62 58
-0.638631 -0.252891 1.899 175 167 164
0.293416 0.277803 0.932 25 17 14
-0.680664 -0.732665 2.253 163 159 150
0.224839 -0.0634982 0.783 187 190 191
0.331279 -0.0485145 0.696 134 135 122
0.184866 0.335088 1.203 59 53 38
0.183302 0.124346 1.089 30 14 7
0.325027 -0.0427438 0.733 95 100 86
0.159679 -0.0108651 0.977 29 24 4
0.296829 0.145392 0.603 0 7 1
0.21623 -0.197993 0.823 143 142 146
-0.736623 0.0396613 1.607 159 160 156
0.1654 -0.238189 0.964 19 14 24
-0.419388 0.320623 1.278 164 161 156
0.330074 -0.173551 0.647 230 242 244
-0.794299 -0.0985772 1.739 161 158 153
0.0161374 0.229156 1.339 74 66 54
-0.500396 0.229602 1.381 163 164 155
0.0244077 -0.287707 1.041 25 31 29
-0.150374 0.344357 1.222 158 147 151
0.295207 -0.0695587 0.794 85 84 88
-0.551021 0.312003 1.294 148 151 154
-0.0999119 -0.206307 1.104 17 22 8
0.25231 0.286519 1.066 21 15 2
0.308466 -0.262399 0.714 250 255 251
-0.74467 -0.346175 2.01 164 159 155
0.263094 -0.136417 0.73 109 109 103
0.267787 -0.162475 0.714 174 174 178
0.297619 0.180496 0.797 25 16 0
-0.576078 -0.358187 2.004 156 151 149
0.249096 -0.241058 0.745 173 172 176
-0.479604 -0.034648 1.659 162 152 150
-0.358419 -0.224526 1.686 94 86 72
0.121288 0.0683289 1.194 38 23 11
-0.541855 0.202133 1.425 160 156 159
0.209407 -0.145956 0.802 179 175 178
0.243335 -0.0874839 0.781 156 156 152
0.0132329 -0.344557 1.098 24 33 26
0.185302 0.0138722 0.93 30 16 12
-0.761893 -0.811507 2.151 146 144 136
-0.425235 -0.162593 1.758 128 120 117
0.25834 -0.189875 0.73 189 197 194
-0.638273 -0.691654 2.312 165 160 156
0.276511 0.0932733 0.673 8 16 13
-0.996185 -0.521143 2.181 150 155 143
0.110141 0.293122 1.267 65 61 50
0.242825 -0.0515989 0.796 149 149 149
0.0325014 -0.108566 1.029 14 10 11
-1.05032 -0.723716 2.051 163 168 158
0.249425 0.0278654 0.809 20 9 2
-0.277775 -0.273058 1.616 4 11 5
-0.934912 -0.309269 2.004 158 157 157
0.0819482 -0.103406 1.062 9 7 0
-0.244065 0.305347 1.275 157 154 151
0.198341 0.417343 1.124 55 53 43
-0.938991 -0.388321 2.078 166 166 160
0.197392 -0.20519 0.889 133 124 115
0.305799 0.0475193 0.727 10 11 5
-0.393572 0.109295 1.487 161 157 158
-0.39879 0.292069 1.299 161 153 152
-0.465054 -0.225048 1.848 107 98 91
0.240967 -0.157685 0.735 193 194 190
0.200203 0.192532 1.104 16 13 10
-1.04127 -0.692044 2.107 155 165 151
-0.216472 -0.219731 1.65 1 8 2
-0.283985 0.408102 1.182 151 151 155
0.318162 -0.124533 0.655 135 128 122
0.2587 0.115822 0.826 43 31 29
0.139443 -0.182656 0.969 2 16 7
0.256366 -0.282028 0.738 229 224 236
-0.609646 0.346729 1.267 145 152 158
0.0640418 0.24883 1.294 68 59 54
0.256074 -0.15849 0.717 208 208 208
0.14587 -0.312654 0.92 129 130 126
0.296231 -0.192572 0.673 218 229 227
-1.0385 -0.580482 2.151 156 157 148
0.0919902 -0.252025 1.02 13 17 29
0.277693 0.329875 1.044 32 34 16
-0.31869 -0.0421804 1.637 139 133 135
-0.838774 -0.00225117 1.659 160 160 154
-0.992312 -0.531875 2.196 154 155 149
0.0904227 0.243379 1.31 62 59 45
0.234489 0.101281 0.887 26 16 2
0.190576 0.260133 1.267 54 51 37
-0.929268 -0.564325 2.269 160 157 152
-0.632472 0.279577 1.351 162 161 165
-0.579344 -0.046077 1.682 167 160 152
0.29425 0.0694875 0.676 46 52 65
0.26157 0.00664155 0.79 5 11 9
0.249561 0.18571 0.974 43 25 16
0.0588581 -0.0203717 1.273 41 21 13
0.2826 0.37963 1.11 51 59 44
-0.0926883 -0.373526 1.222 55 9 5
-0.0283663 -0.267981 1.05 16 15 17
0.267497 0.181045 0.896 46 27 14
-0.177145 -0.110241 1.659 52 54 45
0.311996 -0.125484 0.66 133 134 128
0.152605 0.291502 1.26 54 56 38
-0.297155 -0.21662 1.607 15 14 0
-0.570816 -0.343936 1.997 155 146 149
-0.532346 -0.289603 1.917 151 141 141
-0.1377 0.175302 1.396 155 146 149
0.163621 -0.325767 0.871 167 163 166
-0.502639 -0.0290194 1.646 171 162 165
0.199707 -0.0823123 0.805 165 165 167
0.22885 -0.223019 0.775 159 159 155
0.000693317 -0.140495 1.055 8 11 10
0.177939 -0.0653917 0.858 146 139 131
-0.513231 0.291887 1.327 152 154 160
-0.0747041 0.204879 1.366 125 120 118
-0.633158 0.176091 1.459 149 153 146
-0.31991 0.278553 1.305 169 168 170
-0.261385 0.420015 1.167 146 145 147
0.362911 0.280554 0.73 34 23 14
0.0462095 0.0956269 1.463 49 45 34
0.211314 -0.18617 0.83 154 151 146
-0.650422 0.25098 1.375 154 161 167
-0.633571 -0.562505 2.204 147 142 140
-1.03779 -0.432294 2.128 168 163 159
0.280966 -0.129405 0.724 119 116 113
-0.5898 0.287989 1.339 152 155 156
0.204863 0.348125 1.194 57 56 39
-0.585217 0.409043 1.196 154 165 174
-0.320094 -0.248122 1.591 20 15 11
-0.619415 0.204022 1.422 152 152 156
-0.231181 0.000433428 1.603 110 103 93
-0.185929 0.262223 1.319 156 151 147
0.0846819 -0.291023 1.053 18 21 20
-0.502723 0.216813 1.4 160 159 159
0.122973 0.0461297 1.173 25 16 9
-0.448255 0.353375 1.254 155 154 156
-0.137759 0.00556604 1.579 70 59 50
0.308327 0.191909 0.775 21 15 2
-0.208551 0.409321 1.169 137 140 139
-0.409029 -0.0738417 1.691 163 154 159
0.115973 -0.0797985 0.984 34 25 16
0.29999 0.348045 0.994 14 13 0
-0.356137 -0.0559408 1.65 150 143 137
-0.944599 -0.561759 2.244 157 155 143
-0.14537 0.315303 1.265 166 157 160
0.271538 0.0909161 0.724 29 18 11
-0.345797 0.336612 1.26 157 157 159
-0.843943 -0.0325645 1.691 161 162 158
0.344369 0.00257681 0.731 49 47 37
-0.504841 0.292938 1.322 158 154 155
-0.501561 0.324723 1.286 155 155 151
0.241601 0.103706 0.871 14 9 5
0.246798 0.0604828 0.788 63 20 0
0.292897 0.287806 0.95 26 18 15
0.321251 -0.0683598 0.714 124 123 106
-0.881487 -0.756914 2.078 148 148 144
-0.113475 -0.0255886 1.599 66 59 42
-0.0405683 0.402191 1.154 156 153 150
-0.347257 0.385626 1.208 151 152 146
0.278804 0.0892324 0.684 15 23 12
0.307848 -0.0509784 0.828 59 64 54
-0.734264 0.0919891 1.563 154 149 147
-0.229108 -0.33599 1.52 6 10 3
-0.17081 0.287054 1.286 155 152 149
-0.0336883 0.325022 1.247 156 154 144
-0.892183 -0.694617 2.136 139 148 141
0.29381 0.0737625 0.646 9 21 27
-0.415387 -0.288962 1.815 140 135 133
-0.339074 -0.303253 1.595 72 68 57
0.345233 0.225374 0.706 15 10 8
-0.0765726 -0.192856 1.079 15 23 10
-0.0557015 -0.177709 1.083 12 12 12
-0.538294 -0.183236 1.821 159 154 150
0.322122 0.243655 0.813 36 22 7
-0.416178 0.152035 1.456 157 154 151
-0.322797 0.22866 1.362 147 136 140
-0.445788 0.403879 1.198 136 142 140
0.0586703 -0.400051 1.079 118 116 104
-1.01366 -0.430872 2.121 158 163 153
0.130248 -0.0907634 0.948 83 39 23
-0.402609 0.389903 1.203 143 143 143
0.329563 -0.0713106 0.646 154 162 151
-0.0550522 0.195041 1.375 125 115 113
0.314317 0.195358 0.759 11 8 3
0.211863 -0.198502 0.854 139 130 133
-0.80169 -0.597009 2.253 153 140 144
0.160602 -0.0243497 0.945 50 33 19
-0.315069 0.338549 1.252 157 152 150
-0.39532 -0.387706 1.668 153 143 143
0.161968 -0.101134 0.944 90 29 3
0.0409664 -0.0460835 1.297 38 22 15
0.233074 0.268318 1.098 30 24 11
0.100489 -0.343731 1.057 50 47 44
-0.378725 0.254827 1.348 156 151 147
0.275171 0.00146883 0.774 8 18 6
0.136981 -0.309618 0.997 100 93 83
-0.0182296 -0.102235 1.167 15 8 2
-0.423117 0.31979 1.283 160 157 152
0.298865 -0.175309 0.674 211 210 217
-0.673734 0.332317 1.283 139 154 153
-0.800483 -0.0898284 1.734 160 161 155
-0.300342 0.0812282 1.505 156 151 149
-0.305002 -0.203545 1.607 9 16 8
0.0611904 -0.173088 1.005 9 16 10
-0.405822 0.136751 1.47 171 163 160
0.295681 -0.114836 0.714 120 122 104
-0.343753 -0.385785 1.502 87 88 84
-0.204677 -0.377668 1.452 1 9 8
-1.02326 -0.75596 2.057 141 154 149
-0.302296 -0.520279 1.422 3 14 12
-0.578014 0.279899 1.342 153 152 159
0.25561 -0.109089 0.772 118 124 122
-0.447921 -0.0570257 1.682 163 156 150
-0.186392 -0.306833 1.535 2 10 0
0.215118 -0.269546 0.771 211 210 214
0.138723 -0.153476 0.964 10 18 15
-0.109817 0.43505 1.132 148 148 144
0.0497468 0.356622 1.203 125 125 119
0.0294347 -0.288845 1.039 20 27 21
-0.481758 0.373112 1.225 138 141 140
-0.731926 0.128695 1.516 151 162 158
0.321934 -0.183942 0.654 189 188 188
0.204106 0.170612 1.068 43 22 5
-0.666378 -0.396626 2.051 165 162 159
0.260949 0.151379 0.86 38 26 10
0.324919 -0.231516 0.678 250 255 251
0.130282 -0.0316909 1.034 37 29 15
-0.0412698 0.436685 1.122 159 152 146
0.0608251 -0.146043 0.999 10 15 5
0.0990486 -0.341257 1.06 34 30 33
0.042262 -0.182668 1.022 14 18 13
-0.045124 -0.153036 1.083 13 12 19
0.137677 -0.273628 1.039 31 35 30
0.233694 -0.167197 0.762 189 187 194
0.267285 -0.0412185 0.849 63 51 49
0.213165 -0.0955259 0.764 152 151 155
-0.166041 -0.223055 1.509 4 5 0
-0.239206 -0.293984 1.587 4 8 3
0.154439 -0.277757 1.005 90 75 74
0.303709 0.30023 0.931 24 14 0
-1.04256 -0.749527 2.004 154 172 166
-0.870476 -0.00769215 1.668 145 148 149
0.302354 -0.152917 0.672 220 225 234
-0.186568 -0.489911 1.339 9 9 5
0.0181939 0.234109 1.33 74 68 55
-0.862921 -0.750333 2.107 143 150 144
0.200048 -0.155653 0.863 133 128 126
0.244687 0.427107 1.102 56 54 44
0.294879 0.243471 0.895 40 21 6
0.0580722 -0.319501 1.068 13 19 21
0.307852 0.0550946 0.649 34 42 41
0.287899 -0.141164 0.712 107 118 116
0.281152 0.0736577 0.74 20 27 19
0.0803392 -0.198065 0.999 7 21 23
0.277384 0.296444 1 16 15 0
-0.0279971 -0.448426 1.265 3 16 27
0.26169 0.345019 1.145 44 50 33
-0.279765 -0.177734 1.659 9 17 6
-0.469228 0.363804 1.234 145 152 146
0.229332 -0.285748 0.764 244 242 255
-0.4271 -0.273904 1.853 137 129 128
0.0226091 0.0821206 1.477 51 44 34
0.215935 0.024448 0.827 76 32 16
0.0318334 0.0668741 1.459 53 52 37
0.179448 0.296612 1.247 58 56 35
-0.924885 -0.744992 2.092 155 148 142
-0.933479 -0.679457 2.143 153 153 155
0.136709 -0.315119 0.95 103 99 100
0.175962 -0.248055 0.862 139 131 128
0.0451432 -0.157825 1.012 11 19 18
0.343179 -0.0197512 0.721 85 89 84
0.130533 0.396963 1.139 83 79 72
-0.204063 -0.277297 1.595 4 5 1
-0.730361 -0.266303 1.929 161 163 154
0.272675 0.250468 0.955 31 15 8
-0.209981 -0.416619 1.456 5 5 5
-0.190758 0.0926043 1.491 149 140 143
0.187411 0.358091 1.182 54 55 44
-0.650628 0.383424 1.239 144 157 152
-0.21346 0.0577548 1.532 133 124 117
-0.0640051 0.195041 1.375 124 114 112
-0.812164 0.0522118 1.591 145 158 157
0.191682 0.00720482 0.857 44 29 19
0.309751 0.368826 0.989 23 16 0
0.225897 -0.278652 0.765 249 255 255
0.247995 -0.24479 0.749 173 173 175
0.103969 0.348708 1.196 68 66 45
-0.616835 -0.519159 2.158 158 149 142
-0.888865 -0.275973 1.953 155 163 150
-0.628452 -0.226727 1.887 166 161 159
0.192775 -0.280284 0.798 163 162 162
-0.691289 0.0520805 1.587 155 157 148
-0.417809 -0.112727 1.739 130 122 119
-0.0802338 -0.203768 1.081 18 10 7
0.290706 -0.189589 0.678 215 218 219
0.267184 -0.105196 0.762 112 114 105
-0.662403 0.259364 1.372 150 161 161
0.1489 0.380872 1.152 62 59 43
0.362858 0.270175 0.709 34 18 23
-0.933311 -0.133809 1.794 163 155 154
-0.144122 0.425512 1.141 158 156 148
-0.571018 0.399691 1.203 146 158 162
-0.997052 -0.226727 1.887 153 156 155
0.272067 -0.197699 0.707 188 184 187
0.354065 0.0127742 0.703 25 33 34
0.0235627 0.385831 1.167 133 132 132
0.234773 0.375378 1.141 68 71 53
-0.914117 -0.208302 1.887 157 157 157
-0.613682 -0.327789 1.978 174 167 161
0.292946 0.090544 0.624 25 30 35
-0.426218 -0.178507 1.774 111 107 98
-0.426705 0.330245 1.275 154 149 147
-0.794325 -0.791479 2.107 145 146 137
0.290599 0.0998917 0.619 28 54 39
0.120142 -0.138075 0.966 16 21 11
0.322152 -0.100934 0.661 133 130 116
-0.172886 0.414683 1.147 154 154 150
-0.225989 -0.297929 1.567 6 10 3
0.128038 -0.345967 0.921 132 128 117
0.181607 0.281697 1.262 58 52 39
0.318827 -0.127146 0.652 143 144 140
-0.279773 -0.359065 1.513 4 11 3
-0.227105 0.306939 1.273 152 149 144
-0.895687 -0.211373 1.887 160 161 155
0.296972 0.336537 0.984 13 11 0
-0.170987 0.351691 1.213 151 146 142
0.279078 0.0549109 0.764 4 10 8
0.233049 0.20083 1.027 38 21 5
0.196802 0.0197103 0.855 45 27 16
-0.13344 0.283528 1.289 143 140 135
0.0850388 0.321112 1.232 65 58 48
-0.0736901 0.330467 1.237 148 142 144
-0.771395 -0.389063 2.064 175 172 169
0.325962 -0.200666 0.66 203 211 208
0.290807 -0.14207 0.705 106 114 111
-0.322744 0.417513 1.176 146 147 141
-0.0961671 0.412097 1.145 153 152 152
-0.671168 0.307298 1.319 147 157 162
-0.148012 0.308283 1.27 161 160 160
0.269286 0.0349245 0.79 22 34 26
0.167489 -0.186819 0.958 7 11 6
0.301001 0.0320068 0.724 35 50 49
-0.867721 -0.221287 1.893 157 158 154
0.00405756 -0.197162 1.037 13 12 12
-0.876806 -0.0381807 1.696 147 153 151
-0.258248 -0.501765 1.409 5 14 7
-0.189624 0.411123 1.158 156 154 146
-0.117775 0.373385 1.194 151 150 152
0.291397 0.0731614 0.65 36 36 40
0.328182 -0.266577 0.719 252 255 251
0.309774 -0.0791777 0.728 118 120 109
0.0377033 0.156631 1.412 63 52 45
0.199312 -0.294013 0.793 206 206 206
0.267287 -0.125884 0.745 109 109 109
-0.238878 0.176181 1.403 172 166 168
0.229517 -0.198543 0.773 167 165 172
0.0319561 -0.420054 1.128 83 81 71
-0.93833 -0.517752 2.212 155 150 146
0.217794 0.401182 1.13 51 51 45
-0.0374976 -0.0524791 1.477 38 34 25
0.088421 0.277599 1.281 65 59 44
-0.757757 -0.346175 2.01 165 156 151
0.120142 -0.152223 0.966 14 14 8
0.0655117 0.317655 1.242 90 92 83
0.0759097 0.0462077 1.281 29 20 15
0.221393 -0.0825998 0.771 144 144 146
-0.837514 -0.415374 2.078 169 164 160
0.113231 -0.0702559 1.032 21 10 5
-0.0150426 -0.311099 1.075 16 27 36
-0.138014 -0.0231734 1.612 68 60 48
-0.388785 0.0753535 1.535 170 159 154
-0.564972 -0.17731 1.821 170 161 166
-0.103614 -0.104123 1.396 20 21 17
0.0892658 -0.0701469 1.11 54 32 22
-0.389825 0.362675 1.237 150 150 154
0.00561484 -0.00895286 1.435 21 25 18
-0.255348 0.0185537 1.591 134 128 132
-0.75301 -0.680076 2.261 141 139 127
0.159945 -0.32127 0.882 151 145 149
0.321892 0.289201 0.862 35 22 0
0.0815551 -0.176046 0.994 9 16 10
0.279393 0.134408 0.711 38 23 11
-0.0262509 -0.242023 1.034 22 23 19
-0.306087 -0.241563 1.599 14 11 8
0.328065 -0.0132504 0.828 25 30 20
-0.811202 -0.23509 1.905 161 162 158
0.300363 -0.17972 0.67 220 236 227
0.253651 0.277093 1.05 24 13 6
0.175686 -0.0793279 0.889 107 81 77
0.161666 0.0375506 1.041 45 30 20
-0.0545499 -0.450755 1.26 17 31 62
-0.614127 0.248119 1.384 162 158 159
0.0979273 -0.347627 1.048 67 66 75
0.282107 0.0981217 0.627 34 41 33
0.0934476 0.380396 1.162 152 149 144
-0.0551608 0.385997 1.185 146 140 144
0.291918 -0.145501 0.694 132 132 126
0.124338 -0.242053 1.013 13 17 12
0.178609 -0.0787032 0.882 135 120 121
-0.233959 0.396561 1.182 151 146 142
-0.0878518 0.311678 1.267 157 149 148
0.287236 0.0635048 0.734 27 40 27
-0.060611 0.164413 1.4 112 108 111
-0.428421 0.0134428 1.599 166 161 159
-0.417636 0.355416 1.254 144 147 150
0.275708 -0.094406 0.765 121 118 115
0.100066 0.0933452 1.27 29 20 11
0.213242 -0.141559 0.792 186 185 185
-0.281793 -0.266482 1.624 4 11 5
-1.066 -0.696485 2.03 169 171 160
-0.282115 0.216468 1.369 156 150 152
0.180239 -0.292874 0.83 212 210 217
-0.628878 -0.203382 1.87 164 158 160
0.12172 -0.223787 1.005 7 15 12
0.282688 0.201292 0.858 44 30 11
0.0214589 0.395363 1.156 147 144 141
0.152043 -0.00298427 1 44 32 14
-0.472392 0.231346 1.378 157 153 144
-0.346191 0.341131 1.254 155 151 152
0.126119 0.340961 1.203 62 61 44
-0.271664 -0.365482 1.509 10 12 3
0.155358 -0.0376648 0.932 45 35 23
0.00651573 0.379238 1.176 146 146 140
0.0945186 0.388371 1.152 153 154 150
-0.0428736 -0.00473604 1.587 48 44 37
-0.362305 0.25908 1.336 167 164 161
-0.0920795 -0.321723 1.118 47 43 48
0.327305 -0.0473125 0.712 107 107 109
0.210664 -0.183254 0.817 154 151 146
-0.871321 -0.705045 2.136 142 147 137
0.218235 -0.0974993 0.76 145 152 146
-0.0258745 -0.127301 1.089 6 10 5
0.0181715 -0.317504 1.073 4 7 6
-0.0404159 0.307555 1.267 152 150 157
0.269324 0.110866 0.694 6 13 7
-0.989587 -0.779035 2.092 159 162 161
-0.100439 -0.248184 1.053 24 25 21
0.129424 0.304399 1.254 58 54 47
0.341964 0.204098 0.716 28 22 26
0.159352 -0.0124295 0.975 24 18 3
0.350946 0.288346 0.78 24 18 5
0.0969504 -0.330342 1.075 5 12 16
0.27823 0.0492043 0.772 5 11 13
0.169931 -0.120408 0.963 116 103 92
-0.716088 -0.788463 2.204 144 145 132
0.081388 0.418085 1.126 146 146 142
0.123644 0.0802551 1.198 33 19 13
-0.674858 -0.314913 1.978 171 165 167
-0.562309 -0.0320446 1.664 171 159 157
0.313929 0.404895 1.081 27 16 22
-0.33231 0.15398 1.452 158 154 147
0.28853 0.31218 0.988 21 14 4
0.286864 -0.124026 0.727 101 105 100
0.287031 0.121241 0.62 3 7 2
-0.556023 0.348791 1.267 135 141 139
0.198956 0.363862 1.182 57 50 40
0.0422669 -0.316573 1.064 30 33 32
0.0995495 -0.163998 0.98 8 11 10
-0.0859886 0.0921696 1.484 70 61 44
-0.0809385 0.101555 1.48 72 63 56
0.131964 -0.121533 0.972 16 7 0
0.284092 0.160502 0.814 15 11 2
-0.529398 -0.300834 1.929 155 144 137
0.285485 -0.186815 0.684 209 211 217
-0.607719 -0.259071 1.899 168 162 164
0.124132 0.324472 1.222 61 56 38
-0.75669 -0.676396 2.261 137 139 128
0.117548 0.168557 1.378 47 45 33
-0.453573 -0.210483 1.826 101 97 86
0.163321 -0.182712 0.961 7 11 4
0.0451432 -0.143003 1.012 13 17 10
0.112977 -0.176895 0.972 9 12 15
-0.226435 -0.067247 1.664 73 65 53
-0.2828 -0.0705013 1.677 134 129 127
-0.237959 -0.0559408 1.65 75 73 65
0.262404 0.35768 1.132 86 81 63
0.29258 0.149339 0.641 33 29 32
0.223662 0.239096 1.087 24 15 8
-0.438509 -0.289515 1.876 146 134 134
0.301135 -0.106505 0.705 119 125 123
-0.0918551 0.176811 1.39 145 138 132
-0.283193 -0.389005 1.505 6 10 5
0.129442 -0.324837 0.989 114 103 96
0.0624137 -0.087827 1.083 8 9 3
-0.508666 0.348084 1.257 157 158 154
-0.0733169 0.368787 1.198 143 141 133
0.316809 0.32539 0.925 19 15 6
-0.421803 0.436215 1.18 151 151 145
-0.144742 0.382458 1.192 148 142 144
0.312256 -0.0626216 0.757 103 105 96
-0.154521 -0.0522874 1.62 65 57 56
-0.324196 0.372481 1.21 153 150 145
-0.343236 -0.542273 1.419 143 141 133
-0.21035 0.371665 1.201 149 145 146
0.199233 -0.0310642 0.836 34 16 24
-0.689974 0.251528 1.378 156 158 164
0.219589 0.0860418 0.909 34 25 8
-0.344354 0.0976531 1.494 161 155 157
-0.076326 0.0921696 1.484 73 64 47
-0.732229 0.201778 1.439 155 158 157
-0.0930024 -0.291147 1.066 25 22 17
0.200024 0.0285179 0.869 41 28 17
0.190592 0.111455 1.051 36 21 9
0.2746 -0.127926 0.729 129 127 117
-0.355122 0.385626 1.208 159 159 153
-0.177991 -0.499855 1.308 40 26 18
-0.489778 0.286484 1.322 156 159 158
0.287211 0.0637644 0.737 23 36 23
-0.309471 -0.172335 1.659 19 20 9
-0.0512603 -0.18498 1.064 15 18 17
-0.718692 -0.220001 1.882 167 167 163
0.238921 -0.20252 0.755 183 186 185
-1.09958 -0.407455 2.107 159 159 155
0.240423 0.408197 1.124 52 49 35
0.269062 0.244931 0.97 33 21 5
0.291497 -0.15093 0.693 135 131 134
0.257928 -0.0897953 0.779 111 111 113
0.242892 -0.158988 0.73 198 201 202
-0.258118 0.0670197 1.516 147 137 135
0.207939 -0.179025 0.822 183 179 180
-0.372762 0.406649 1.189 141 150 143
-0.615034 0.406844 1.201 147 154 160
-0.555822 -0.221641 1.87 169 164 160
-0.516894 -0.31534 1.941 157 148 143
-0.248666 -0.141043 1.705 6 10 5
-0.0942955 0.163854 0.421 33 41 38
-0.580946 0.0593758 1.575 162 158 147
0.0228795 -0.034811 1.351 22 15 5
-1.07702 -0.545478 2.151 164 168 161
-0.116492 0.187715 1.387 146 137 132
0.271041 0.0102724 0.773 19 18 22
-0.0654765 0.432443 1.13 145 142 137
-0.498523 0.371724 1.227 140 147 141
-0.45459 -0.318791 1.905 141 137 140
0.295178 -0.283723 0.73 195 195 199
0.356793 0.268852 0.737 39 24 12
0.264467 -0.209521 0.724 199 202 201
-0.1733 0.21471 1.372 157 147 147
-0.610373 0.381708 1.227 147 158 156
-0.300727 0.0336597 1.571 145 141 144
-0.137829 0.139129 1.445 112 113 107
-0.555352 0.000438024 1.62 156 156 152
-0.697282 0.185588 1.459 150 157 151
0.0660392 -0.0200356 1.252 35 20 8
-0.318018 -0.0206522 1.62 135 129 131
-0.802266 -0.0437006 1.696 158 157 157
-0.21193 -0.315146 1.539 6 7 3
0.218829 0.0848417 0.912 33 24 7
0.0208487 0.199846 1.362 67 60 50
0.20128 -0.184521 0.887 129 124 122
