ply
format ascii 1.0
comment Created by Open3D
element vertex 1289
property double x
property double y
property double z
property uchar red
property uchar green
property uchar blue
end_header
-0.429466 -0.2298 0.975 255 255 255
-0.308004 -0.300252 0.817 0 0 0
-0.338955 0.0628512 0.664 255 255 255
-0.429557 -0.259341 0.961 255 255 255
0.140638 -0.157989 0.935 255 255 255
0.335453 -0.125676 0.751 255 255 255
-0.197878 -0.32335 0.938 255 255 255
0.285983 -0.00117783 0.868 255 255 255
-0.177482 -0.0528226 0.724 255 255 255
-0.22476 -0.089047 0.844 255 255 255
0.384002 0.193304 0.866 255 255 255
-0.128788 0.205077 0.575 255 255 255
0.351276 -0.181449 0.702 255 255 255
0.0798799 -0.334426 0.902 255 255 255
0.318044 0.0264488 0.848 255 255 255
-0.11705 0.212748 0.568 255 255 255
-0.306043 -0.173811 0.581 255 255 255
-0.244153 0.0521797 0.726 255 255 255
0.162359 -0.0457022 0.974 255 255 255
-0.202378 0.019226 0.779 255 255 255
0.0738427 -0.34833 0.9 255 255 255
-0.304307 0.0647476 0.696 255 255 255
0.0785554 -0.157108 0.997 255 255 255
-0.242029 0.0165406 0.772 255 255 255
0.321107 -0.249636 0.701 255 255 255
-0.353484 -0.290602 0.843 255 255 255
0.0632639 0.298355 1.012 255 255 255
-0.256997 -0.0192875 0.799 255 255 255
-0.145975 -0.00213077 0.714 255 255 255
0.177264 0.262289 1.118 255 255 255
0.259013 -0.128973 0.827 255 255 255
-0.00570965 0.413687 1.351 255 255 255
-0.12554 -0.193298 0.901 0 0 0
0.072652 -0.196493 0.983 255 255 255
0.15216 -0.140647 0.931 255 255 255
0.18833 -0.0739059 0.93 255 255 255
0.170745 -0.216292 0.864 255 255 255
-0.133042 0.0579244 0.739 255 255 255
0.327585 0.292206 0.975 255 255 255
-0.313499 -0.192458 0.828 255 255 255
0.337975 0.130851 0.882 255 255 255
-0.0187409 -0.267481 0.914 255 255 255
-0.246698 -0.0499876 0.791 0 0 0
0.279746 0.314769 1.039 255 255 255
0.320879 -0.23662 0.703 255 255 255
-0.196794 0.195419 0.566 255 255 255
-0.0377895 0.226208 0.691 255 255 255
0.273333 -0.238151 0.755 255 255 255
-0.233346 0.105625 0.668 255 255 255
0.0037953 0.148443 0.685 255 255 255
0.214339 0.205327 1.05 255 255 255
0.174704 -0.00292757 0.981 255 255 255
0.32533 -0.181808 0.731 255 255 255
0.103716 -0.329133 0.88 255 255 255
0.168701 -0.034607 0.974 255 255 255
0.295258 0.000231991 0.858 255 255 255
-0.142239 0.133157 0.659 255 255 255
0.279293 -0.13847 0.804 255 255 255
0.184842 -0.0384326 0.951 255 255 255
0.31837 -0.257254 0.7 255 255 255
0.298976 -0.15023 0.764 255 255 255
0.283971 0.0721686 0.902 255 255 255
-0.296421 0.153591 0.568 255 255 255
0.0517447 0.242919 0.981 255 255 255
-0.0104347 0.164326 0.668 255 255 255
0.118942 -0.171799 0.944 255 255 255
0.155426 -0.208084 0.889 255 255 255
-0.0637434 0.510712 1.419 255 255 255
0.416014 0.189752 0.826 255 255 255
0.0864193 0.444495 1.252 255 255 255
-0.317147 -0.0618493 0.646 255 255 255
-0.201816 0.00272133 0.772 0 0 0
-0.100478 -0.0809053 0.941 255 255 255
0.327202 0.172405 0.912 255 255 255
0.305574 -0.209116 0.735 255 255 255
-0.267512 -0.263077 0.969 255 255 255
0.0859108 0.053728 0.783 255 255 255
-0.217625 0.126982 0.644 255 255 255
0.0106387 0.114418 0.695 255 255 255
0.392456 0.290373 0.905 255 255 255
0.0625289 0.369315 1.085 255 255 255
0.0233441 -0.22852 0.931 255 255 255
-0.296744 -0.0603018 0.652 255 255 255
-0.18303 0.134318 0.644 255 255 255
0.305849 0.0888869 0.893 255 255 255
0.316749 -0.11567 0.774 255 255 255
-0.160314 0.172582 0.602 255 255 255
-0.214145 0.166543 0.591 255 255 255
0.29952 -0.238254 0.729 255 255 255
-0.306314 -0.0126743 0.792 255 255 255
-0.299659 0.132321 0.576 255 255 255
-0.436737 -0.2302 0.97 255 255 255
-0.239516 -0.165623 0.772 255 255 255
-0.253002 -0.125854 0.807 0 0 0
0.0211202 0.143599 0.705 255 255 255
-0.112108 -0.14514 1.004 255 255 255
-0.0311305 0.040786 0.693 255 255 255
-0.298806 0.0447805 0.721 255 255 255
-0.214508 -0.0538492 0.791 255 255 255
-0.314667 -0.288075 0.824 255 255 255
0.369511 -0.113773 0.722 255 255 255
-0.110173 0.0992762 0.708 255 255 255
0.185493 0.451002 1.22 255 255 255
0.2476 -0.266586 0.759 255 255 255
0.290402 -0.113633 0.795 255 255 255
0.202577 0.207283 1.06 255 255 255
0.200514 -0.259671 0.819 255 255 255
0.316954 0.337879 1.012 255 255 255
0.16134 -0.22164 0.874 255 255 255
0.166301 -0.00294846 0.988 255 255 255
-0.305208 0.0974865 0.643 255 255 255
0.410593 0.154441 0.81 255 255 255
-0.309005 -0.0612687 0.651 255 255 255
-0.0614339 0.00600681 0.886 255 255 255
-0.094854 0.0672593 0.723 255 255 255
0.262456 0.0448685 0.914 255 255 255
-0.167851 -0.326043 0.924 255 255 255
0.0802965 0.0571831 0.778 255 255 255
0.385498 0.128951 0.824 255 255 255
-0.287094 0.064072 0.701 255 255 255
0.0756207 -0.202272 0.98 255 255 255
0.0446971 0.266056 1.002 255 255 255
0.196296 -0.00905688 0.954 255 255 255
0.0824162 -0.0661024 1.046 255 255 255
0.045635 0.0952334 0.73 255 255 255
-0.237309 -0.033755 0.773 255 255 255
-0.153867 0.20666 0.564 255 255 255
0.328896 0.206322 0.938 255 255 255
-0.283611 0.0819504 0.679 255 255 255
-0.128161 0.213085 0.564 255 255 255
0.0770469 -0.127535 1.02 255 255 255
-0.197739 0.0758753 0.684 255 255 255
0.0243496 0.421637 1.116 255 255 255
-0.235599 0.204882 0.547 255 255 255
-0.225413 0.0540167 0.719 255 255 255
0.0807655 0.185762 0.912 255 255 255
0.0504805 0.0782101 0.749 255 255 255
-0.0800212 0.255412 0.659 255 255 255
0.203515 -0.265034 0.815 255 255 255
0.319989 -0.216265 0.719 255 255 255
-0.376211 0.0180166 0.73 255 255 255
0.170681 -0.305136 0.823 255 255 255
0.399441 0.0797178 0.788 255 255 255
0.28621 0.013022 0.873 255 255 255
-0.280586 -0.3331 0.944 255 255 255
-0.0856904 0.187317 0.615 255 255 255
0.264851 -0.00121039 0.892 255 255 255
-0.219352 -0.28578 0.945 255 255 255
0.142985 -0.101391 0.961 255 255 255
-0.294307 0.170558 0.557 255 255 255
-0.304274 -0.246938 0.863 0 0 0
0.249165 0.288356 1.06 255 255 255
0.254548 0.161503 0.981 255 255 255
-0.0139839 0.111168 0.682 255 255 255
-0.0789485 0.147098 0.659 255 255 255
0.443211 0.342498 0.88 255 255 255
-0.151793 0.200511 0.57 255 255 255
-0.232462 0.204365 0.548 255 255 255
0.213253 -0.166538 0.854 255 255 255
-0.120035 -0.0388164 0.705 255 255 255
0.345244 0.0787948 0.847 255 255 255
-0.110684 -0.152366 0.977 0 0 0
0.121041 -0.0314764 1.027 255 255 255
0.37582 -0.00976515 0.766 255 255 255
0.151492 0.340289 1.187 255 255 255
0.197657 -0.293435 0.802 255 255 255
0.34764 -0.201708 0.697 255 255 255
0.122509 0.348016 1.187 255 255 255
-0.133801 0.0404792 0.75 255 255 255
-0.101341 -0.187097 0.921 255 255 255
-0.123707 0.126468 0.669 255 255 255
-0.275761 0.185393 0.558 255 255 255
0.368272 0.344434 0.957 255 255 255
0.254101 0.336288 1.081 255 255 255
-0.316285 -0.0685653 0.64 255 255 255
0.302697 0.155082 0.942 255 255 255
0.0907125 0.244653 0.988 255 255 255
0.110317 -0.302883 0.887 255 255 255
-0.242682 0.20978 0.539 255 255 255
-0.0331226 0.177286 0.644 255 255 255
-0.220104 0.194953 0.562 255 255 255
-0.112227 -0.329229 0.912 255 255 255
-0.127705 -0.0432824 0.703 255 255 255
0.226945 0.391402 1.139 255 255 255
0.060788 0.0193876 0.841 255 255 255
0.382488 0.2877 0.92 255 255 255
0.344099 0.262388 0.942 255 255 255
0.245473 -0.213734 0.792 255 255 255
0.189087 -0.155125 0.884 255 255 255
-0.0589119 -0.355236 0.914 255 255 255
0.000444906 0.124675 0.677 0 0 0
0.322802 0.219089 0.947 255 255 255
-0.151151 -0.0840297 0.863 255 255 255
-0.0904519 -0.331034 0.917 255 255 255
-0.0414905 -0.142874 1.128 255 255 255
0.165409 0.06833 0.837 255 255 255
0.354146 -0.118053 0.734 255 255 255
-0.153043 -0.154774 0.882 255 255 255
0.179337 -0.0232464 0.963 255 255 255
-0.0567004 0.174596 0.638 255 255 255
0.42555 0.270472 0.856 255 255 255
0.0202477 -0.339535 0.928 255 255 255
-0.092511 0.0850127 0.714 255 255 255
-0.205231 -0.184499 0.923 255 255 255
0.121836 0.0503082 0.81 255 255 255
0.314824 0.31109 1 255 255 255
-0.122901 -0.052166 0.715 255 255 255
0.135354 -0.321543 0.845 255 255 255
-0.298308 -0.257874 0.862 0 0 0
0.399588 0.331891 0.918 255 255 255
-0.312071 -0.274256 0.835 0 0 0
0.074645 0.0346183 0.813 255 255 255
-0.117078 -0.147968 0.939 255 255 255
0.022968 -0.254651 0.916 255 255 255
0.119602 -0.0298632 1.029 255 255 255
-0.153265 0.162767 0.613 255 255 255
-0.0050278 0.18062 0.672 255 255 255
0.0459279 -0.268558 0.928 255 255 255
-0.327697 -0.0144979 0.644 255 255 255
-0.264164 0.19491 0.549 255 255 255
0.315005 -0.167329 0.746 255 255 255
0.235552 -0.24374 0.789 255 255 255
-0.0352828 0.107355 0.686 255 255 255
0.34243 0.195734 0.917 255 255 255
-0.141022 0.538656 1.384 255 255 255
-0.310159 -0.158411 0.587 255 255 255
-0.261879 0.0474539 0.726 255 255 255
0.193741 -0.151387 0.879 255 255 255
-0.329514 -0.0484585 0.831 255 255 255
-0.0116774 0.157726 0.677 255 255 255
-0.239119 -0.334037 0.969 255 255 255
-0.292075 0.063021 0.702 255 255 255
-0.116571 0.105825 0.698 255 255 255
0.103527 0.0761597 0.791 255 255 255
-0.392165 -0.128058 0.95 255 255 255
-0.321313 -0.222647 0.856 255 255 255
-0.128041 -0.29937 0.964 255 255 255
-0.293965 -0.248032 0.887 0 0 0
0.25801 0.143907 0.97 255 255 255
0.158902 -0.11995 0.935 255 255 255
0.297011 0.0606585 0.884 255 255 255
-0.233274 0.0840339 0.687 255 255 255
-0.214781 0.15055 0.612 255 255 255
-0.0399392 0.0127982 0.858 255 255 255
-0.362179 0.0426395 0.705 255 255 255
0.102808 -0.276676 0.91 255 255 255
-0.0990087 0.215744 0.576 255 255 255
0.37331 0.334185 0.95 255 255 255
-0.152025 -0.0879361 0.86 255 255 255
0.189087 -0.152248 0.884 255 255 255
0.364415 0.314418 0.951 255 255 255
-0.173166 0.172696 0.599 255 255 255
-0.302951 0.0323162 0.731 255 255 255
-0.107832 0.185794 0.61 255 255 255
0.433504 0.306746 0.872 255 255 255
-0.180603 0.102522 0.662 255 255 255
0.28679 -0.166014 0.768 255 255 255
0.344796 -0.126931 0.737 255 255 255
0.361957 -0.138255 0.721 255 255 255
0.344022 0.0702749 0.844 255 255 255
0.252341 0.323974 1.081 255 255 255
-0.211021 -0.0876736 0.844 255 255 255
-0.268446 -0.0274619 0.81 255 255 255
-0.17521 -0.109943 0.857 255 255 255
0.362087 -0.0500369 0.753 255 255 255
0.00191938 0.0439697 0.84 255 255 255
-0.053382 0.110067 0.689 255 255 255
0.063049 0.0525208 0.784 255 255 255
0.270486 0.0583824 0.916 255 255 255
0.186235 -0.121049 0.898 255 255 255
-0.287192 -0.0571187 0.652 255 255 255
0.127444 0.179976 0.986 255 255 255
-0.126393 -0.0568201 0.715 255 255 255
-0.0309452 -0.297151 0.923 255 255 255
-0.273752 0.130436 0.593 255 255 255
-0.0988638 -0.284142 0.955 255 255 255
-0.228899 0.068635 0.701 255 255 255
-0.427196 -0.319039 0.9 255 255 255
0.206301 0.125623 1.027 255 255 255
-0.281405 -0.0316878 0.817 255 255 255
-0.113018 0.0372104 0.758 255 255 255
-0.241242 -0.0139279 0.79 255 255 255
0.118611 0.0605528 0.806 255 255 255
-0.333564 -0.00795146 0.715 255 255 255
-0.218432 -0.0532365 0.782 255 255 255
-0.298594 -0.202804 0.843 255 255 255
0.389641 0.225717 0.866 255 255 255
-0.423603 -0.313009 0.908 255 255 255
0.206891 -0.0403924 0.925 255 255 255
0.116812 -0.058605 1.005 255 255 255
0.340649 0.00418888 0.813 255 255 255
0.315849 -0.164125 0.748 255 255 255
-0.123862 0.0312886 0.764 255 255 255
0.374261 0.0490039 0.789 255 255 255
-0.00518492 0.0813846 0.693 255 255 255
-0.205482 -0.111996 0.873 255 255 255
-0.245921 -0.0660122 0.814 255 255 255
-0.256879 0.138278 0.615 255 255 255
0.279354 -0.208259 0.758 255 255 255
0.274279 -0.0492749 0.845 255 255 255
-0.108314 -0.345234 0.892 255 255 255
0.16214 -0.0950897 0.945 255 255 255
0.274669 -0.177806 0.787 255 255 255
0.300869 -0.0611611 0.82 255 255 255
-0.064876 -0.162786 1.152 255 255 255
-0.351867 0.0372696 0.712 255 255 255
-0.306465 -0.304024 0.82 0 0 0
0.333205 -0.104506 0.757 255 255 255
-0.0856788 -0.063312 0.93 255 255 255
-0.177674 -0.0337839 0.72 255 255 255
-0.00813277 -0.160677 1.087 255 255 255
0.256145 0.163099 0.981 255 255 255
0.0483104 0.375683 1.083 255 255 255
0.0874469 0.0430159 0.797 255 255 255
0.0257011 0.280503 1.025 255 255 255
-0.324149 -0.0702336 0.627 255 255 255
0.0171708 -0.305322 0.925 255 255 255
-0.152869 0.0648756 0.736 255 255 255
0.1594 -0.0937498 0.947 255 255 255
-0.258272 0.0561216 0.716 255 255 255
0.224764 -0.0395627 0.906 255 255 255
0.162826 -0.264588 0.852 255 255 255
-0.157804 0.19572 0.575 255 255 255
0.298581 0.0787145 0.893 255 255 255
0.335181 0.145863 0.886 255 255 255
-0.36475 -0.0910647 0.905 255 255 255
-0.0761303 0.139064 0.672 255 255 255
0.014174 0.145273 0.702 255 255 255
-0.0623822 -0.0704099 0.944 255 255 255
0.377622 0.370829 0.969 255 255 255
-0.0847297 -0.0196416 0.717 255 255 255
-0.0226305 0.126504 0.675 0 0 0
-0.0540104 0.14933 0.669 255 255 255
-0.105132 -0.171907 0.928 255 255 255
0.325121 0.27764 0.963 255 255 255
0.278868 -0.0871479 0.826 255 255 255
0.164308 -0.175118 0.898 255 255 255
0.0525304 -0.225659 0.938 255 255 255
0.32262 0.325405 1.004 255 255 255
0.379563 0.107913 0.817 255 255 255
0.0805849 -0.281845 0.927 255 255 255
-0.260786 0.192093 0.559 255 255 255
-0.00626744 0.104309 0.688 255 255 255
0.096601 -0.121657 0.999 255 255 255
-0.26813 -0.309766 0.977 255 255 255
0.105189 -0.279574 0.905 255 255 255
0.323096 0.383352 1.037 255 255 255
-0.211469 0.0288774 0.766 255 255 255
-0.0132679 -0.195276 1.073 255 255 255
0.0243539 0.150339 0.699 255 255 255
0.0940385 -0.309217 0.897 255 255 255
0.290538 -0.208663 0.755 255 255 255
0.19369 -0.254552 0.824 255 255 255
0.1299 -0.00463466 1.005 255 255 255
-0.0954911 0.058967 0.737 255 255 255
-0.311203 -0.0815915 0.636 255 255 255
0.305848 -0.0770723 0.805 255 255 255
0.0515059 0.131879 0.729 255 255 255
0.271392 -0.195021 0.774 255 255 255
0.328339 -0.107393 0.76 255 255 255
-0.0269255 0.0960132 0.701 255 255 255
-0.300407 -0.071473 0.864 255 255 255
-0.0492188 0.224159 0.678 255 255 255
0.294914 -0.00395214 0.857 255 255 255
-0.297043 -0.0509861 0.655 255 255 255
0.151193 0.263972 1.141 255 255 255
-0.0891314 0.148337 0.655 255 255 255
0.0261768 -0.353108 0.924 255 255 255
-0.229378 0.000213334 0.789 255 255 255
0.156107 -0.316216 0.831 255 255 255
0.36537 0.0337241 0.792 255 255 255
-0.0225189 -0.0372896 0.887 255 255 255
0.405286 0.340857 0.914 255 255 255
-0.293384 -0.00617501 0.785 255 255 255
-0.286418 -0.251725 0.895 255 255 255
-0.168255 -0.331395 0.918 255 255 255
-0.346029 0.0262962 0.729 255 255 255
0.1515 -0.321811 0.828 255 255 255
0.186184 -0.221347 0.851 255 255 255
-0.124421 0.531213 1.4 255 255 255
-0.115961 -0.104543 0.65 0 0 0
0.349178 0.228557 0.923 255 255 255
-0.270952 0.0880583 0.675 255 255 255
0.23628 0.279409 1.072 255 255 255
0.35628 -0.155068 0.712 255 255 255
0.321982 -0.0223537 0.816 255 255 255
0.391666 0.182601 0.849 255 255 255
0.354576 0.139267 0.863 255 255 255
-0.0742072 -0.0481417 0.901 255 255 255
0.083123 0.0702872 0.769 255 255 255
0.0963102 -0.312948 0.891 255 255 255
-0.279104 0.140811 0.584 255 255 255
-0.27282 0.00148211 0.781 255 255 255
-0.194925 -0.228305 0.924 255 255 255
0.244178 0.0241504 0.918 255 255 255
-0.268827 0.0164121 0.766 255 255 255
-0.2473 -0.119912 0.923 0 0 0
-0.155974 0.167376 0.608 255 255 255
-0.165766 0.0994398 0.663 255 255 255
-0.20862 0.207277 0.551 255 255 255
0.276323 0.0427641 0.901 255 255 255
0.25478 -0.242839 0.762 255 255 255
0.315167 -0.0344309 0.819 255 255 255
-0.316314 0.0788009 0.671 255 255 255
0.394679 0.326542 0.924 255 255 255
-0.01031 0.448864 1.378 255 255 255
0.243287 0.376695 1.112 255 255 255
0.255787 -0.279553 0.754 255 255 255
-0.197116 0.187298 0.575 255 255 255
-0.369606 0.00866463 0.743 255 255 255
0.0611966 -0.346994 0.908 255 255 255
0.138977 0.0858979 0.81 255 255 255
0.384264 0.226121 0.873 255 255 255
0.326271 -0.155983 0.744 255 255 255
-0.0831877 0.0571824 0.745 255 255 255
-0.026911 -0.0113332 0.889 255 255 255
0.107065 -0.316244 0.884 255 255 255
0.219327 -0.148819 0.856 255 255 255
-0.358285 -0.308226 0.835 255 255 255
0.37072 -0.0982677 0.729 255 255 255
-0.287192 -0.0581797 0.652 255 255 255
-0.4048 -0.23707 0.947 255 255 255
-0.207806 0.172173 0.584 255 255 255
0.254086 -0.0216049 0.895 255 255 255
-0.0370315 0.0810404 0.72 255 255 255
-0.325352 -0.0311835 0.804 255 255 255
-0.30133 -0.0898789 0.879 255 255 255
0.0054464 -0.218888 0.983 255 255 255
-0.042832 0.0809278 0.719 255 255 255
0.379065 0.00145175 0.765 255 255 255
-0.277904 -0.328773 0.864 0 0 0
-0.0692853 0.0627348 0.739 255 255 255
-0.25039 0.119275 0.642 255 255 255
0.298356 -0.0968425 0.806 255 255 255
-0.0813148 0.0627348 0.739 255 255 255
0.279106 -0.153932 0.796 255 255 255
0.400936 0.223371 0.857 255 255 255
-0.0886899 -0.106585 0.98 255 255 255
0.344421 0.0309885 0.822 255 255 255
0.309628 -0.235675 0.714 255 255 255
-0.291397 -0.036559 0.664 255 255 255
0.243923 -0.235437 0.787 255 255 255
0.32541 0.394236 1.039 255 255 255
0.0645766 -0.0146267 0.914 255 255 255
-0.147462 0.0608194 0.745 255 255 255
-0.264407 -0.155228 0.975 0 0 0
-0.403052 -0.297247 0.905 255 255 255
0.287394 -0.223148 0.75 255 255 255
-0.0623807 0.161946 0.654 255 255 255
-0.0250856 0.115608 0.682 255 255 255
0.252208 0.205723 1.01 255 255 255
0.297146 -0.043101 0.832 255 255 255
0.280815 -0.224967 0.752 255 255 255
-0.00944532 0.197903 0.675 255 255 255
-0.441019 -0.228386 0.969 255 255 255
0.205997 -0.0507091 0.921 255 255 255
-0.147837 -0.095437 0.852 255 255 255
-0.294395 0.0668202 0.694 255 255 255
0.0754336 -0.247029 0.938 255 255 255
0.0821906 0.0630236 0.772 255 255 255
0.170913 -0.145073 0.902 255 255 255
0.193328 -0.115075 0.897 255 255 255
0.123459 0.0636463 0.812 255 255 255
-0.294048 -0.14109 0.607 255 255 255
0.308811 0.273039 0.986 255 255 255
-0.0182085 0.127413 0.674 255 255 255
-0.222935 0.187907 0.574 255 255 255
0.146923 0.0673504 0.825 255 255 255
0.047552 -0.0985915 1.066 255 255 255
0.0799904 0.116922 0.763 255 255 255
-0.0662398 0.0750776 0.719 255 255 255
0.29815 -0.0800883 0.809 255 255 255
-0.199491 0.153041 0.614 255 255 255
-0.279443 0.163335 0.573 255 255 255
-0.133162 -0.294007 0.967 0 0 0
-0.219686 0.0913249 0.683 255 255 255
-0.167803 0.0809645 0.68 255 255 255
-0.0963944 0.110685 0.7 255 255 255
0.276921 -0.255911 0.732 255 255 255
-0.289655 0.122095 0.59 255 255 255
0.232645 -0.0534072 0.891 255 255 255
-0.132582 0.000193866 0.717 255 255 255
-0.115729 0.0109784 0.736 255 255 255
0.379302 0.225671 0.888 255 255 255
0.0105453 0.0201714 0.875 255 255 255
-0.315937 -0.0569435 0.65 255 255 255
0.241879 -0.114848 0.852 255 255 255
-0.108374 -0.0454375 0.719 255 255 255
0.0218571 0.158969 0.692 255 255 255
-0.254965 0.205394 0.539 255 255 255
-0.171491 0.116538 0.656 255 255 255
-0.0859519 -0.0444566 0.886 255 255 255
-0.298421 0.082566 0.675 255 255 255
0.0312632 0.0540025 0.787 255 255 255
-0.392468 -0.121489 0.947 255 255 255
-0.156935 -0.0171632 0.711 255 255 255
-0.297478 -0.210571 0.563 255 255 255
-0.31362 -0.018346 0.712 255 255 255
-0.0623059 0.530795 1.387 255 255 255
0.233492 -0.174433 0.832 255 255 255
-0.0810737 0.200344 0.603 255 255 255
0.335002 0.272633 0.951 255 255 255
0.145261 -0.286261 0.863 255 255 255
0.244327 -0.020306 0.902 255 255 255
-0.241834 -0.189514 0.98 255 255 255
-0.307575 0.0910558 0.657 255 255 255
0.331012 -0.0473532 0.79 255 255 255
0.151151 0.484106 1.265 255 255 255
-0.332341 -0.00669298 0.705 255 255 255
0.321121 0.102724 0.887 255 255 255
0.304599 -0.00529685 0.849 255 255 255
0.237602 0.164137 0.997 255 255 255
-0.332315 -0.065776 0.845 255 255 255
-0.246223 -0.141691 0.815 255 255 255
0.230477 -0.286227 0.772 255 255 255
-0.0805568 0.111984 0.701 255 255 255
0.208143 0.314036 1.108 255 255 255
0.369175 -0.0773359 0.733 255 255 255
-0.414739 -0.33684 0.889 255 255 255
0.155147 0.236395 1.116 255 255 255
0.333937 0.000220635 0.816 255 255 255
-0.339787 -0.21348 0.864 255 255 255
-0.156474 0.194523 0.577 255 255 255
-0.292442 -0.134723 0.614 255 255 255
0.0361302 -0.170161 1.037 255 255 255
-0.0683476 0.164129 0.65 255 255 255
-0.264428 -0.10287 0.88 255 255 255
0.188702 0.152358 1.05 255 255 255
0.0793679 -0.301361 0.913 255 255 255
0.20318 -0.246343 0.819 255 255 255
-0.182879 -0.00224119 0.751 255 255 255
0.0638442 0.113197 0.763 255 255 255
0.304927 0.386449 1.05 255 255 255
0.335406 0.379425 1.013 255 255 255
-0.261142 0.172881 0.58 255 255 255
0.245859 -0.233562 0.785 255 255 255
0.0555293 0.405645 1.122 255 255 255
0.103998 -0.115962 0.992 255 255 255
0.344905 0.293041 0.957 255 255 255
0.268957 -0.224887 0.76 255 255 255
-0.126701 0.192199 0.596 255 255 255
0.162675 -0.309082 0.83 255 255 255
0.239027 0.0243872 0.927 255 255 255
-0.25665 0.161595 0.587 255 255 255
-0.240033 -0.0785858 0.835 255 255 255
-0.103773 -0.32471 0.916 255 255 255
0.0420702 0.122556 0.73 255 255 255
-0.0919666 -0.172527 0.948 0 0 0
0.186318 -0.270282 0.827 255 255 255
0.245242 -0.175277 0.817 255 255 255
0.262803 -0.257126 0.753 255 255 255
0.266254 -0.0113077 0.887 255 255 255
-0.313429 -0.0299866 0.807 255 255 255
-0.256471 -0.2298 0.975 0 0 0
-0.236431 0.0920303 0.68 255 255 255
0.231922 0.266201 1.068 255 255 255
0.205578 -0.181186 0.851 255 255 255
0.211042 -0.152667 0.862 255 255 255
-0.248496 -0.172674 0.85 255 255 255
-0.129656 0.115063 0.666 255 255 255
-0.206819 -0.287935 0.937 255 255 255
0.125027 -0.226327 0.91 255 255 255
-0.0357906 -0.142114 1.122 255 255 255
0.0659189 -0.221978 0.955 255 255 255
-0.320851 -0.0952874 0.611 255 255 255
-0.29329 0.161114 0.562 255 255 255
-0.280809 -0.0473329 0.835 0 0 0
0.316432 -0.185951 0.738 255 255 255
0.218965 0.330263 1.108 255 255 255
-0.0442806 0.114219 0.687 255 255 255
-0.415532 -0.302846 0.913 255 255 255
0.0287581 -0.0768246 1.077 255 255 255
0.0335122 0.264631 1.009 255 255 255
0.274266 -0.207845 0.761 255 255 255
0.269946 -0.258358 0.739 255 255 255
0.252769 -0.239434 0.771 255 255 255
0.124084 -0.146591 0.96 255 255 255
0.362395 0.116696 0.842 255 255 255
-0.271059 0.175134 0.575 255 255 255
0.132875 0.0743088 0.813 255 255 255
-0.263028 0.13683 0.613 255 255 255
0.295784 -0.160363 0.759 255 255 255
-0.411891 -0.319338 0.905 255 255 255
-0.141451 -0.197973 0.909 255 255 255
0.163973 -0.249696 0.858 255 255 255
0.256303 0.0498703 0.924 255 255 255
-0.119813 -0.261628 1.073 255 255 255
-0.0394212 0.0229719 0.7 255 255 255
-0.0781695 0.123701 0.69 255 255 255
-0.0821739 -0.0544262 0.908 255 255 255
-0.138169 -0.278846 0.969 255 255 255
0.340154 -0.204023 0.705 255 255 255
0.177575 -0.170949 0.884 255 255 255
-0.0779882 -0.0956308 0.966 255 255 255
0.0391311 -0.071301 1.073 255 255 255
0.0693217 0.0058441 0.862 255 255 255
0.037796 -0.0280131 0.914 255 255 255
-0.313065 -0.216292 0.864 255 255 255
-0.293816 -0.121718 0.619 255 255 255
0.186482 0.321532 1.141 255 255 255
0.292884 0.171209 0.955 255 255 255
0.379162 0.262937 0.912 255 255 255
-0.113653 -0.146191 0.989 255 255 255
-0.374395 -0.148467 0.952 255 255 255
0.0986257 0.0957093 0.793 255 255 255
0.386216 0.0332983 0.782 255 255 255
-0.0409989 -0.101373 1.024 255 255 255
-0.208367 0.0749808 0.686 255 255 255
-0.0821914 0.197728 0.604 255 255 255
0.24313 -0.203411 0.797 255 255 255
-0.0726598 -0.0261194 0.9 255 255 255
-0.308773 -0.250507 0.856 255 255 255
-0.0993467 0.178462 0.619 255 255 255
-0.128801 0.153953 0.63 255 255 255
0.20213 0.383932 1.167 255 255 255
0.31883 -0.0995519 0.776 255 255 255
0.251831 -0.0511409 0.877 255 255 255
0.212584 -0.111462 0.88 255 255 255
-0.184243 0.127498 0.652 255 255 255
0.27587 0.328353 1.05 255 255 255
0.317027 0.256763 0.967 255 255 255
-0.252339 0.178877 0.575 255 255 255
0.132149 -0.235033 0.898 255 255 255
0.15019 0.324265 1.192 255 255 255
0.0740068 -0.340297 0.902 255 255 255
-0.0830753 0.108871 0.703 255 255 255
0.254401 -0.0273081 0.891 255 255 255
0.354372 0.236025 0.917 255 255 255
0.187697 0.306311 1.126 255 255 255
-0.276758 -0.157477 0.757 255 255 255
-0.101793 -0.29619 0.939 255 255 255
-0.251763 -0.095596 0.866 255 255 255
-0.283115 0.153473 0.571 255 255 255
-0.139433 -0.0996945 0.646 255 255 255
0.182198 0.297149 1.126 255 255 255
-0.157912 0.19656 0.572 255 255 255
0.294659 0.0387706 0.877 255 255 255
-0.296227 0.0268373 0.744 255 255 255
0.142242 -0.239641 0.888 255 255 255
0.288693 0.107691 0.917 255 255 255
-0.174989 0.191235 0.57 255 255 255
0.189729 -0.148435 0.887 255 255 255
0.160649 -0.219797 0.878 255 255 255
0.0200666 -0.110534 1.081 255 255 255
-0.140673 -0.189528 0.904 255 255 255
0.112264 -0.291199 0.891 255 255 255
0.023124 0.0298288 0.866 255 255 255
0.227351 -0.124323 0.86 255 255 255
-0.437638 -0.224348 0.972 255 255 255
0.175366 0.423887 1.205 255 255 255
-0.267479 -0.197836 0.895 255 255 255
0.24053 -0.266126 0.772 255 255 255
0.282136 0.0319955 0.887 255 255 255
0.0184544 -0.24517 0.914 255 255 255
0.324316 0.0961852 0.88 255 255 255
0.243071 -0.0433061 0.892 255 255 255
0.0423266 0.0379519 0.828 255 255 255
-0.166194 -0.0518741 0.711 255 255 255
-0.172191 0.170747 0.599 255 255 255
0.0434635 0.0404504 0.824 255 255 255
0.207522 -0.105368 0.889 255 255 255
-0.232772 -0.319276 1.176 255 255 255
-0.32526 -0.00836285 0.656 255 255 255
-0.179592 0.214956 0.55 255 255 255
0.0682733 -0.151387 1.013 255 255 255
-0.161945 0.0371122 0.756 255 255 255
-0.132915 0.0238913 0.766 0 0 0
-0.142901 -0.282 0.969 255 255 255
0.253222 0.0994073 0.952 255 255 255
0.285741 -0.00819297 0.863 255 255 255
0.388444 0.337596 0.938 255 255 255
0.224268 -0.197993 0.823 255 255 255
0.273399 0.0972145 0.931 255 255 255
-0.134971 0.0485651 0.743 0 0 0
0.165743 -0.0531868 0.966 255 255 255
-0.079414 0.157689 0.654 255 255 255
-0.264475 -0.136931 0.958 255 255 255
-0.222251 -0.00869656 0.782 255 255 255
0.402784 0.200588 0.855 255 255 255
-0.0182355 0.130898 0.675 255 255 255
0.197837 -0.0452481 0.932 255 255 255
0.327718 0.20807 0.939 255 255 255
0.206535 -0.295846 0.791 255 255 255
-0.24181 0.138393 0.62 255 255 255
0.392977 0.248828 0.883 255 255 255
-0.0883542 -0.0336901 0.718 255 255 255
0.0586259 0.143742 0.729 255 255 255
-0.28613 -0.071973 0.652 255 255 255
0.190123 -0.0779401 0.924 255 255 255
-0.27377 -0.146147 0.947 255 255 255
0.418711 0.270965 0.862 255 255 255
-0.274254 0.129253 0.592 255 255 255
-0.101181 0.195442 0.6 255 255 255
0.00884018 -0.220516 1.005 255 255 255
-0.292778 0.0993058 0.655 255 255 255
-0.209522 0.010392 0.782 255 255 255
0.150168 -0.266425 0.867 255 255 255
-0.307288 -0.0193864 0.668 255 255 255
0.250632 -0.136882 0.826 255 255 255
0.140451 -0.280857 0.868 255 255 255
0.3393 0.128829 0.878 255 255 255
-0.357725 -0.0846359 0.884 255 255 255
0.240789 -0.100298 0.858 255 255 255
0.0060614 -0.104742 1.094 255 255 255
-0.0500173 0.120158 0.689 0 0 0
-0.0367148 -0.241498 0.917 255 255 255
-0.0779415 -0.0601555 0.928 255 255 255
-0.0415916 0.230719 0.662 255 255 255
0.0536964 -0.1687 1.018 255 255 255
-0.000654206 0.118639 0.674 255 255 255
0.282132 0.0130965 0.878 255 255 255
0.306522 -0.166227 0.752 255 255 255
0.0506827 0.0772997 0.752 255 255 255
-0.220474 0.092301 0.682 255 255 255
-0.0466656 -0.17649 1.12 255 255 255
-0.0859519 -0.0458985 0.886 255 255 255
-0.141032 -0.29086 0.967 255 255 255
-0.0205829 -0.331187 0.93 255 255 255
0.352632 -0.156665 0.714 255 255 255
0.251815 -0.0315159 0.887 255 255 255
-0.234555 0.183555 0.575 255 255 255
-0.0874665 -0.329542 0.917 255 255 255
-0.229181 -0.199589 0.967 255 255 255
-0.187992 0.0177969 0.772 255 255 255
-0.269153 -0.161875 0.958 255 255 255
-0.305376 0.0905907 0.604 255 255 255
-0.176556 0.0276309 0.766 255 255 255
0.17733 0.189218 1.085 255 255 255
-0.266842 0.174501 0.576 255 255 255
-0.104882 0.181607 0.616 255 255 255
0.371652 -0.0391121 0.755 255 255 255
0.179334 0.359244 1.167 255 255 255
-0.114264 -0.302946 0.941 255 255 255
-0.197018 0.190044 0.572 255 255 255
-0.140171 -0.0861341 0.856 255 255 255
0.327826 0.327346 0.995 255 255 255
0.151324 0.375574 1.201 255 255 255
0.1817 0.155387 1.059 255 255 255
0.212434 -0.284826 0.789 255 255 255
0.294225 -0.19392 0.755 255 255 255
0.104783 0.206953 0.955 255 255 255
0.0353156 -0.0344456 0.927 255 255 255
-0.126051 0.201634 0.584 255 255 255
-0.154132 -0.205011 0.914 255 255 255
-0.214002 0.20638 0.551 255 255 255
0.367006 0.232679 0.904 255 255 255
0.268957 -0.226123 0.76 255 255 255
0.365396 -0.0871156 0.735 255 255 255
-0.250947 -0.367678 0.954 255 255 255
0.208719 0.0173351 0.954 255 255 255
-0.121355 -0.308332 0.925 255 255 255
-0.347388 -0.0820363 0.887 255 255 255
-0.300395 -0.292318 0.852 255 255 255
-0.192357 0.148482 0.62 255 255 255
-0.295812 -0.31926 0.839 255 255 255
-0.388557 -0.251225 0.909 255 255 255
-0.311692 -0.07861 0.637 255 255 255
-0.0364436 -0.206668 1.087 255 255 255
-0.104134 -0.0358262 0.714 255 255 255
0.0390954 0.162831 0.719 255 255 255
-0.094854 0.00607828 0.723 255 255 255
0.213245 -0.134418 0.871 255 255 255
-0.00693568 -0.230555 0.927 255 255 255
0.310302 0.113771 0.906 255 255 255
0.0271827 0.270304 1.018 255 255 255
-0.155237 0.133415 0.655 255 255 255
-0.2216 0.0322763 0.758 255 255 255
0.078319 0.066706 0.771 255 255 255
-0.170088 -0.316883 0.928 255 255 255
0.348408 0.317627 0.98 255 255 255
0.355906 0.319121 0.97 255 255 255
0.0499741 0.143934 0.724 255 255 255
-0.312906 0.0101129 0.761 255 255 255
-0.199893 -0.337131 1.152 255 255 255
0.0443695 -0.26676 0.927 255 255 255
-0.094054 -0.17979 1.165 255 255 255
-0.306608 -0.0578658 0.85 255 255 255
-0.378885 -0.321926 0.857 255 255 255
0.160561 -0.129483 0.927 255 255 255
-0.0837024 0.168367 0.638 255 255 255
-0.253921 0.135366 0.62 255 255 255
-0.296615 -0.248069 0.882 0 0 0
0.427474 0.31349 0.883 255 255 255
0.372066 0.103097 0.821 255 255 255
-0.163776 0.157293 0.615 255 255 255
0.0570126 -0.312904 0.912 255 255 255
0.00620546 0.383051 1.12 255 255 255
-0.0737767 0.234196 0.642 255 255 255
-0.111699 -0.110461 0.972 255 255 255
-0.306422 0.115179 0.589 255 255 255
-0.0308621 0.164175 0.663 255 255 255
-0.333019 -0.28851 0.833 255 255 255
0.335164 0.0148821 0.819 255 255 255
-0.0214017 -0.0721254 0.967 255 255 255
-0.232329 -0.325479 0.967 255 255 255
0.0396936 0.0916695 0.73 255 255 255
-0.254102 0.109231 0.657 255 255 255
-0.31076 0.0368717 0.727 255 255 255
-0.0575002 0.224439 0.647 255 255 255
-0.0553189 0.00832644 0.714 0 0 0
-0.24448 0.0014954 0.788 255 255 255
0.114979 0.0639276 0.799 255 255 255
0.361613 0.32208 0.96 255 255 255
0.0351632 -0.322686 0.923 255 255 255
-0.138158 0.119397 0.66 255 255 255
0.00597829 -0.150715 1.079 255 255 255
0.231007 0.180847 1.018 255 255 255
-0.197961 -0.0146743 0.762 255 255 255
-0.170199 0.0501762 0.749 255 255 255
-0.175035 0.0774163 0.678 255 255 255
-0.293694 -0.0877214 0.643 255 255 255
-0.307668 -0.139737 0.597 255 255 255
0.027688 0.15558 0.697 255 255 255
0.303655 -0.174031 0.754 255 255 255
-0.323527 -0.284443 0.833 255 255 255
-0.294048 -0.143065 0.607 255 255 255
-0.312449 0.109574 0.595 255 255 255
0.348812 0.071224 0.839 255 255 255
0.419588 0.3371 0.9 255 255 255
0.312624 0.16458 0.935 255 255 255
0.286072 -0.00398442 0.864 255 255 255
-0.27669 -0.305525 0.878 0 0 0
-0.0299669 0.507149 1.354 255 255 255
0.230256 -0.166909 0.835 255 255 255
-0.166207 -0.198402 0.891 255 255 255
-0.131996 -0.269663 0.97 255 255 255
0.0568675 -0.0240663 0.934 255 255 255
-0.274635 -0.102761 0.867 255 255 255
-0.205689 0.107032 0.67 255 255 255
-0.0784089 -0.173056 1.158 255 255 255
0.175851 0.441799 1.222 255 255 255
-0.121884 0.009794 0.737 255 255 255
0.0466599 -0.137594 1.046 255 255 255
-0.128616 -0.189109 0.902 255 255 255
-0.276138 0.0114707 0.769 255 255 255
-0.289336 0.0513891 0.715 255 255 255
-0.184647 -0.34552 0.889 255 255 255
-0.195362 -0.339618 0.912 255 255 255
-0.151877 -0.0228838 0.709 255 255 255
0.296683 -0.191463 0.755 255 255 255
-0.323895 -0.0169292 0.752 255 255 255
0.0960941 -0.319479 0.889 255 255 255
0.346017 -0.0129143 0.807 255 255 255
-0.140588 -0.131985 0.913 255 255 255
0.292893 0.150962 0.945 255 255 255
0.136657 -0.0669201 0.983 255 255 255
0.0227787 0.302692 1.044 255 255 255
-0.118852 0.202325 0.586 255 255 255
0.182093 -0.0216342 0.961 255 255 255
0.253853 0.212298 1.01 255 255 255
-0.114993 -0.232447 0.947 255 255 255
-0.274103 -0.162324 0.97 255 255 255
0.0738279 -0.252865 0.937 255 255 255
0.0158585 -0.210459 1.036 255 255 255
-0.211823 0.206901 0.55 255 255 255
0.238538 -0.219524 0.799 255 255 255
-0.0941378 0.0338193 0.765 255 255 255
0.291696 -0.114927 0.795 255 255 255
0.0700976 0.202613 0.928 255 255 255
-0.293936 -0.207641 0.565 255 255 255
0.30098 -0.0811029 0.806 255 255 255
-0.437534 -0.191179 0.997 255 255 255
0.0133534 0.378946 1.108 255 255 255
-0.145411 -0.147157 0.888 255 255 255
0.210088 0.428344 1.169 255 255 255
0.230808 0.421016 1.149 255 255 255
-0.388532 -0.104892 0.923 255 255 255
-0.146638 -0.011298 0.706 255 255 255
-0.170731 0.183577 0.584 255 255 255
-0.17537 -0.200172 0.886 255 255 255
0.39477 0.100397 0.81 255 255 255
0.279427 0.0189189 0.883 255 255 255
-0.300851 0.0807263 0.678 255 255 255
0.0698632 0.0322082 0.819 255 255 255
0.248183 0.408923 1.126 255 255 255
-0.31855 -0.313497 0.81 255 255 255
-0.296373 -0.0865402 0.642 255 255 255
0.325688 -0.224272 0.711 255 255 255
0.300929 -0.132136 0.782 255 255 255
-0.336641 -0.229612 0.856 255 255 255
-0.147022 -0.141536 0.889 255 255 255
-0.251662 -0.210461 0.981 0 0 0
0.01419 -0.35878 0.927 255 255 255
-0.241198 0.194259 0.56 255 255 255
0.235457 -0.145863 0.839 255 255 255
-0.174394 0.0349267 0.762 255 255 255
-0.0770323 0.0186583 0.756 255 255 255
0.274057 -0.220303 0.757 255 255 255
0.324784 0.390102 1.037 255 255 255
0.319693 -0.190801 0.729 255 255 255
-0.253137 -0.00106791 0.787 255 255 255
-0.00278552 -0.182882 1.072 255 255 255
-0.144648 0.182139 0.598 255 255 255
0.00376206 0.155982 0.679 255 255 255
0.381656 0.278111 0.918 255 255 255
-0.121713 0.201371 0.586 255 255 255
-0.392906 -0.301687 0.892 255 255 255
0.279696 0.125956 0.942 255 255 255
0.0064828 0.198091 0.737 255 255 255
0.396366 0.130355 0.816 255 255 255
0.159038 -0.223828 0.877 255 255 255
0.11067 -0.202978 0.939 255 255 255
0.389499 0.359707 0.948 255 255 255
0.25545 0.380481 1.102 255 255 255
0.20784 -0.282172 0.796 255 255 255
0.0987368 -0.175313 0.972 255 255 255
0.244066 -0.166986 0.822 255 255 255
0.243315 -0.0937517 0.862 255 255 255
0.230315 0.288095 1.085 255 255 255
0.184043 -0.253873 0.835 255 255 255
0.377154 0.34428 0.948 255 255 255
0.263795 -0.269067 0.742 255 255 255
0.269826 -0.152119 0.807 255 255 255
-0.157908 -0.27553 0.974 255 255 255
-0.295921 -0.129939 0.615 255 255 255
0.270866 0.210552 0.994 255 255 255
-0.120193 -0.095023 0.65 255 255 255
-0.440017 -0.200708 0.988 255 255 255
0.0412623 -0.311343 0.925 255 255 255
-0.251888 0.0343309 0.749 255 255 255
0.365998 0.0548259 0.799 255 255 255
-0.117343 0.179725 0.613 255 255 255
0.211134 -0.123503 0.874 255 255 255
-0.311414 -0.117354 0.612 255 255 255
0.258921 -0.204673 0.782 255 255 255
-0.0651432 0.0192835 0.733 255 255 255
0.350776 -0.191458 0.701 255 255 255
-0.309251 0.0457626 0.718 255 255 255
-0.217791 0.209333 0.547 255 255 255
-0.13897 0.156799 0.625 255 255 255
-0.216313 0.135714 0.631 255 255 255
-0.324508 -0.0376705 0.646 0 0 0
-0.0483106 -0.0818202 0.97 255 255 255
-0.324425 -0.0847643 0.614 255 255 255
-0.128668 0.0200727 0.763 255 255 255
0.0896413 0.0308 0.817 255 255 255
-0.332901 -0.00355093 0.77 255 255 255
0.0488009 0.106459 0.742 0 0 0
-0.277169 -0.3116 0.875 0 0 0
-0.208271 0.181376 0.58 255 255 255
0.249646 -0.0217256 0.9 255 255 255
0.179107 0.391385 1.178 255 255 255
0.379062 -0.0109254 0.76 255 255 255
-0.267131 -0.0735009 0.839 255 255 255
-0.279769 0.100678 0.657 255 255 255
-0.0838419 -0.042675 0.879 255 255 255
-0.149873 -0.0445528 0.705 255 255 255
0.394621 0.0330428 0.776 255 255 255
-0.191157 -0.325359 0.935 255 255 255
-0.169355 0.11547 0.656 255 255 255
0.302546 -0.00530933 0.851 255 255 255
0.0166698 -0.0936301 1.089 255 255 255
0.127636 -0.0359927 1.013 255 255 255
0.274925 -0.222473 0.756 255 255 255
-0.302485 0.0881 0.667 255 255 255
0.0272895 -0.215931 1.022 255 255 255
-0.141194 0.150008 0.635 255 255 255
0.0241793 0.0914184 0.728 255 255 255
0.336921 0.136747 0.883 255 255 255
-0.219652 0.120761 0.65 255 255 255
0.277045 0.0116943 0.88 255 255 255
-0.364257 -0.285929 0.862 0 0 0
0.11943 0.0122791 0.924 255 255 255
0.291361 0.107573 0.916 255 255 255
0.235693 -0.151962 0.835 255 255 255
-0.0413403 0.162937 0.658 255 255 255
-0.174162 0.122568 0.654 255 255 255
-0.324589 0.0733057 0.642 255 255 255
0.0728824 0.197442 0.925 255 255 255
-0.107537 -0.207076 0.91 255 255 255
-0.349572 0.0158336 0.739 255 255 255
-0.267604 -0.36498 0.947 255 255 255
0.115038 0.497118 1.299 255 255 255
0.338054 -0.245478 0.68 255 255 255
0.37112 0.381807 0.981 255 255 255
-0.280209 -0.209299 0.567 255 255 255
0.308527 0.257025 0.98 255 255 255
0.354756 -0.0365993 0.78 255 255 255
0.209242 -0.129783 0.878 255 255 255
0.161285 -0.144029 0.914 255 255 255
0.242869 0.160085 0.992 255 255 255
-0.00605309 -0.218466 1.034 255 255 255
-0.171044 -0.326395 0.925 255 255 255
0.00769169 -0.162099 1.073 255 255 255
-0.306988 -0.170029 0.581 255 255 255
0.0508635 0.267436 0.995 255 255 255
-0.0928192 -0.289164 0.941 255 255 255
0.328464 -0.1485 0.749 255 255 255
-0.266208 0.0374296 0.738 255 255 255
0.142933 0.0911704 0.81 255 255 255
-0.187822 0.170861 0.596 255 255 255
-0.254651 -0.192225 0.896 255 255 255
0.328339 -0.10492 0.76 255 255 255
-0.140439 -0.166634 0.884 255 255 255
0.254999 0.306748 1.07 255 255 255
0.148805 0.0622056 0.828 255 255 255
-0.290511 -0.183262 0.584 255 255 255
-0.364328 -0.117782 0.942 255 255 255
0.17865 -0.133626 0.904 255 255 255
0.338077 -0.135765 0.746 255 255 255
0.363576 0.0795296 0.826 255 255 255
-0.239366 -0.220729 0.97 255 255 255
-0.420054 -0.335016 0.888 255 255 255
0.120248 0.31389 1.147 255 255 255
-0.125824 0.070479 0.732 255 255 255
-0.387353 -0.107316 0.931 255 255 255
-0.169553 0.040857 0.757 255 255 255
-0.287756 -0.107477 0.63 255 255 255
-0.0601028 0.0915806 0.702 255 255 255
0.243573 0.322828 1.089 255 255 255
0.358264 0.0342777 0.805 255 255 255
-0.161206 0.102522 0.662 255 255 255
0.096359 -0.167187 0.98 255 255 255
0.365893 -0.0692684 0.736 255 255 255
0.346395 -0.217648 0.69 255 255 255
-0.239275 -0.0100966 0.792 255 255 255
-0.0618198 -0.354848 0.913 255 255 255
-0.212407 0.198258 0.561 255 255 255
-0.176933 -0.0476447 0.717 255 255 255
-0.244053 0.200636 0.55 255 255 255
-0.0616911 0.237892 0.658 255 255 255
0.403138 0.275821 0.896 255 255 255
-0.321313 -0.246328 0.856 255 255 255
-0.176834 0.10973 0.66 255 255 255
0.214653 -0.227128 0.817 255 255 255
0.0593067 -0.0841574 1.059 255 255 255
0.378531 0.221129 0.893 255 255 255
0.329784 -0.0820836 0.778 255 255 255
0.279793 -0.161156 0.787 255 255 255
0.257479 0.161338 0.98 255 255 255
0.312469 -0.205374 0.726 255 255 255
-0.262226 -0.192819 0.892 255 255 255
-0.34745 0.0111873 0.75 255 255 255
0.187595 0.197602 1.073 255 255 255
0.303709 0.141151 0.931 255 255 255
0.0323325 -0.280639 0.928 255 255 255
-0.420502 -0.200678 0.98 255 255 255
0.0616166 0.298355 1.012 255 255 255
0.191062 0.0226611 0.983 255 255 255
0.149812 0.317644 1.189 255 255 255
-0.0186407 0.0383637 0.69 0 0 0
0.145754 0.453368 1.254 255 255 255
-0.0279402 -0.288139 0.923 255 255 255
-0.285691 -0.0633874 0.651 255 255 255
-0.271339 -0.211536 0.923 255 255 255
-0.00514571 -0.0283708 0.879 255 255 255
-0.0781709 0.000242265 0.896 255 255 255
0.0407139 0.094842 0.727 255 255 255
-0.118077 -0.111947 0.65 0 0 0
0.398309 0.144338 0.82 255 255 255
0.168261 -0.184729 0.888 255 255 255
0.0582588 0.0739221 0.755 255 255 255
0.151283 -0.00620773 0.995 255 255 255
0.172764 -0.142453 0.904 255 255 255
-0.293841 -0.256946 0.878 0 0 0
-0.0476355 0.110865 0.687 255 255 255
-0.146997 -0.0641583 0.719 0 0 0
-0.404527 -0.195223 0.961 255 255 255
-0.0276122 -0.0719016 0.964 255 255 255
-0.0217165 -0.276405 0.914 255 255 255
0.105187 -0.129965 0.988 255 255 255
-0.142675 0.17552 0.602 255 255 255
0.367557 0.248758 0.909 255 255 255
0.254548 0.15831 0.981 255 255 255
0.170411 0.313131 1.158 255 255 255
-0.281475 0.121751 0.593 255 255 255
0.413494 0.216206 0.84 255 255 255
-0.266319 -0.148483 0.896 255 255 255
-0.380537 -0.118532 0.948 255 255 255
-0.188663 0.203735 0.561 255 255 255
0.220096 -0.0513009 0.905 255 255 255
-0.279464 -0.0430492 0.831 255 255 255
-0.231727 -0.35363 0.958 255 255 255
0.0644782 -0.0755407 1.059 255 255 255
0.237109 -0.0588748 0.886 255 255 255
-0.158982 0.0676786 0.715 255 255 255
-0.269582 -0.142569 0.954 255 255 255
-0.250523 0.208128 0.537 255 255 255
0.0368862 -0.0215325 0.892 0 0 0
0.0409379 0.121535 0.731 255 255 255
0.0530117 0.0250688 0.848 255 255 255
-0.16498 0.046768 0.753 255 255 255
0.346674 0.0349589 0.821 255 255 255
-0.298346 0.115765 0.592 255 255 255
0.0210315 -0.0304115 0.897 255 255 255
-0.0888205 0.156569 0.645 255 255 255
-0.0204573 0.0114418 0.861 255 255 255
0.115811 -0.27242 0.896 255 255 255
-0.164189 0.0432063 0.755 255 255 255
0.327287 0.126528 0.892 255 255 255
0.16541 -0.0681221 0.955 255 255 255
0.409877 0.141874 0.806 255 255 255
0.0807655 -0.309935 0.912 255 255 255
0.196296 -0.00595194 0.954 255 255 255
0.380683 0.0644115 0.789 255 255 255
-0.126283 0.102218 0.689 255 255 255
-0.295646 0.103911 0.625 255 255 255
-0.103548 0.0901626 0.718 255 255 255
-0.337106 -0.0351275 0.638 255 255 255
0.224179 0.352625 1.116 255 255 255
-0.306661 -0.131794 0.854 255 255 255
0.232161 0.0447101 0.942 255 255 255
-0.25462 0.203009 0.542 255 255 255
-0.253441 -0.0166244 0.796 255 255 255
-0.151449 0.0749751 0.707 255 255 255
-0.298329 -0.0329769 0.816 255 255 255
0.314546 0.19814 0.95 255 255 255
0.187345 -0.0429395 0.948 255 255 255
0.319157 0.073516 0.866 255 255 255
-0.327767 -0.0536471 0.636 255 255 255
-0.327709 -0.0660467 0.626 255 255 255
0.319361 -0.072052 0.793 255 255 255
-0.198637 0.194498 0.566 255 255 255
-0.272264 -0.120494 0.916 255 255 255
-0.419646 -0.163396 0.967 0 0 0
-0.000948308 -0.0649217 0.977 255 255 255
-0.00847198 -0.329673 0.93 255 255 255
-0.280496 0.192957 0.546 255 255 255
0.328545 0.198478 0.937 255 255 255
-0.243132 0.208412 0.54 255 255 255
-0.415478 -0.163946 0.961 255 255 255
-0.301332 -0.156961 0.596 255 255 255
-0.349445 -0.122993 0.935 255 255 255
0.403027 0.0914905 0.79 255 255 255
0.173692 -0.285113 0.831 255 255 255
-0.0337153 0.446055 1.419 255 255 255
-0.0124398 -0.0431605 0.889 255 255 255
-0.435108 -0.282131 0.923 255 255 255
-0.283586 -0.140794 0.61 255 255 255
0.0768007 -0.221978 0.955 255 255 255
0.0686624 -0.00862967 0.909 0 0 0
0.228009 0.0791877 0.97 255 255 255
-0.245569 0.154948 0.602 255 255 255
-0.0129856 -0.327454 0.928 255 255 255
0.19701 -0.175112 0.862 255 255 255
0.0348411 -0.0550588 1 255 255 255
-0.242455 0.049954 0.728 255 255 255
-0.159283 0.00137964 0.727 255 255 255
-0.0865023 0.064523 0.732 255 255 255
0.182254 -0.137429 0.9 255 255 255
0.0917224 0.25388 0.999 255 255 255
-0.260429 -0.292363 0.972 255 255 255
-0.284162 0.147063 0.575 255 255 255
0.372155 0.329894 0.951 255 255 255
-0.214334 0.191571 0.571 255 255 255
-0.372453 -0.134383 0.951 255 255 255
-0.109267 0.219367 0.566 255 255 255
0.291225 -0.187784 0.76 255 255 255
-0.0512131 0.104612 0.69 0 0 0
-0.119751 0.18624 0.605 255 255 255
0.134801 -0.216486 0.906 255 255 255
-0.141075 -0.339351 0.888 255 255 255
-0.284446 -0.136722 0.614 255 255 255
-0.218801 0.170482 0.588 255 255 255
-0.137333 0.141075 0.651 255 255 255
0.335311 -0.243887 0.688 255 255 255
-0.149073 -0.15081 0.884 255 255 255
-0.3385 -0.305358 0.82 255 255 255
0.0688826 -0.257582 0.932 255 255 255
0.308034 -0.243467 0.713 255 255 255
0.381794 0.0385849 0.786 255 255 255
0.321638 -0.155419 0.753 255 255 255
0.261229 -0.259232 0.752 255 255 255
0.178178 -0.273599 0.833 255 255 255
-0.326254 -0.218979 0.858 255 255 255
-0.141573 0.0918597 0.687 255 255 255
-0.276571 0.125487 0.597 255 255 255
-0.178169 0.120992 0.657 255 255 255
-0.152082 0.0885801 0.679 255 255 255
0.21755 0.266415 1.083 255 255 255
0.11869 -0.1791 0.942 255 255 255
-0.305023 0.0301419 0.736 255 255 255
0.0597844 -0.329625 0.909 255 255 255
-0.279453 -0.27065 0.93 255 255 255
0.194115 -0.289413 0.809 255 255 255
0.257132 -0.127351 0.834 255 255 255
0.133611 -0.230649 0.898 255 255 255
-0.261288 0.183446 0.566 255 255 255
-0.267306 -0.155068 0.974 255 255 255
-0.275976 -0.247073 0.944 255 255 255
0.298271 0.246614 0.983 255 255 255
0.155163 -0.169129 0.913 255 255 255
-0.0323097 -0.130024 1.128 255 255 255
-0.26255 -0.32308 0.974 255 255 255
-0.0466054 0.174646 0.642 255 255 255
0.28707 0.213021 0.983 255 255 255
0.0576826 -0.148899 1.03 255 255 255
0.235222 -0.130868 0.848 255 255 255
0.0751207 0.0748033 0.764 255 255 255
-0.301124 -0.0632901 0.65 255 255 255
-0.14758 0.15424 0.627 255 255 255
0.430378 0.325747 0.889 255 255 255
-0.231498 -0.120231 0.914 255 255 255
0.219573 0.315922 1.102 255 255 255
-0.262401 0.0928575 0.67 255 255 255
0.0541846 0.0525878 0.785 255 255 255
-0.285917 -0.239417 0.898 0 0 0
0.387445 0.102218 0.814 255 255 255
0.0360954 0.302058 1.036 255 255 255
0.284265 -0.238633 0.745 255 255 255
-0.0196323 0.452442 1.403 255 255 255
0.207057 -0.28627 0.793 255 255 255
-0.0911681 0.0398345 0.761 255 255 255
-0.249785 -0.173033 0.845 255 255 255
-0.290998 -0.294033 0.857 255 255 255
-0.178937 0.00389004 0.755 255 255 255
-0.239307 0.135224 0.624 255 255 255
-0.117421 -0.289286 0.967 255 255 255
0.353541 -0.1904 0.693 255 255 255
0.335602 0.193343 0.927 255 255 255
0.320938 0.00695261 0.827 255 255 255
-0.184598 0.210441 0.557 255 255 255
0.196571 -0.210907 0.848 255 255 255
-0.177048 -0.191657 0.88 255 255 255
-0.196479 0.134525 0.64 255 255 255
-0.128319 0.171745 0.613 255 255 255
0.263376 -0.0336658 0.868 255 255 255
-0.274355 0.150652 0.578 255 255 255
-0.129624 -0.0317517 0.701 255 255 255
-0.3082 0.0695002 0.687 255 255 255
-0.441611 -0.268445 0.96 255 255 255
-0.0540793 0.0956023 0.698 255 255 255
-0.0214999 0.160318 0.674 255 255 255
0.245514 -0.105513 0.855 255 255 255
-0.0803248 -0.134134 1.059 0 0 0
-0.173432 0.0608672 0.717 255 255 255
-0.0862458 -0.169872 1.162 255 255 255
-0.315691 0.0800119 0.672 255 255 255
0.0571527 0.0325622 0.828 255 255 255
-0.280726 0.0383165 0.732 255 255 255
-0.094198 -0.0126585 0.718 255 255 255
0.416415 0.287484 0.887 255 255 255
-0.0631289 0.172019 0.64 255 255 255
0.170159 -0.248532 0.854 255 255 255
0.360395 0.0432318 0.801 255 255 255
-0.118969 0.13051 0.673 255 255 255
-0.0730623 0.146053 0.664 255 255 255
0.318606 0.0124551 0.835 255 255 255
0.0504962 0.43505 1.132 255 255 255
-0.081115 -0.0382569 0.716 0 0 0
0.366652 -0.124175 0.721 255 255 255
-0.0106094 0.0295532 0.858 255 255 255
-0.192061 -0.233315 0.932 255 255 255
0.359127 -0.0265804 0.784 255 255 255
-0.0502952 0.0072973 0.868 255 255 255
-0.238358 0.178213 0.582 255 255 255
-0.368431 -0.088008 0.889 255 255 255
0.288477 0.301303 1.022 255 255 255
-0.233359 0.181063 0.579 255 255 255
-0.267341 0.0440306 0.728 255 255 255
0.323774 -0.129314 0.758 255 255 255
-0.293098 -0.158726 0.599 255 255 255
0.302698 -0.131798 0.78 255 255 255
-0.235308 0.195732 0.559 255 255 255
-0.0294235 0.170721 0.655 255 255 255
-0.111502 0.190531 0.603 255 255 255
-0.349149 0.00267551 0.759 255 255 255
-0.32817 -0.00614235 0.647 255 255 255
0.182072 -0.292014 0.82 255 255 255
0.220685 0.391601 1.145 255 255 255
0.00175943 0.0565951 0.77 255 255 255
0.00767028 -0.0139545 0.872 255 255 255
-0.10003 0.181902 0.617 255 255 255
-0.301524 -0.112475 0.888 255 255 255
-0.237834 0.188638 0.565 255 255 255
0.0285187 0.054932 0.782 255 255 255
0.0511208 0.0469068 0.797 255 255 255
0.20655 0.356185 1.139 255 255 255
0.351911 0.380684 0.999 255 255 255
-0.238895 0.123453 0.642 255 255 255
-0.105962 -0.154884 0.963 255 255 255
0.00157435 0.145946 0.689 255 255 255
-0.195875 0.12136 0.659 255 255 255
0.105112 -0.204059 0.944 255 255 255
-0.12195 0.213463 0.565 255 255 255
0.175426 -0.0779254 0.942 255 255 255
-0.314303 -0.0570311 0.651 255 255 255
-0.244103 -0.312282 0.97 255 255 255
-0.262667 0.179491 0.571 255 255 255
0.238335 -0.157805 0.83 255 255 255
-0.0838362 -0.35072 0.91 255 255 255
0.148522 0.183243 1.081 255 255 255
-0.265701 0.148474 0.588 255 255 255
-0.28198 -0.211319 0.565 255 255 255
0.252142 0.0165174 0.909 255 255 255
-0.0196312 -0.0228552 0.887 255 255 255
-0.261472 -0.252299 0.97 0 0 0
0.243079 0.207515 1.027 255 255 255
0.101981 0.0541398 0.789 255 255 255
