ply
format ascii 1.0
comment Created by Open3D
element vertex 1289
property double x
property double y
property double z
property uchar red
property uchar green
property uchar blue
end_header
0.106598 0.0453071 0.514 255 255 255
0.166248 -0.1471 0.52 255 255 255
-0.411618 -0.281919 1.051 255 255 255
0.0401035 -0.0754811 0.581 255 255 255
0.0910074 0.0956038 0.493 255 255 255
-0.190593 -0.0820314 0.526 255 255 255
-0.0914923 -0.105529 0.607 255 255 255
0.0778189 0.127144 0.441 255 255 255
-0.0139247 0.11241 0.46 255 255 255
-0.153261 -0.139398 0.617 255 255 255
-0.0775688 0.0585747 0.544 255 255 255
-0.224228 0.125887 0.427 255 255 255
0.206238 0.0690116 0.481 255 255 255
0.000260898 0.153867 0.397 255 255 255
0.106662 0.154112 0.401 255 255 255
-0.444959 -0.325415 1.037 255 255 255
-0.190031 -0.0131319 0.544 255 255 255
-0.167306 -0.0239299 0.644 255 255 255
-0.18527 0.108464 0.456 255 255 255
0.190688 0.155805 0.402 255 255 255
-0.169405 0.137556 0.412 255 255 255
-0.0351924 0.05879 0.546 255 255 255
0.248956 -0.0406983 0.534 255 255 255
-0.261012 -0.0217017 0.537 255 255 255
-0.138035 0.080688 0.5 255 255 255
-0.12598 0.0216769 0.575 255 255 255
0.226631 -0.169146 0.493 255 255 255
0.151369 0.14296 0.42 255 255 255
-0.189775 -0.211151 0.764 255 255 255
0.19984 0.14669 0.417 255 255 255
-0.0692446 0.0283742 0.578 255 255 255
-0.234146 -0.0313382 0.509 255 255 255
-0.0985698 0.0918737 0.486 255 255 255
0.25197 -0.0766031 0.524 255 255 255
0.0445962 0.00475838 0.566 255 255 255
-0.397991 -0.329098 1.012 255 255 255
0.200933 -0.161936 0.503 0 0 0
-0.115716 -0.108672 0.637 255 255 255
-0.101843 0.140891 0.41 255 255 255
0.108455 0.121488 0.452 255 255 255
-0.0862438 0.141578 0.412 255 255 255
0.147249 -0.0587668 0.557 0 0 0
0.140825 -0.124587 0.536 255 255 255
0.205955 0.141562 0.424 255 255 255
0.245479 0.0210002 0.534 255 255 255
0.255551 0.0100304 0.552 255 255 255
-0.039055 -0.117174 0.591 255 255 255
-0.212684 -0.00245337 0.532 255 255 255
0.0723821 -0.115584 0.56 255 255 255
-0.101214 -0.0883117 0.735 255 255 255
0.0286438 0.136363 0.425 255 255 255
0.05158 -0.149864 0.552 255 255 255
-0.0468751 -0.00184428 0.618 255 255 255
0.103716 0.14823 0.41 255 255 255
0.0673335 -0.0279656 0.596 255 255 255
0.164251 -0.189012 0.501 0 0 0
-0.467908 -0.3256 1.043 255 255 255
0.125447 -0.116036 0.545 255 255 255
0.214181 0.132694 0.438 255 255 255
-0.212341 -0.0608395 0.493 255 255 255
-0.113491 0.13686 0.416 255 255 255
-0.141859 0.141532 0.408 255 255 255
-0.189865 0.151124 0.4 255 255 255
-0.158264 0.133437 0.418 255 255 255
0.0905708 0.0943806 0.495 255 255 255
0.0984892 0.0608424 0.511 255 255 255
0.057765 -0.14511 0.551 0 0 0
0.0885832 0.0239609 0.542 255 255 255
0.216077 -0.0866394 0.528 255 255 255
-0.051113 -0.0960186 0.597 255 255 255
0.149478 0.0734925 0.49 255 255 255
-0.0960492 0.118159 0.445 255 255 255
-0.204339 0.0831032 0.495 255 255 255
-0.193736 0.144746 0.404 255 255 255
-0.239151 0.0928417 0.467 255 255 255
0.239813 -0.0250095 0.533 255 255 255
0.0496612 0.123505 0.446 255 255 255
0.00232811 -0.0230774 0.595 0 0 0
0.102889 0.0204705 0.543 0 0 0
0.0810612 -0.115871 0.557 255 255 255
0.199663 0.00465749 0.554 255 255 255
0.0409406 0.0266069 0.542 255 255 255
-0.0513171 0.0041424 0.611 255 255 255
0.0589062 0.0620361 0.514 255 255 255
-0.0491694 -0.100876 0.597 255 255 255
-0.00412998 -0.207355 0.552 255 255 255
-0.196875 -0.0870471 0.609 255 255 255
-0.244927 -0.0981181 0.554 255 255 255
-0.00328412 -0.166002 0.561 255 255 255
0.101942 0.0255351 0.538 255 255 255
0.247876 -0.166978 0.489 255 255 255
-0.169822 -0.153612 0.63 255 255 255
0.136703 -0.0375539 0.644 255 255 255
0.13595 -0.102406 0.548 255 255 255
0.173352 -0.1406 0.521 0 0 0
-0.213304 0.0650724 0.525 255 255 255
0.0229025 -0.0631919 0.628 255 255 255
-0.221423 -0.0453391 0.499 255 255 255
0.0809552 -0.0878114 0.569 0 0 0
-0.498304 -0.386232 1.015 255 255 255
0.0178458 0.00474997 0.565 0 0 0
0.196258 -0.148421 0.51 0 0 0
-0.0549408 -0.169503 0.576 255 255 255
-0.0645014 -0.125713 0.595 255 255 255
-0.529605 -0.395657 1.018 255 255 255
-0.186746 -0.00711352 0.558 255 255 255
0.0424973 -0.0962231 0.575 0 0 0
0.138415 0.146338 0.416 255 255 255
0.0829419 0.132188 0.434 255 255 255
0.126707 0.0374458 0.521 0 0 0
-0.0874579 -0.0382631 0.675 255 255 255
-0.0716761 0.0955707 0.497 255 255 255
-0.0836516 0.0668057 0.532 255 255 255
0.193128 -0.162258 0.504 0 0 0
0.187575 -0.00265167 0.575 255 255 255
0.259051 -0.0307895 0.528 255 255 255
-0.171994 0.083439 0.497 255 255 255
-0.0149396 -0.192432 0.553 255 255 255
-0.183273 -0.0214484 0.553 255 255 255
-0.301812 -0.298859 0.999 255 255 255
-0.15414 0.0240582 0.565 255 255 255
0.0424766 0.132282 0.432 255 255 255
0.171136 -0.14087 0.522 0 0 0
0.195116 0.137646 0.429 255 255 255
0.0117821 -0.186151 0.54 255 255 255
-0.207041 0.0669913 0.52 255 255 255
0.0188319 -0.139174 0.567 255 255 255
-0.548663 -0.335143 1.068 255 255 255
0.279711 -0.00083452 0.615 255 255 255
0.0890019 0.129959 0.436 255 255 255
0.161827 0.125964 0.447 255 255 255
0.246764 0.0665883 0.498 255 255 255
0.204632 0.141174 0.427 255 255 255
-0.287578 0.0152584 0.58 255 255 255
0.044472 -0.155535 0.553 255 255 255
-0.110011 0.123991 0.44 255 255 255
0.0885434 -0.200797 0.521 255 255 255
0.0421396 -0.0662536 0.583 255 255 255
-0.0587563 -0.143837 0.586 255 255 255
-0.0980253 0.142196 0.408 255 255 255
-0.108596 0.0890047 0.492 255 255 255
-0.0260544 0.00487608 0.58 0 0 0
-0.189238 0.0187385 0.571 255 255 255
0.121955 0.146627 0.413 255 255 255
0.264403 0.00906593 0.548 255 255 255
0.245128 0.0370145 0.515 255 255 255
0.00924663 -0.206878 0.546 255 255 255
-0.151201 0.110944 0.454 255 255 255
-0.108151 0.130056 0.427 255 255 255
-0.0872184 0.0537526 0.549 255 255 255
0.197947 -0.1211 0.521 255 255 255
0.125474 -0.10706 0.549 255 255 255
-0.411618 -0.280209 1.051 255 255 255
0.0752864 0.0800094 0.506 255 255 255
-0.132841 0.137889 0.413 255 255 255
-0.250163 -0.0638877 0.498 255 255 255
-0.0962782 0.0639671 0.53 255 255 255
0.197168 -0.104683 0.528 255 255 255
0.0455518 0.0314282 0.534 255 255 255
-0.488516 -0.269851 1.085 255 255 255
0.247604 0.061527 0.503 255 255 255
-0.0565939 -0.0705374 0.701 0 0 0
-0.123676 -0.0321883 0.663 255 255 255
0.11122 -0.163111 0.528 255 255 255
-0.0800901 -0.00696169 0.626 255 255 255
-0.0933364 0.0549325 0.543 255 255 255
-0.151608 0.126771 0.43 255 255 255
0.0704942 0.149133 0.407 255 255 255
-0.411446 -0.319981 1.025 255 255 255
-0.207069 -0.154883 0.631 255 255 255
0.154931 0.127859 0.446 255 255 255
-0.185479 -0.158678 0.638 255 255 255
0.226389 -0.0905911 0.526 255 255 255
0.0725245 0.102592 0.477 255 255 255
0.241774 -0.10043 0.515 255 255 255
0.0179054 0.10644 0.47 255 255 255
0.116422 -0.0904916 0.557 255 255 255
0.065141 0.0598741 0.517 255 255 255
0.288584 -0.00598096 0.63 255 255 255
0.194383 -0.164392 0.503 255 255 255
0.128723 0.148592 0.411 255 255 255
0.236504 0.0289118 0.52 255 255 255
0.240257 0.0424647 0.51 255 255 255
-0.0320419 0.0798119 0.51 255 255 255
0.148645 0.0506646 0.509 255 255 255
0.089605 -0.0565271 0.571 255 255 255
-0.489452 -0.314841 1.064 255 255 255
-0.0613405 -0.106619 0.602 255 255 255
-0.00485545 0.0643292 0.533 255 255 255
0.233844 0.0337276 0.516 255 255 255
-0.0209292 0.00570955 0.569 0 0 0
-0.151199 0.062477 0.532 255 255 255
0.232188 0.00823382 0.552 255 255 255
-0.24386 -0.00418485 0.532 255 255 255
0.0630891 -0.0803159 0.575 255 255 255
0.216355 0.114385 0.453 255 255 255
-0.0802254 0.0585747 0.544 255 255 255
0.0435948 0.0577939 0.521 255 255 255
0.109986 0.0127252 0.552 0 0 0
-0.108085 0.12414 0.438 255 255 255
0.103305 0.119282 0.452 255 255 255
-0.169641 0.1457 0.403 255 255 255
-0.0983238 0.110672 0.459 255 255 255
0.0952428 -0.0496093 0.577 255 255 255
-0.155255 0.00869623 0.583 255 255 255
-0.213877 0.114795 0.446 255 255 255
-0.327701 -0.284675 1.024 255 255 255
-0.242994 -0.00418485 0.532 255 255 255
0.162584 0.152444 0.407 255 255 255
-0.182269 0.122723 0.433 255 255 255
-0.229207 -0.340575 0.935 255 255 255
-0.523107 -0.336716 1.062 255 255 255
-0.128107 0.128469 0.431 255 255 255
0.00313043 -0.157072 0.565 255 255 255
0.222404 -0.188464 0.489 255 255 255
0.0429254 0.0802814 0.513 255 255 255
0.0512358 0.105032 0.474 255 255 255
-0.146638 -0.124532 0.623 255 255 255
0.208073 -0.0599407 0.543 255 255 255
-0.142584 -0.112961 0.632 255 255 255
-0.0603409 -0.00590501 0.622 255 255 255
-0.153508 -0.00579109 0.61 0 0 0
-0.229002 -0.359167 0.928 255 255 255
-0.200013 -0.0649242 0.625 255 255 255
0.242976 -0.0883722 0.523 255 255 255
0.029743 -0.172541 0.547 255 255 255
-0.0180416 -0.0657912 0.596 255 255 255
0.187434 0.137646 0.429 255 255 255
0.0191973 -0.0995469 0.578 255 255 255
0.0481759 -0.170709 0.544 255 255 255
-0.163076 0.0768673 0.507 255 255 255
0.147466 0.115393 0.466 255 255 255
-0.16033 0.080034 0.501 255 255 255
0.166561 -0.0798193 0.546 255 255 255
-0.180188 -0.171095 0.634 255 255 255
0.207792 -0.179136 0.494 255 255 255
-0.170346 0.153221 0.397 255 255 255
-0.139669 -0.0853548 0.657 255 255 255
-0.46074 -0.319728 1.046 255 255 255
-0.029353 -0.0417432 0.678 255 255 255
0.158578 -0.102669 0.54 255 255 255
-0.196997 -0.0571622 0.503 255 255 255
0.209454 -0.0607123 0.542 255 255 255
-0.162532 0.135856 0.415 255 255 255
0.0475753 0.0930079 0.492 255 255 255
-0.0848384 -0.190592 0.569 255 255 255
-0.0773536 -0.0570105 0.703 255 255 255
-0.127033 0.0594578 0.536 255 255 255
-0.164967 0.0421384 0.549 255 255 255
-0.165243 0.110205 0.454 255 255 255
0.0485203 -0.178457 0.538 255 255 255
-0.0679567 0.141259 0.415 255 255 255
-0.324296 -0.360844 0.969 255 255 255
-0.0132285 0.12599 0.437 255 255 255
0.198114 0.149624 0.412 255 255 255
-0.116706 0.138562 0.413 255 255 255
0.112576 -0.0715636 0.565 255 255 255
0.0894589 0.136629 0.428 255 255 255
-0.0195687 0.119282 0.452 255 255 255
-0.10256 0.132592 0.424 255 255 255
-0.0361689 -0.100824 0.591 255 255 255
-0.270647 -0.0671665 0.517 255 255 255
0.0493961 -0.181959 0.538 0 0 0
0.129663 0.126563 0.444 255 255 255
0.0244987 -0.120431 0.57 255 255 255
0.0346935 -0.0321657 0.602 0 0 0
0.201535 0.0437191 0.515 255 255 255
0.0828286 -0.163 0.539 255 255 255
0.162726 0.135797 0.432 255 255 255
-0.0793615 -0.20599 0.563 255 255 255
0.0416801 0.0828057 0.508 255 255 255
0.103508 0.0144955 0.551 0 0 0
0.165841 -0.191969 0.496 0 0 0
-0.124286 0.141847 0.407 255 255 255
0.182975 0.0474443 0.51 255 255 255
0.140096 0.127573 0.445 255 255 255
-0.0723615 0.13498 0.425 255 255 255
0.196432 -0.0891946 0.533 255 255 255
0.0945388 0.0180821 0.551 255 255 255
0.202766 0.0421246 0.516 255 255 255
0.0438083 -0.142807 0.556 0 0 0
-0.0770572 0.144802 0.406 255 255 255
0.0160752 0.0977966 0.484 255 255 255
-0.184089 0.057821 0.537 255 255 255
-0.0422827 -0.0359594 0.673 255 255 255
0.166596 0.00647224 0.555 255 255 255
0.223421 -0.170751 0.493 0 0 0
-0.219873 0.116643 0.442 255 255 255
0.0311934 0.0137469 0.557 0 0 0
0.0497993 0.065509 0.515 255 255 255
-0.190771 0.11531 0.448 255 255 255
0.189669 0.016141 0.546 255 255 255
0.0550961 0.124116 0.443 255 255 255
-0.150734 -0.0960813 0.636 255 255 255
-0.0269791 0.0119984 0.56 0 0 0
-0.260076 -0.0789063 0.528 255 255 255
0.104271 -0.139835 0.541 255 255 255
-0.098149 -0.0687037 0.73 0 0 0
0.160669 0.0460538 0.513 255 255 255
-0.0414711 0.145821 0.407 255 255 255
-0.241719 -0.0868659 0.557 255 255 255
0.0626211 0.0923356 0.497 255 255 255
-0.251998 -0.312282 0.97 255 255 255
-0.00328412 0.00836807 0.561 255 255 255
-0.00412998 -0.205558 0.552 255 255 255
0.0401295 0.143285 0.415 255 255 255
0.11676 -0.0198675 0.586 0 0 0
-0.0314177 0.111122 0.464 255 255 255
0.189288 -0.106805 0.53 255 255 255
-0.196418 -0.0496584 0.51 255 255 255
0.225385 0.08998 0.464 255 255 255
0.20392 0.097741 0.465 255 255 255
-0.110178 -0.00381822 0.612 255 255 255
0.0801414 0.129843 0.438 255 255 255
0.0701848 -0.157141 0.543 255 255 255
0.238101 -0.0364214 0.535 255 255 255
0.163923 0.058719 0.5 255 255 255
-0.157775 0.131212 0.424 255 255 255
-0.162761 0.148799 0.399 255 255 255
0.118771 -0.0291782 0.601 255 255 255
0.207591 0.0634019 0.486 255 255 255
0.113295 -0.0751082 0.564 255 255 255
0.239533 -0.10651 0.512 255 255 255
0.0328185 -0.0510189 0.642 255 255 255
0.092115 0.0878349 0.499 255 255 255
0.0567485 -0.204047 0.525 255 255 255
0.180315 -0.0607134 0.55 0 0 0
0.00597799 0.127413 0.437 255 255 255
-0.100976 0.129967 0.429 255 255 255
0.0164839 0.119282 0.452 255 255 255
-0.0427034 -0.190414 0.563 255 255 255
0.0192121 0.122327 0.447 255 255 255
0.180088 -0.143449 0.516 255 255 255
-0.26066 -0.060329 0.509 255 255 255
-0.177513 0.144388 0.403 255 255 255
-0.0481598 0.147301 0.402 255 255 255
-0.186152 -0.118958 0.6 255 255 255
-0.127665 0.0484804 0.55 255 255 255
0.0956332 -0.160648 0.537 255 255 255
-0.0257882 -0.199992 0.554 255 255 255
-0.343224 -0.368728 0.969 255 255 255
0.0123328 0.0703322 0.526 255 255 255
0.154289 -0.163805 0.514 0 0 0
0.23636 -0.14307 0.5 255 255 255
0.228162 0.0760563 0.481 255 255 255
0.148713 -0.124757 0.533 255 255 255
0.197619 -0.0711649 0.541 255 255 255
0.204132 -0.190034 0.491 0 0 0
-0.0657177 0.129959 0.436 255 255 255
-0.0391214 0.101389 0.475 255 255 255
0.125842 -0.190571 0.514 0 0 0
-0.228152 0.0548313 0.542 255 255 255
0.140666 -0.0972325 0.549 0 0 0
0.0753875 -0.174305 0.536 255 255 255
0.156259 0.0874324 0.479 255 255 255
-0.173173 -0.0142052 0.631 255 255 255
-0.000435814 0.119221 0.449 255 255 255
-0.0103836 0.146538 0.409 255 255 255
-0.447143 -0.375511 1.004 255 255 255
0.229585 -0.188112 0.484 255 255 255
-0.225099 0.0990022 0.471 255 255 255
-0.0164279 0.0772421 0.515 255 255 255
0.0601524 0.00291109 0.565 255 255 255
0.0609908 0.111601 0.466 255 255 255
-0.0870692 -0.0369995 0.672 255 255 255
0.0961465 0.107433 0.471 255 255 255
-0.295995 0.0236712 0.578 255 255 255
-0.214587 -0.349723 0.931 255 255 255
0.1668 -0.00539236 0.568 255 255 255
0.0971124 -0.0873484 0.566 255 255 255
0.0284946 0.108272 0.468 255 255 255
0.0566617 -0.159771 0.549 0 0 0
-0.0683379 -0.0185738 0.64 255 255 255
0.11309 0.0118698 0.554 0 0 0
0.228076 0.0210789 0.536 255 255 255
-0.0474055 -0.0563463 0.668 255 255 255
-0.522699 -0.314012 1.079 255 255 255
0.0999507 0.0375895 0.523 255 255 255
0.0385824 0.153993 0.399 255 255 255
0.16816 0.10558 0.473 255 255 255
0.210111 0.0125869 0.546 255 255 255
-0.196419 0.0109287 0.552 255 255 255
-0.0289366 0.00582996 0.581 0 0 0
-0.142584 -0.115018 0.632 255 255 255
-0.0484206 0.0471148 0.555 255 255 255
-0.166144 -0.101913 0.609 255 255 255
0.172082 0.100108 0.469 255 255 255
0.194898 0.0683707 0.482 255 255 255
-0.0506018 0.0777769 0.513 255 255 255
-0.098502 0.11979 0.443 255 255 255
-0.215527 -0.0216927 0.516 255 255 255
0.161913 0.099843 0.475 255 255 255
-0.178611 0.142774 0.404 255 255 255
-0.100881 -0.12789 0.61 255 255 255
-0.0246245 -0.107556 0.591 255 255 255
-0.0270451 -0.135046 0.581 255 255 255
0.201765 -0.167815 0.501 255 255 255
-0.181379 0.0971584 0.477 255 255 255
0.0251075 0.103152 0.476 255 255 255
-0.101347 0.11915 0.446 255 255 255
-0.194997 -0.0171387 0.531 255 255 255
0.124878 0.0359559 0.524 255 255 255
0.0456239 -0.0362042 0.604 255 255 255
0.0978723 -0.198253 0.521 255 255 255
0.052218 -0.00738123 0.579 0 0 0
-0.0740078 0.097613 0.491 255 255 255
0.0959114 -0.0990036 0.559 0 0 0
0.114872 -0.0269957 0.596 255 255 255
-0.199951 -0.060126 0.628 255 255 255
-0.208505 0.0507934 0.546 255 255 255
0.172948 0.140843 0.426 255 255 255
-0.117771 0.00887522 0.595 255 255 255
0.193969 0.0351032 0.524 255 255 255
0.208922 -0.110501 0.523 255 255 255
-0.103096 0.126122 0.435 255 255 255
-0.101415 0.0155215 0.59 255 255 255
0.161493 -0.108417 0.538 255 255 255
0.252828 -0.0484284 0.533 255 255 255
0.160336 -0.102669 0.54 255 255 255
0.130416 -0.0984834 0.551 0 0 0
0.0340497 0.14396 0.415 255 255 255
0.201339 0.0374458 0.521 255 255 255
-0.115563 -0.0345015 0.666 255 255 255
-0.195748 -0.0580961 0.504 255 255 255
-0.0653687 -0.105815 0.603 255 255 255
-0.275415 -0.290156 0.986 255 255 255
-0.118928 0.0458785 0.551 255 255 255
0.113435 -0.0101198 0.574 255 255 255
0.0742545 0.0614377 0.516 255 255 255
-0.217116 -0.0352706 0.506 255 255 255
-0.00146032 0.00746843 0.562 255 255 255
0.0334805 0.118071 0.453 255 255 255
-0.528958 -0.344144 1.053 255 255 255
-0.0634803 -0.00794216 0.623 255 255 255
0.199346 0.0586992 0.493 255 255 255
-0.114261 0.11019 0.457 255 255 255
-0.451377 -0.287783 1.06 255 255 255
0.23322 0.0108099 0.546 255 255 255
-0.194877 -0.0698546 0.506 255 255 255
-0.11786 0.138889 0.41 255 255 255
0.0764023 -0.172882 0.537 255 255 255
-0.0431209 -0.107136 0.594 255 255 255
-0.0347391 0.117139 0.458 255 255 255
0.146742 0.00106652 0.562 255 255 255
0.170567 0.0211969 0.539 0 0 0
0.0485316 -0.0744074 0.58 255 255 255
0.187575 -0.00358738 0.575 255 255 255
0.0250241 0.145248 0.411 255 255 255
0.176121 -0.168174 0.507 0 0 0
-0.168592 0.132025 0.42 255 255 255
0.0949839 0.117139 0.458 255 255 255
0.0567204 0.148171 0.408 255 255 255
-0.251224 -0.325024 0.961 255 255 255
0.138302 -0.135165 0.533 255 255 255
-0.0787192 0.148892 0.401 255 255 255
0.208696 -0.130673 0.512 255 255 255
-0.195549 0.100322 0.47 255 255 255
0.0787364 0.0669666 0.507 255 255 255
0.207482 -0.0952317 0.528 255 255 255
-0.00210889 0.088647 0.499 255 255 255
0.0521585 -0.0330353 0.6 255 255 255
-0.270755 -0.317065 0.975 255 255 255
0.00834906 0.0939993 0.493 255 255 255
0.0821692 -0.0760404 0.571 255 255 255
-0.0753001 -0.0779689 0.739 0 0 0
-0.191146 0.13176 0.417 255 255 255
-0.233534 0.0842008 0.492 255 255 255
-0.226987 -0.134838 0.61 255 255 255
-0.0786005 0.107924 0.48 255 255 255
-0.0906533 -0.0997666 0.608 255 255 255
-0.0799105 0.0893576 0.503 255 255 255
0.12567 0.0644147 0.5 255 255 255
0.034157 0.0101939 0.561 255 255 255
-0.110317 0.0653203 0.527 255 255 255
-0.170117 0.0816646 0.501 255 255 255
0.0994452 0.0296902 0.534 255 255 255
0.100004 -0.157152 0.537 255 255 255
0.0567432 0.14461 0.413 255 255 255
0.15711 -0.101978 0.541 255 255 255
-0.0307485 0.055236 0.546 255 255 255
-0.166858 0.074979 0.511 255 255 255
-0.14073 0.146282 0.401 255 255 255
0.0889101 -0.144151 0.544 255 255 255
0.170316 0.0660453 0.488 0 0 0
0.165065 -0.0883796 0.544 255 255 255
-0.10569 0.0918737 0.486 255 255 255
-0.257607 0.0274905 0.56 255 255 255
-0.0506799 -0.202158 0.56 0 0 0
-0.122798 -0.0872142 0.647 255 255 255
0.239236 -0.177026 0.486 0 0 0
-0.0613957 -0.0806936 0.731 255 255 255
-0.149137 0.0856277 0.491 255 255 255
0.123836 -0.13118 0.538 255 255 255
-0.21601 0.0499962 0.547 255 255 255
0.209824 -0.170638 0.495 255 255 255
-0.163304 -0.095219 0.617 255 255 255
-0.190682 -0.00612762 0.551 255 255 255
-0.506933 -0.24718 1.102 255 255 255
-0.425222 -0.378713 0.991 255 255 255
-0.115126 0.0754192 0.514 255 255 255
-0.184846 -0.0301172 0.547 255 255 255
-0.0947408 0.0534589 0.546 255 255 255
-0.148556 -0.0185738 0.64 255 255 255
0.200023 0.00285957 0.555 255 255 255
0.213047 0.0541042 0.495 255 255 255
0.0611217 0.110321 0.467 255 255 255
0.0142152 0.147507 0.408 255 255 255
-0.163774 0.0396019 0.551 255 255 255
-0.14634 -0.0993858 0.644 255 255 255
-0.279394 -0.00983767 0.558 255 255 255
0.233451 -0.148468 0.499 255 255 255
0.0538861 0.0720734 0.514 255 255 255
-0.0605988 -0.209984 0.559 255 255 255
-0.22058 -0.317441 0.957 0 0 0
0.0909633 0.111319 0.468 255 255 255
0.0901477 0.150748 0.406 255 255 255
-0.134005 0.038916 0.554 255 255 255
0.150771 -0.0830892 0.55 255 255 255
-0.527325 -0.394775 1.02 255 255 255
0.0245851 0.127281 0.439 255 255 255
-0.129621 -0.0131366 0.629 255 255 255
0.155428 -0.160771 0.515 255 255 255
-0.163413 -0.0195233 0.637 255 255 255
-0.169516 -0.19226 0.768 0 0 0
0.236892 0.0598636 0.496 255 255 255
0.00757372 0.147507 0.408 255 255 255
-0.163266 -0.170909 0.653 255 255 255
0.249982 -0.0676081 0.527 255 255 255
-0.13659 0.088462 0.489 255 255 255
0.207964 0.108727 0.454 255 255 255
-0.185019 -0.0206568 0.64 255 255 255
0.216613 0.123695 0.452 255 255 255
-0.0499513 -0.0348642 0.673 255 255 255
-0.116197 0.0996328 0.474 255 255 255
-0.14921 0.07856 0.502 255 255 255
-0.515818 -0.318953 1.072 255 255 255
-0.21299 0.0692625 0.518 255 255 255
-0.51928 -0.270309 1.094 255 255 255
0.0972001 -0.160349 0.536 255 255 255
-0.0659343 -0.161798 0.582 255 255 255
0.096426 0.136629 0.428 255 255 255
-0.109133 0.0263555 0.575 255 255 255
0.117115 0.11003 0.469 255 255 255
-0.279262 -0.322486 0.977 255 255 255
-0.261253 0.0156436 0.56 255 255 255
-0.54577 -0.290607 1.09 255 255 255
-0.142273 0.133796 0.417 255 255 255
-0.131426 -0.023024 0.648 255 255 255
0.0673467 0.149499 0.408 255 255 255
0.0820457 0.088363 0.502 255 255 255
-0.18938 -0.0436937 0.518 255 255 255
-0.179051 -0.151562 0.63 255 255 255
-0.181379 0.0979347 0.477 255 255 255
-0.33702 -0.278824 1.027 255 255 255
0.0760215 0.0904519 0.5 255 255 255
0.0608218 0.116647 0.459 255 255 255
-0.214972 -0.116579 0.588 255 255 255
-0.481436 -0.267097 1.081 255 255 255
0.0770175 0.152914 0.403 255 255 255
0.0827004 0.124058 0.448 255 255 255
-0.213239 -0.140188 0.625 0 0 0
0.133616 0.120073 0.455 255 255 255
0.0758095 -0.16914 0.539 0 0 0
0.022858 -0.0271769 0.6 255 255 255
-0.359967 -0.340931 0.989 255 255 255
-0.100225 0.134759 0.42 255 255 255
-0.173596 0.0788729 0.504 255 255 255
-0.238847 0.100118 0.462 255 255 255
-0.206521 0.0254388 0.555 255 255 255
-0.206234 -0.00849754 0.531 255 255 255
0.191567 -0.141781 0.513 0 0 0
-0.18495 0.0636051 0.527 255 255 255
-0.185343 -0.0620709 0.627 255 255 255
-0.0375128 -0.143803 0.582 0 0 0
-0.0194405 -0.196931 0.553 255 255 255
0.205283 -0.0179933 0.62 0 0 0
-0.106389 0.0950394 0.482 255 255 255
0.266696 0.0177212 0.54 255 255 255
0.0756629 -0.0537395 0.571 255 255 255
-0.228669 0.0613165 0.537 255 255 255
-0.0273645 -0.168073 0.568 255 255 255
-0.23085 -0.147953 0.615 255 255 255
0.0887133 -0.199483 0.522 255 255 255
-0.164564 0.0829627 0.499 255 255 255
-0.197789 -0.0914137 0.541 255 255 255
0.219053 0.129021 0.445 255 255 255
0.0592346 -0.161263 0.548 255 255 255
0.029161 0.0849499 0.506 255 255 255
-0.0756324 0.113628 0.481 255 255 255
-0.157609 -0.0553341 0.656 255 255 255
0.177802 -0.0994766 0.537 255 255 255
0.0402721 -0.11301 0.57 255 255 255
-0.0883868 0.0871973 0.5 255 255 255
0.242455 -0.0477395 0.535 255 255 255
0.038582 0.0880109 0.5 255 255 255
0.203814 0.0358873 0.523 255 255 255
-0.16585 0.0971584 0.477 255 255 255
0.252699 0.0486228 0.505 255 255 255
0.0691565 -0.0955537 0.571 255 255 255
0.0767817 0.084782 0.505 255 255 255
0.0721082 0.0974142 0.49 255 255 255
0.200526 -0.184862 0.49 255 255 255
0.145663 -0.0823436 0.551 255 255 255
0.0283425 -0.0357461 0.613 255 255 255
-0.111315 0.135477 0.418 255 255 255
0.0331948 -0.202923 0.531 255 255 255
-0.160347 -0.244114 0.766 255 255 255
-0.278393 -0.0179456 0.556 255 255 255
0.0485316 -0.00739398 0.58 255 255 255
0.1526 0.00288533 0.56 255 255 255
0.244332 -0.140877 0.498 255 255 255
-0.198754 0.0144955 0.551 255 255 255
-0.213901 -0.315224 0.955 255 255 255
0.154918 0.139457 0.426 255 255 255
-0.219303 0.0673777 0.523 255 255 255
-0.22397 0.0695299 0.52 255 255 255
0.0185662 0.0101576 0.559 0 0 0
0.199381 -0.0729257 0.541 255 255 255
0.222516 -0.112598 0.517 255 255 255
-0.170346 0.152575 0.397 255 255 255
0.121342 -0.0548189 0.563 255 255 255
-0.0697899 0.136087 0.422 255 255 255
-0.143829 0.0997687 0.471 255 255 255
0.144221 -0.153906 0.523 255 255 255
0.143563 -0.132679 0.53 255 255 255
0.0939477 0.143297 0.417 255 255 255
-0.129406 0.126951 0.433 255 255 255
0.245068 -0.0459982 0.535 0 0 0
0.132976 -0.016053 0.586 255 255 255
0.239957 -0.155823 0.494 255 255 255
0.205265 0.142942 0.424 255 255 255
-0.0337178 -0.0670207 0.677 255 255 255
0.165768 0.0765307 0.484 255 255 255
0.165996 -0.0628444 0.553 255 255 255
0.136035 0.156723 0.401 255 255 255
0.00982243 -0.117825 0.58 255 255 255
0.193063 0.133102 0.437 255 255 255
0.314426 -0.0207536 0.643 255 255 255
0.0237033 0.153077 0.4 255 255 255
-0.149979 -0.182555 0.764 255 255 255
0.066119 0.0101939 0.561 0 0 0
-0.00945041 0.13353 0.427 255 255 255
0.0193633 -0.0842796 0.583 255 255 255
-0.162049 0.141185 0.407 255 255 255
0.126848 0.116901 0.46 255 255 255
-0.0478272 0.103368 0.477 255 255 255
-0.228172 -0.336729 0.937 255 255 255
0.111231 0.138764 0.426 255 255 255
-0.342703 -0.289674 1.024 255 255 255
-0.1205 -0.0501961 0.688 255 255 255
-0.153436 0.141185 0.407 255 255 255
0.255027 -0.108158 0.508 255 255 255
-0.441786 -0.275534 1.066 255 255 255
-0.0773686 0.0991953 0.487 255 255 255
0.203148 0.0777056 0.472 255 255 255
0.0913401 0.130968 0.437 255 255 255
0.177252 -0.136099 0.52 255 255 255
-0.164323 0.0872258 0.491 255 255 255
-0.263546 0.0467112 0.561 255 255 255
-0.0504582 -0.00796765 0.625 255 255 255
-0.00450928 0.0911585 0.495 255 255 255
-0.163385 0.109707 0.455 255 255 255
0.0139292 0.125708 0.441 255 255 255
-0.0954508 0.116298 0.449 255 255 255
-0.153738 -0.0540911 0.667 255 255 255
-0.102072 0.145044 0.403 255 255 255
-0.13165 0.0631047 0.53 255 255 255
0.103947 0.141256 0.419 255 255 255
0.0796706 -0.200248 0.524 0 0 0
0.0527969 -0.166894 0.546 255 255 255
-0.0914969 0.120783 0.444 255 255 255
0.0540747 -0.17329 0.541 255 255 255
-0.170757 0.146934 0.401 255 255 255
0.166714 0.0520128 0.506 255 255 255
0.177544 0.0260669 0.531 0 0 0
0.0604558 -0.14511 0.551 255 255 255
-0.167052 0.098504 0.476 255 255 255
0.217876 0.0634019 0.486 255 255 255
-0.162312 0.14282 0.406 255 255 255
0.148432 0.0461436 0.514 255 255 255
0.121176 0.111841 0.467 255 255 255
0.194048 0.00738869 0.556 255 255 255
0.21726 -0.151509 0.501 255 255 255
-0.0704637 -0.023095 0.65 255 255 255
-0.207097 -0.120346 0.607 0 0 0
-0.126583 0.140204 0.408 255 255 255
0.151011 0.0373739 0.52 255 255 255
-0.138273 0.0562821 0.539 255 255 255
-0.29041 0.0218654 0.58 255 255 255
0.199266 -0.160115 0.505 0 0 0
0.16401 0.126691 0.447 255 255 255
0.0845094 -0.173329 0.533 0 0 0
0.18595 0.133102 0.437 255 255 255
0.18689 -0.0856538 0.538 255 255 255
-0.0498771 -0.0435609 0.672 255 255 255
0.114861 0.0351702 0.525 255 255 255
0.165562 -0.183947 0.505 255 255 255
0.0314734 -0.14069 0.562 255 255 255
0.240089 -0.0768955 0.526 255 255 255
0.00424257 0.147808 0.407 255 255 255
0.111761 0.088462 0.489 255 255 255
-0.0652546 0.141259 0.415 255 255 255
0.0394541 -0.0588773 0.648 255 255 255
0.12136 0.096619 0.486 255 255 255
-0.110931 0.130056 0.427 255 255 255
0.0616553 0.0597583 0.516 255 255 255
-0.198186 0.101635 0.469 255 255 255
0.0294968 -0.0638515 0.596 255 255 255
-0.0409705 0.0486567 0.552 255 255 255
0.164257 0.146361 0.418 255 255 255
0.0815755 0.103237 0.48 255 255 255
0.162552 0.127573 0.445 255 255 255
0.0354965 -0.0823821 0.583 255 255 255
-0.211609 0.127072 0.424 255 255 255
-0.0960823 0.109925 0.459 255 255 255
-0.0859712 -0.0585681 0.708 255 255 255
-0.107261 0.0254198 0.575 255 255 255
-0.293655 -0.331908 0.972 255 255 255
0.15466 0.0577895 0.499 255 255 255
0.172651 -0.0063278 0.569 0 0 0
0.0139292 0.124991 0.441 255 255 255
-0.225399 -0.101369 0.557 255 255 255
0.180309 -0.0198176 0.614 255 255 255
0.0641331 0.0713723 0.509 255 255 255
0.127698 -0.025098 0.597 255 255 255
-0.23687 -0.00673107 0.528 255 255 255
0.0732639 -0.190245 0.527 255 255 255
-0.247188 -0.108347 0.551 255 255 255
-0.252546 -0.0945523 0.549 255 255 255
0.207029 -0.130673 0.512 255 255 255
0.265423 -0.0221552 0.527 255 255 255
0.211247 0.1365 0.432 255 255 255
-0.0281178 0.105357 0.472 255 255 255
-0.192652 -0.118375 0.602 255 255 255
0.0502339 -0.135813 0.557 255 255 255
0.0901711 0.0533583 0.511 255 255 255
-0.116012 0.105837 0.464 255 255 255
0.2583 -0.0739037 0.523 255 255 255
0.225701 0.102078 0.454 255 255 255
-0.197844 0.101087 0.47 255 255 255
0.240291 -0.0460842 0.536 255 255 255
-0.154099 0.141847 0.407 255 255 255
-0.0778877 0.0410866 0.559 255 255 255
-0.120669 0.128064 0.432 255 255 255
0.201068 0.0117413 0.548 255 255 255
0.0189542 0.124991 0.441 255 255 255
0.172663 0.0019846 0.563 255 255 255
0.209975 0.097741 0.465 255 255 255
0.176001 0.141204 0.425 255 255 255
-0.367706 -0.304671 1.024 255 255 255
-0.0499733 -0.117967 0.595 0 0 0
-0.17635 0.098504 0.476 255 255 255
0.0406254 -0.000780242 0.575 0 0 0
0.236833 0.0523141 0.501 255 255 255
0.0768784 -0.125838 0.553 255 255 255
-0.00307248 -0.0648722 0.727 255 255 255
-0.0945195 0.134027 0.422 255 255 255
0.200503 -0.0938675 0.53 255 255 255
0.0739583 0.135615 0.427 255 255 255
0.095162 0.0525268 0.511 255 255 255
0.0830987 -0.0602439 0.571 255 255 255
0.235928 -0.038234 0.536 255 255 255
0.198247 -0.135937 0.513 255 255 255
0.217978 -0.188078 0.488 255 255 255
-0.128713 0.103161 0.469 255 255 255
0.149063 -0.0596733 0.557 255 255 255
0.115335 0.00107221 0.565 0 0 0
-0.0154674 0.0440839 0.54 255 255 255
0.246444 -0.0955865 0.516 255 255 255
0.208026 0.141562 0.424 255 255 255
-0.0647182 -0.120306 0.597 0 0 0
0.0289029 -0.0102961 0.584 255 255 255
0.079693 0.143297 0.417 255 255 255
-0.100947 0.0764922 0.51 255 255 255
-0.148164 0.0772326 0.504 255 255 255
-0.00868521 -0.178094 0.556 255 255 255
-0.0904142 0.0686202 0.526 255 255 255
0.0871894 -0.0198675 0.586 0 0 0
-0.241623 0.0823183 0.481 255 255 255
0.121987 0.127573 0.445 255 255 255
0.0812397 -0.0565271 0.571 255 255 255
-0.0299071 0.110367 0.464 255 255 255
0.249181 -0.160143 0.49 255 255 255
-0.203213 -0.0545961 0.635 255 255 255
0.227203 -0.0609124 0.536 0 0 0
-0.0289542 0.142196 0.408 255 255 255
-0.191009 -0.120534 0.603 255 255 255
-0.0452161 0.0546461 0.549 255 255 255
-0.0956809 0.105226 0.468 255 255 255
-0.0857072 0.133911 0.426 255 255 255
-0.12675 -0.132083 0.63 255 255 255
0.0224046 0.00565938 0.564 255 255 255
-0.175323 0.142116 0.404 255 255 255
-0.281629 -0.352071 0.958 255 255 255
0.149875 -0.0830892 0.55 255 255 255
-0.289019 0.0162302 0.581 255 255 255
-0.0336207 -0.0717307 0.597 255 255 255
0.131911 0.143302 0.419 255 255 255
0.146914 0.135483 0.431 255 255 255
0.0634182 -0.00736848 0.578 0 0 0
0.204785 -0.0735332 0.539 255 255 255
-0.166921 -0.00895598 0.623 255 255 255
0.242272 -0.119967 0.509 255 255 255
0.137672 -0.154201 0.524 255 255 255
0.022513 0.15188 0.402 255 255 255
0.134203 -0.00261478 0.567 255 255 255
0.00126359 0.015448 0.553 255 255 255
-0.0899438 0.026493 0.578 255 255 255
-0.0461246 0.0727745 0.519 255 255 255
-0.0711244 0.066429 0.529 255 255 255
0.255015 -0.0716233 0.525 255 255 255
0.00126588 -0.174749 0.554 0 0 0
-0.0151911 0.14461 0.413 255 255 255
0.041041 0.122327 0.447 255 255 255
-0.0598592 -0.118363 0.597 255 255 255
0.00656823 -0.193196 0.545 255 255 255
-0.191692 -0.108037 0.599 255 255 255
-0.255974 -0.0891008 0.543 255 255 255
0.300737 -0.00808239 0.634 255 255 255
-0.184973 -0.0483375 0.532 255 255 255
0.222969 -0.149878 0.501 255 255 255
0.236359 -0.0381627 0.535 255 255 255
0.187963 -0.177701 0.499 255 255 255
0.112083 -0.179782 0.524 255 255 255
-0.209177 -0.0192851 0.519 255 255 255
-0.503247 -0.333863 1.053 255 255 255
-0.142626 0.0421384 0.549 255 255 255
-0.188294 0.0663995 0.522 255 255 255
0.0630319 0.0198394 0.55 0 0 0
-0.0469059 -0.151119 0.581 0 0 0
0.0816434 -0.103923 0.561 255 255 255
0.0092474 0.114903 0.458 255 255 255
-0.085092 0.029264 0.577 255 255 255
0.235585 -0.182976 0.485 255 255 255
0.0594483 -0.0701449 0.576 255 255 255
0.224425 -0.162431 0.497 255 255 255
0.0406899 0.13454 0.428 255 255 255
-0.202694 -0.0600302 0.627 255 255 255
-0.159548 -0.0741129 0.634 255 255 255
-0.396594 -0.367919 0.988 255 255 255
-0.0114546 0.135352 0.424 255 255 255
-0.0138758 -0.116736 0.584 255 255 255
-0.490767 -0.264 1.09 255 255 255
0.247954 -0.0222813 0.53 255 255 255
0.0212526 -0.197486 0.535 255 255 255
0.0391541 0.115153 0.459 255 255 255
0.173493 0.0652511 0.488 255 255 255
-0.201684 0.0539493 0.542 255 255 255
-0.128871 -0.0440147 0.679 255 255 255
-0.0153988 0.00293685 0.57 255 255 255
0.0247361 0.0410638 0.535 255 255 255
-0.154724 -0.0977826 0.627 255 255 255
-0.0570133 -0.164448 0.578 0 0 0
0.107993 -0.135683 0.542 255 255 255
-0.0856112 -0.147904 0.587 255 255 255
-0.353342 -0.352018 0.984 255 255 255
0.114163 0.146308 0.414 255 255 255
0.171283 0.0749554 0.484 255 255 255
0.210625 0.0743346 0.475 255 255 255
-0.0810502 -0.206538 0.562 255 255 255
0.13944 0.0724846 0.494 255 255 255
0.0217767 0.135297 0.426 255 255 255
0.0662104 0.1254 0.445 255 255 255
0.2112 0.0464316 0.508 255 255 255
-0.031985 0.0297927 0.552 255 255 255
-0.0602736 0.0453901 0.556 255 255 255
0.295845 0.0040746 0.601 255 255 255
0.197796 0.0278475 0.532 255 255 255
0.192747 -0.119863 0.523 255 255 255
0.216355 0.122494 0.453 255 255 255
-0.458651 -0.358153 1.015 255 255 255
-0.0974978 0.133656 0.423 255 255 255
0.186612 0.121821 0.456 255 255 255
0.02938 -0.148503 0.557 255 255 255
-0.101775 0.104464 0.468 255 255 255
0.232905 -0.170857 0.491 255 255 255
0.131634 -0.0481477 0.56 255 255 255
-0.0784926 -0.190927 0.57 255 255 255
-0.328125 -0.295387 1.015 255 255 255
0.114642 -0.181488 0.524 255 255 255
-0.209957 0.0895488 0.482 255 255 255
0.0355857 0.0525558 0.528 255 255 255
-0.214676 -0.0661858 0.491 255 255 255
0.184625 -0.110908 0.529 255 255 255
0.0116719 0.146272 0.412 255 255 255
-0.234606 -0.0297399 0.51 255 255 255
-0.118403 0.0936646 0.483 255 255 255
0.110683 -0.113727 0.551 255 255 255
-0.165598 0.00115191 0.607 255 255 255
0.187372 0.133102 0.437 255 255 255
-0.240118 0.0920465 0.463 255 255 255
-0.236071 -0.311596 0.963 255 255 255
0.0228678 -0.169034 0.553 0 0 0
0.119275 -0.0209277 0.589 0 0 0
-0.00662778 0.0542243 0.536 255 255 255
-0.156452 0.13518 0.415 255 255 255
-0.117964 -0.0966843 0.735 255 255 255
-0.0132105 -0.181713 0.556 255 255 255
-0.0247966 0.030691 0.552 0 0 0
0.247878 -0.0660179 0.528 255 255 255
0.133976 0.0897346 0.483 255 255 255
-0.0217017 -0.174541 0.565 0 0 0
-0.0838486 0.10644 0.47 255 255 255
-0.14158 0.137889 0.413 255 255 255
-0.24887 -0.321332 0.964 255 255 255
-0.0454184 -0.0154493 0.64 255 255 255
0.077615 0.135236 0.428 255 255 255
-0.205661 -0.00420058 0.534 0 0 0
0.179675 0.00472475 0.562 0 0 0
-0.344685 -0.301822 1.02 255 255 255
0.207407 -0.184332 0.495 255 255 255
-0.289904 0.0392672 0.559 255 255 255
-0.162574 0.100749 0.472 255 255 255
0.144529 -0.0533283 0.557 255 255 255
0.165916 0.0951699 0.471 255 255 255
-0.207097 -0.128248 0.607 255 255 255
-0.08754 -0.105529 0.607 255 255 255
-0.22058 -0.314327 0.957 255 255 255
-0.00796889 0.112147 0.462 255 255 255
0.0665267 0.10635 0.473 255 255 255
-0.185397 -0.0256195 0.546 255 255 255
-0.230123 -0.0522255 0.495 255 255 255
0.204931 -0.190034 0.491 0 0 0
0.00103052 0.118284 0.451 255 255 255
-0.0846983 -0.135168 0.594 255 255 255
0.140583 -0.164553 0.519 255 255 255
-0.187075 0.134181 0.414 255 255 255
-0.114922 0.0492856 0.549 255 255 255
-0.12007 0.0572652 0.54 255 255 255
0.0936441 0.0974142 0.49 255 255 255
-0.0663672 0.132677 0.431 255 255 255
-0.0794603 -0.144103 0.591 255 255 255
-0.0767331 0.104958 0.488 255 255 255
0.0464427 0.124116 0.443 255 255 255
0.251215 0.0700729 0.494 255 255 255
-0.0693441 -0.130554 0.595 0 0 0
-0.184447 0.0920926 0.483 255 255 255
-0.00765842 0.122951 0.444 255 255 255
-0.597442 -0.250896 1.152 255 255 255
0.174605 -0.178194 0.505 255 255 255
-0.0260647 -0.0273681 0.651 255 255 255
-0.000543554 -0.167529 0.56 255 255 255
0.0359548 0.149427 0.406 255 255 255
-0.0417127 -0.190991 0.562 255 255 255
-0.246776 0.0718811 0.501 255 255 255
-0.116238 0.0467752 0.551 255 255 255
0.0600916 0.0581915 0.517 255 255 255
0.0856678 0.0982116 0.49 255 255 255
-0.0454793 -0.137396 0.587 255 255 255
-0.0679717 0.145159 0.407 255 255 255
0.053359 0.0598741 0.517 255 255 255
0.139582 0.126246 0.448 255 255 255
-0.0263729 -0.0721474 0.717 255 255 255
-0.145074 -0.131034 0.625 255 255 255
0.0510455 -0.115902 0.566 255 255 255
0.0138803 -0.0672764 0.592 255 255 255
-0.210472 -0.0494983 0.5 255 255 255
-0.132306 -0.13044 0.637 0 0 0
0.248917 0.0559081 0.504 255 255 255
0.0124165 0.109848 0.465 255 255 255
-0.206897 -0.162299 0.64 0 0 0
0.0501969 -0.199198 0.528 255 255 255
-0.0189426 -0.171783 0.565 255 255 255
-0.169283 -0.0120937 0.628 255 255 255
-0.00320802 0.0269015 0.548 0 0 0
-0.474237 -0.362393 1.013 255 255 255
0.145763 0.11691 0.463 255 255 255
-0.136104 0.120685 0.441 255 255 255
0.0490503 0.13454 0.428 255 255 255
-0.00862272 0.0172167 0.552 255 255 255
0.117333 0.14054 0.423 255 255 255
-0.063801 0.142893 0.41 255 255 255
0.0738039 -0.0825448 0.571 255 255 255
-0.135376 0.0524741 0.545 255 255 255
-0.107232 0.134797 0.418 255 255 255
-0.139408 0.0555077 0.54 255 255 255
0.246278 -0.0263088 0.651 255 255 255
-0.0653878 -0.189666 0.569 255 255 255
-0.213881 0.115465 0.443 255 255 255
-0.249399 0.0729866 0.503 255 255 255
0.111443 -0.174999 0.525 255 255 255
-0.0902622 -0.0479569 0.688 255 255 255
0.113789 -0.175519 0.524 255 255 255
-0.0986219 0.135802 0.419 255 255 255
0.111685 0.0574342 0.503 255 255 255
-0.163417 0.132392 0.419 255 255 255
-0.287326 -0.330326 0.972 255 255 255
0.134029 0.145986 0.415 255 255 255
-0.0289366 0.00677544 0.581 255 255 255
0.184469 -0.165867 0.505 0 0 0
0.126146 0.151782 0.407 255 255 255
0.106149 -0.195334 0.52 255 255 255
0.0784513 -0.0704652 0.571 255 255 255
-0.0674435 -0.0961615 0.604 255 255 255
0.0208237 -0.000774815 0.571 255 255 255
0.203383 0.0878968 0.469 255 255 255
0.158206 0.144327 0.42 255 255 255
0.166137 -0.12801 0.525 0 0 0
0.234911 -0.0902467 0.524 255 255 255
0.165882 -0.189012 0.501 0 0 0
-0.037596 0.148239 0.401 255 255 255
0.188624 0.0278998 0.533 255 255 255
0.148984 0.0632552 0.491 255 255 255
-0.0570971 0.00412884 0.609 255 255 255
0.0978227 0.0831032 0.495 255 255 255
0.0318696 -0.160935 0.553 255 255 255
0.224913 -0.175651 0.491 255 255 255
-0.500759 -0.381496 1.02 255 255 255
-0.0429002 -0.154101 0.578 255 255 255
-0.165276 -0.211282 0.76 255 255 255
-0.173468 0.0634844 0.526 255 255 255
0.107331 0.151409 0.406 255 255 255
0.0562864 0.072768 0.513 255 255 255
0.0613955 0.103708 0.475 255 255 255
-0.054079 -0.136441 0.587 255 255 255
-0.570924 -0.295234 1.094 255 255 255
-0.174977 0.0523778 0.544 255 255 255
0.00427495 0.0974099 0.486 255 255 255
0.10466 0.00472475 0.562 0 0 0
-0.0177839 0.110129 0.463 255 255 255
-0.0434586 0.143172 0.407 255 255 255
-0.218335 0.00360002 0.531 255 255 255
-0.00661542 0.0628294 0.535 255 255 255
-0.199738 0.0740023 0.51 255 255 255
-0.554497 -0.238378 1.137 255 255 255
0.14894 -0.0110538 0.574 255 255 255
0.148758 -0.156709 0.521 255 255 255
-0.158881 -0.228296 0.759 0 0 0
-0.0573956 -0.00692833 0.623 255 255 255
-0.150978 -0.112834 0.62 255 255 255
0.270248 0.0117627 0.549 0 0 0
-0.268853 0.0608006 0.525 255 255 255
0.238525 -0.0537332 0.534 255 255 255
0.0773134 0.0620361 0.514 255 255 255
0.0175185 0.125708 0.441 255 255 255
0.104858 -0.18929 0.522 255 255 255
-0.0598167 0.0697404 0.528 255 255 255
0.0357269 0.11239 0.463 255 255 255
0.188573 -0.111557 0.528 255 255 255
0.0241717 0.153867 0.397 255 255 255
-0.164301 -0.187017 0.767 255 255 255
-0.0242078 0.00393901 0.581 0 0 0
0.0360445 -0.0219976 0.592 255 255 255
-0.274998 0.0534516 0.537 255 255 255
-0.199357 0.115521 0.446 255 255 255
0.118054 -0.173813 0.524 255 255 255
0.0434931 -0.160644 0.552 0 0 0
-0.111051 -0.133138 0.64 0 0 0
0.202643 0.104984 0.457 255 255 255
0.152357 0.071751 0.489 0 0 0
0.221224 -0.116127 0.514 255 255 255
-0.07634 0.0403207 0.561 255 255 255
0.0893004 -0.15216 0.541 255 255 255
0.0487958 -0.159456 0.551 0 0 0
0.1467 -0.18752 0.508 255 255 255
0.234592 -0.0629366 0.531 255 255 255
0.174625 -0.0686436 0.549 255 255 255
-0.0376471 -0.200714 0.556 255 255 255
-0.206822 0.079535 0.503 255 255 255
0.308309 -0.0143853 0.639 255 255 255
0.0938268 0.118111 0.456 255 255 255
0.122956 -0.0501488 0.562 255 255 255
-0.128255 0.133392 0.42 255 255 255
0.245887 -0.0328158 0.533 255 255 255
0.08368 0.0769261 0.502 255 255 255
0.0843548 0.132188 0.434 255 255 255
0.0031803 -0.126881 0.574 255 255 255
0.253335 0.0694092 0.495 255 255 255
-0.165836 0.121289 0.438 255 255 255
0.0879406 0.0688939 0.503 255 255 255
0.103487 0.0724062 0.499 255 255 255
-0.0086071 -0.203392 0.551 255 255 255
0.257819 -0.0558127 0.529 0 0 0
0.0112492 -0.0323795 0.606 255 255 255
0.218513 -0.0226687 0.638 255 255 255
-0.169369 -0.0598569 0.636 255 255 255
0.264699 -0.0210441 0.652 255 255 255
-0.0532344 -0.0904916 0.599 255 255 255
0.13996 0.0747447 0.493 255 255 255
0.140903 -0.0487962 0.557 255 255 255
0.0012476 0.0348 0.546 0 0 0
-0.0387305 -0.171118 0.572 255 255 255
-0.0772221 -0.134653 0.596 255 255 255
0.148678 -0.118481 0.536 255 255 255
-0.398997 -0.293069 1.036 255 255 255
0.129084 0.125236 0.447 255 255 255
-0.244001 -0.0885196 0.556 255 255 255
0.177876 -0.0364147 0.548 255 255 255
-0.00859148 -0.209288 0.55 255 255 255
-0.0905662 -0.154221 0.582 255 255 255
0.201551 0.131151 0.44 255 255 255
0.151521 0.154608 0.404 255 255 255
-0.17238 0.0499962 0.547 255 255 255
0.0742624 0.0327935 0.528 255 255 255
-0.0227015 -0.165009 0.567 255 255 255
0.114618 -0.0634007 0.566 255 255 255
-0.0086071 -0.198909 0.551 255 255 255
-0.312642 -0.347725 0.972 255 255 255
-0.0510419 -0.19626 0.564 0 0 0
0.0892102 0.0320552 0.53 255 255 255
-0.173146 0.145338 0.402 255 255 255
-0.243737 0.081976 0.479 255 255 255
0.0272732 0.0976103 0.487 255 255 255
-0.215043 -0.0393099 0.505 255 255 255
0.0107369 -0.0545101 0.634 255 255 255
0.041995 -0.0839904 0.581 255 255 255
0.0407235 0.0189788 0.551 0 0 0
-0.103043 -0.101243 0.617 255 255 255
-0.0656329 0.0769421 0.513 255 255 255
0.102479 -0.0292753 0.603 255 255 255
-0.401844 -0.287154 1.039 255 255 255
0.243275 -0.0920964 0.52 255 255 255
0.0385764 0.0232492 0.546 0 0 0
-0.132886 0.140547 0.409 255 255 255
-0.238299 0.017754 0.541 255 255 255
-0.227213 -0.107714 0.557 255 255 255
-0.195303 -0.0103798 0.539 255 255 255
0.0949818 0.0899092 0.497 255 255 255
-0.453541 -0.302449 1.057 255 255 255
0.0994796 -0.058181 0.569 255 255 255
-0.230251 -0.156962 0.627 255 255 255
0.00713467 -0.0200709 0.592 255 255 255
0.0115088 -0.132489 0.57 255 255 255
-0.526137 -0.349698 1.044 255 255 255
-0.102624 -0.0152803 0.633 255 255 255
-0.14386 0.0914956 0.484 255 255 255
-0.347726 -0.277692 1.029 255 255 255
-0.298006 0.0350294 0.564 255 255 255
0.0611802 -0.110375 0.566 255 255 255
-0.213861 0.158016 0.406 255 255 255
0.157959 0.141228 0.423 255 255 255
0.00729908 0.131274 0.431 255 255 255
0.110377 -0.170402 0.524 255 255 255
0.0899607 -0.141756 0.545 0 0 0
-0.215896 0.0897346 0.483 255 255 255
-0.134274 -0.0788446 0.684 0 0 0
0.0055143 0.060403 0.529 255 255 255
-0.205121 0.0741475 0.511 255 255 255
-0.28923 -0.0117582 0.563 255 255 255
-0.0951739 -0.13108 0.593 255 255 255
0.238972 0.0201689 0.535 255 255 255
-0.172964 -0.163873 0.634 255 255 255
-0.210051 -0.0510234 0.499 255 255 255
0.122368 -0.184111 0.517 255 255 255
0.0573844 -0.176157 0.539 255 255 255
0.15369 -0.00168313 0.564 255 255 255
0.14754 0.146661 0.415 255 255 255
-0.0853048 0.135352 0.424 255 255 255
-0.110644 0.140204 0.408 255 255 255
-0.483872 -0.34836 1.03 255 255 255
0.259541 -0.0265435 0.529 255 255 255
-0.208971 0.133475 0.416 255 255 255
0.202501 -0.144817 0.509 255 255 255
-0.376201 -0.297787 1.029 255 255 255
-0.195839 -0.031409 0.524 255 255 255
0.173783 -0.0627307 0.552 255 255 255
-0.128425 0.0020974 0.595 0 0 0
0.0235101 0.0215115 0.547 0 0 0
-0.172579 0.0901061 0.485 255 255 255
-0.482662 -0.289297 1.072 255 255 255
0.0182564 -0.00548729 0.578 255 255 255
0.265927 0.0293566 0.528 255 255 255
0.145646 0.102456 0.48 255 255 255
0.147342 -0.160331 0.519 0 0 0
-0.0706739 0.00116709 0.615 255 255 255
0.117649 -0.165061 0.526 0 0 0
-0.477063 -0.370269 1.012 255 255 255
0.201323 -0.188052 0.49 0 0 0
-0.11502 -0.0669608 0.724 255 255 255
0.105591 -0.0736623 0.567 255 255 255
-0.0938941 -0.050342 0.69 255 255 255
0.228933 0.0987207 0.459 255 255 255
0.277511 0.00911556 0.551 255 255 255
0.221608 -0.187668 0.489 255 255 255
-0.0466163 0.026864 0.566 255 255 255
0.127086 0.0751995 0.496 255 255 255
0.0579002 -0.121268 0.561 255 255 255
-0.17773 0.0706745 0.516 255 255 255
-0.0741869 -0.137332 0.595 255 255 255
-0.0819919 0.130173 0.432 255 255 255
-0.131611 0.022298 0.567 255 255 255
-0.016785 -0.116183 0.586 255 255 255
0.162555 0.126691 0.447 255 255 255
0.114478 -0.105848 0.552 0 0 0
-0.204729 0.101087 0.47 255 255 255
-0.0834608 0.127831 0.436 255 255 255
-0.0728492 -0.144347 0.592 255 255 255
-0.185175 -0.00374336 0.6 255 255 255
0.2232 -0.186872 0.489 255 255 255
-0.16927 0.114106 0.449 255 255 255
-0.210474 0.137222 0.411 255 255 255
-0.0849993 0.0513515 0.552 255 255 255
0.15541 -0.0642054 0.557 255 255 255
0.0294013 0.0531115 0.525 255 255 255
0.172504 -0.141448 0.521 0 0 0
0.202629 -0.0592745 0.545 255 255 255
-0.00193985 0.11366 0.459 255 255 255
0.18666 0.0169983 0.545 255 255 255
0.107723 0.109034 0.468 255 255 255
0.097236 -0.135796 0.546 0 0 0
0.194097 -0.0755668 0.541 255 255 255
0.21005 -0.0682704 0.539 255 255 255
-0.2442 0.0803026 0.483 255 255 255
-0.0409475 -0.153835 0.577 0 0 0
0.172759 -0.186749 0.495 0 0 0
0.157714 0.0919193 0.474 255 255 255
0.163878 0.016936 0.543 255 255 255
0.175519 0.0108693 0.549 255 255 255
0.233746 -0.0339359 0.537 255 255 255
-0.19013 0.0459618 0.552 255 255 255
-0.184964 0.0475853 0.55 255 255 255
0.226198 -0.118175 0.512 0 0 0
-0.182061 0.0720734 0.514 255 255 255
0.234399 0.102232 0.458 255 255 255
0.184459 0.0286593 0.531 255 255 255
-0.0477132 -0.127753 0.591 255 255 255
0.204131 0.109446 0.457 255 255 255
0.20209 0.0604863 0.488 255 255 255
-0.0934685 -0.111456 0.607 255 255 255
-0.217432 0.0982357 0.471 255 255 255
0.175559 -0.143715 0.52 255 255 255
0.301555 -0.000848089 0.625 255 255 255
-0.172139 -0.220808 0.763 255 255 255
0.184089 -0.000773458 0.57 255 255 255
0.010481 0.141599 0.418 255 255 255
0.198523 0.0561655 0.499 255 255 255
-0.270508 -0.00164433 0.551 255 255 255
-0.0732212 -0.113665 0.603 255 255 255
0.125714 0.00559917 0.558 0 0 0
-0.0704463 0.0387693 0.565 255 255 255
-0.21206 0.0507934 0.546 255 255 255
-0.161099 0.0411699 0.548 255 255 255
-0.000509582 0.0710528 0.525 255 255 255
0.0198246 -0.132257 0.569 255 255 255
-0.0376471 -0.199809 0.556 255 255 255
-0.0590988 -0.159354 0.58 0 0 0
-0.0496697 0.0784585 0.512 255 255 255
-0.0576051 -0.149049 0.584 255 255 255
-0.156514 -0.111742 0.614 255 255 255
-0.0869064 0.115377 0.454 255 255 255
0.235751 -0.152725 0.497 255 255 255
-0.0246626 0.141592 0.414 255 255 255
0.205832 -0.153323 0.507 255 255 255
0.105768 0.0615533 0.51 255 255 255
0.150659 0.151782 0.407 255 255 255
0.0411 0.141599 0.418 255 255 255
0.228565 0.0414715 0.508 255 255 255
0.181172 -0.0286895 0.657 255 255 255
-0.23307 -0.0970104 0.558 255 255 255
0.093152 -0.0482435 0.633 255 255 255
-0.15182 0.0745388 0.508 255 255 255
-0.0396427 0.106125 0.472 255 255 255
-0.144635 -0.00179653 0.602 255 255 255
0.0753875 -0.173432 0.536 255 255 255
0.248832 -0.0854908 0.521 255 255 255
0.0290019 -0.0112849 0.586 0 0 0
-0.179261 0.138222 0.41 255 255 255
-0.109316 0.140204 0.408 255 255 255
-0.218718 -0.154831 0.635 255 255 255
-0.182552 -0.233836 0.765 255 255 255
-0.197321 0.0950285 0.478 255 255 255
0.139638 -0.088781 0.552 255 255 255
0.213471 -0.0614807 0.541 255 255 255
-0.176293 0.136202 0.414 255 255 255
-0.0260993 -0.135992 0.581 255 255 255
0.0143197 0.146585 0.411 255 255 255
0.0503653 0.029091 0.539 255 255 255
0.240898 -0.162867 0.491 255 255 255
0.0679172 0.136732 0.424 255 255 255
-0.595753 -0.242361 1.156 255 255 255
0.181754 0.148369 0.416 255 255 255
0.244211 -0.0873538 0.522 255 255 255
-0.164906 0.0651963 0.526 255 255 255
-0.107803 -0.0902102 0.731 255 255 255
-0.0488532 0.150637 0.397 255 255 255
0.0452644 0.0923947 0.493 255 255 255
0.113027 -0.122244 0.545 0 0 0
0.0817424 0.117394 0.459 255 255 255
-0.117761 0.0245266 0.576 255 255 255
-0.489136 -0.361577 1.02 255 255 255
0.223874 -0.169489 0.494 255 255 255
-0.0728501 0.132282 0.432 255 255 255
-0.0669806 -0.0164135 0.637 255 255 255
0.23297 -0.132995 0.505 255 255 255
-0.0889532 0.145463 0.406 255 255 255
-0.146626 0.122864 0.436 255 255 255
0.124391 -0.0189138 0.586 255 255 255
-0.187497 -0.0827659 0.614 255 255 255
-0.174655 0.0549325 0.543 255 255 255
