ply
format ascii 1.0
comment Created by Open3D
element vertex 1304
property double x
property double y
property double z
property uchar red
property uchar green
property uchar blue
end_header
0.725449 0.502778 1.567 255 255 255
-0.761257 -0.729499 1.985 255 255 255
-0.869274 -0.579675 1.959 0 0 0
0.45991 -0.223645 1.62 255 255 255
-0.343942 -0.682944 2.143 255 255 255
-0.375792 0.252665 0.768 255 255 255
0.454531 0.508041 1.668 255 255 255
-0.0748045 0.625448 1.607 255 255 255
0.305628 0.125273 1.87 255 255 255
-0.415835 -0.17901 1.779 255 255 255
0.570491 -0.18751 1.65 255 255 255
-0.339464 0.163267 0.954 255 255 255
0.684329 0.0555305 1.473 255 255 255
0.661792 0.241736 1.853 255 255 255
-0.286111 -0.792441 2.128 255 255 255
-0.336496 0.520508 1.559 255 255 255
0.611876 0.340325 1.848 255 255 255
-0.16031 0.0570609 2.312 255 255 255
-0.050215 -0.318164 2.449 255 255 255
0.639469 0.098199 1.876 255 255 255
-0.116444 0.0196556 2.338 255 255 255
-0.685251 -0.564127 1.917 255 255 255
0.320179 -0.340937 1.52 255 255 255
-0.188273 0.306108 2.158 0 0 0
0.0689157 0.373922 1.978 255 255 255
0.67949 0.109995 1.603 255 255 255
-0.243685 0.336618 2.151 255 255 255
-0.70058 -0.0797212 1.33 255 255 255
-0.254963 0.59875 1.71 255 255 255
-0.469346 -0.00506354 1.098 255 255 255
-0.167207 0.551046 1.753 255 255 255
0.667883 -0.434998 1.305 255 255 255
0.693481 0.0641904 1.452 255 255 255
-0.362204 -0.0384341 1.403 255 255 255
0.548727 0.477351 1.734 0 0 0
-0.273527 0.295825 1.094 255 255 255
0.636475 0.585473 1.543 255 255 255
0.67604 0.363527 1.859 0 0 0
-0.182191 -0.390235 2.402 255 255 255
0.368521 0.507853 1.624 255 255 255
-0.97788 -0.69867 1.953 255 255 255
0.328041 -0.203545 1.607 255 255 255
0.210778 -0.1018 2.519 255 255 255
0.687786 -0.0489906 1.445 255 255 255
0.046389 -0.283993 2.499 255 255 255
-0.951222 -0.661475 2.004 255 255 255
0.3446 -0.481508 1.466 255 255 255
-0.126443 -0.51512 2.383 255 255 255
-0.619426 -0.330924 1.629 255 255 255
0.729779 0.37837 1.528 255 255 255
-0.474778 -0.485972 2.151 255 255 255
-0.427389 -0.420455 2.374 255 255 255
-0.436048 -0.355133 1.668 255 255 255
0.43448 -0.134944 1.664 255 255 255
0.685879 0.18563 1.724 255 255 255
0.372583 -0.328671 1.532 255 255 255
-0.365102 0.164628 0.944 255 255 255
0.267236 -0.508689 1.435 255 255 255
-0.471817 -0.00871581 1.108 255 255 255
0.414916 0.0461173 1.753 255 255 255
-0.229329 0.572231 1.748 255 255 255
0.614372 -0.290267 1.624 255 255 255
-0.617455 -0.191552 1.532 0 0 0
0.0200542 0.574519 1.664 255 255 255
0.667621 0.0234932 1.575 255 255 255
0.10755 -0.513325 2.411 255 255 255
0.393521 0.538577 1.629 255 255 255
-0.272241 0.230245 0.906 255 255 255
-0.160581 -0.367103 2.43 255 255 255
-0.173534 0.33659 2.107 255 255 255
-0.649191 -0.414509 1.7 255 255 255
0.530394 -0.158836 1.659 255 255 255
-0.25993 0.333227 1.169 255 255 255
-0.827702 -0.59905 1.929 255 255 255
-0.27745 0.199799 1.005 255 255 255
-0.186965 -0.818951 2.143 255 255 255
0.649615 -0.452389 1.294 255 255 255
-0.266139 0.364021 2.107 255 255 255
-0.503466 -0.0331716 1.143 255 255 255
-0.758984 -0.246767 1.599 255 255 255
-0.287422 0.27429 1.247 255 255 255
0.664083 0.0705513 1.794 255 255 255
0.649786 -0.495633 1.286 255 255 255
-0.381298 -0.8158 2.099 255 255 255
0.328232 0.330381 1.81 0 0 0
0.268391 -0.361129 2.158 255 255 255
0.64508 -0.192018 1.516 255 255 255
-0.219288 0.586204 1.714 255 255 255
0.0387278 -0.225759 2.53 255 255 255
0.274373 -0.158699 1.997 255 255 255
-0.397868 -0.152627 2.479 255 255 255
-0.43366 -0.130191 1.459 255 255 255
-0.660722 -0.371878 1.646 255 255 255
-0.462987 0.0174536 1.055 255 255 255
-0.298321 0.225028 0.858 255 255 255
-0.273874 -0.157293 2.489 255 255 255
0.34982 0.183614 1.815 255 255 255
0.0599808 0.417704 1.899 0 0 0
0.250967 -0.453324 1.491 255 255 255
-0.625781 -0.698589 2.017 255 255 255
0.595695 -0.461706 1.535 255 255 255
0.416578 0.000472634 1.748 255 255 255
-0.530382 0.04086 1.039 255 255 255
-0.302982 -0.272197 2.43 255 255 255
-0.271006 0.222005 0.927 255 255 255
0.0409129 -0.82433 2.204 255 255 255
0.181458 -0.490331 2.303 0 0 0
-0.372428 0.269581 0.739 255 255 255
-0.277089 0.235295 1.094 255 255 255
0.509249 -0.542891 1.439 255 255 255
-0.318715 -0.624885 2.261 255 255 255
0.0146522 0.266653 2.044 255 255 255
0.467403 0.0554864 1.779 255 255 255
-0.365872 0.0943162 2.303 255 255 255
-0.0908156 -0.0555827 2.469 255 255 255
-0.537255 -0.029065 1.128 255 255 255
-0.930282 -0.498386 2.044 255 255 255
-0.0624284 -0.303457 2.459 255 255 255
0.58504 0.536909 1.616 255 255 255
-0.375109 0.141139 0.995 255 255 255
0.367657 0.600178 1.575 255 255 255
0.366024 0.313542 1.673 255 255 255
-0.331004 0.228198 2.22 255 255 255
0.361439 0.368873 1.677 255 255 255
-0.18922 0.0201096 2.392 255 255 255
0.740355 0.58485 1.509 255 255 255
0.226092 -0.694931 1.842 255 255 255
-0.523035 0.0395085 1.048 255 255 255
-0.408065 -0.145428 1.758 255 255 255
0.295541 0.498537 1.739 255 255 255
0.561508 -0.395847 1.551 255 255 255
-0.373829 0.459235 1.719 255 255 255
0.491406 0.340625 1.646 0 0 0
0.65143 -0.379564 1.319 255 255 255
0.735443 0.309819 1.509 255 255 255
0.689266 0.484776 1.691 255 255 255
-0.356787 0.222984 0.81 255 255 255
-0.940145 -0.500093 2.051 255 255 255
-0.330552 0.481025 1.905 255 255 255
-0.404203 -0.304557 2.374 255 255 255
-0.681131 -0.624306 1.959 255 255 255
0.633522 -0.0610775 1.719 255 255 255
0.479894 0.48744 1.71 255 255 255
0.64863 0.318006 1.876 255 255 255
-0.392906 0.177334 0.892 255 255 255
0.543502 0.492889 1.7 255 255 255
0.310279 -0.457439 1.473 255 255 255
-0.0975676 0.405398 1.959 255 255 255
0.159807 0.196031 2.071 255 255 255
-0.141519 0.515782 1.789 255 255 255
0.743983 0.345609 1.463 255 255 255
0.69996 0.155693 1.539 255 255 255
0.580009 0.0915452 1.805 255 255 255
-0.278894 0.299625 1.21 255 255 255
0.289247 0.239321 2.01 255 255 255
0.654573 0.424343 1.784 255 255 255
-0.239918 0.395366 1.079 255 255 255
0.732266 0.343558 1.528 255 255 255
0.289968 -0.231154 1.599 255 255 255
-0.339284 0.0820735 1.357 255 255 255
0.295067 -0.0280531 1.753 255 255 255
0.738053 0.426884 1.456 255 255 255
0.712977 0.353549 1.682 255 255 255
-0.274688 0.250384 0.854 255 255 255
0.0424905 -0.256549 2.509 255 255 255
0.252939 0.539919 1.7 255 255 255
0.188975 0.402746 1.831 255 255 255
-0.196893 -0.137041 2.489 255 255 255
-0.0271658 -0.172236 2.53 0 0 0
0.328563 0.474529 1.734 0 0 0
0.243749 -0.0275688 2.479 255 255 255
-0.400283 -0.0917435 2.469 0 0 0
0.172798 -0.478759 2.338 255 255 255
0.438926 -0.336136 1.555 255 255 255
-0.367893 0.27105 0.73 255 255 255
0.607005 -0.521608 1.432 255 255 255
-0.716942 -0.0998649 1.4 255 255 255
-0.0946222 0.614307 1.633 255 255 255
-0.321431 -0.298644 2.42 255 255 255
-0.469586 -0.249958 1.691 255 255 255
0.410147 -0.485214 1.47 255 255 255
-0.384807 0.00474239 2.499 255 255 255
-0.24377 0.33217 0.883 255 255 255
0.043228 0.516681 1.724 255 255 255
0.30364 0.527634 1.705 255 255 255
0.429183 0.0290011 1.753 255 255 255
0.34897 0.298533 1.696 255 255 255
0.0207238 -0.628137 2.356 255 255 255
-0.341803 0.221202 0.828 255 255 255
0.390732 0.600178 1.575 255 255 255
0.368676 -0.311749 1.547 255 255 255
-0.566376 -0.262844 1.668 0 0 0
0.21031 0.545316 1.691 255 255 255
-0.421676 -0.725522 2.166 255 255 255
0.616619 -0.33657 1.278 255 255 255
-0.67069 -0.311731 1.612 255 255 255
0.569896 -0.325643 1.603 255 255 255
-0.169725 -0.52822 2.338 255 255 255
-0.200262 0.327319 2.136 255 255 255
-0.361102 0.280872 1.673 255 255 255
-0.276031 0.215405 0.994 255 255 255
-0.782837 -0.288837 1.616 255 255 255
-0.32133 0.153163 0.989 255 255 255
-0.469887 -0.0416686 1.291 255 255 255
-0.305454 0.562408 1.744 255 255 255
0.499444 0.514733 1.646 0 0 0
-0.320276 0.139965 2.196 255 255 255
-0.259354 0.333797 1.051 255 255 255
0.273009 -0.45288 1.466 255 255 255
0.628712 -0.423463 1.439 255 255 255
-0.187084 -0.438105 2.365 255 255 255
0.740804 0.368968 1.52 255 255 255
-1.03242 -0.58117 1.997 255 255 255
-0.425369 0.0608894 1.064 255 255 255
-0.086445 -0.291452 2.459 255 255 255
-0.297552 0.442294 1.953 255 255 255
-0.471869 0.0679957 1.015 255 255 255
0.645109 -0.275935 1.439 255 255 255
0.0729739 0.427981 1.837 255 255 255
-0.384943 -0.0506135 1.744 255 255 255
0.63373 -0.388805 1.336 255 255 255
-0.313314 0.138495 1.369 255 255 255
0.0189206 0.154598 2.151 255 255 255
0.201786 -0.0368158 2.561 255 255 255
-0.373247 0.216635 0.826 255 255 255
-0.0138975 -0.594303 2.374 255 255 255
-0.35827 -0.0284452 1.362 255 255 255
-0.703096 -0.664894 1.985 0 0 0
-0.490008 -0.638842 2.22 255 255 255
0.166397 -0.155767 2.53 255 255 255
-0.403704 0.196834 0.839 0 0 0
0.310183 -0.106115 1.637 255 255 255
-0.28078 0.272662 0.768 255 255 255
-0.267724 0.284649 0.77 255 255 255
-0.909401 -0.608584 1.991 255 255 255
-0.615841 -0.548196 1.905 255 255 255
-0.429978 0.101182 0.969 255 255 255
-0.453772 -0.0645708 1.33 255 255 255
0.0353907 -0.710465 2.312 255 255 255
0.114618 -0.297857 2.479 255 255 255
-0.440843 -0.0284104 1.262 255 255 255
-0.453315 -0.444924 1.837 255 255 255
0.0801243 0.269696 2.017 255 255 255
-0.576606 -0.377274 1.682 255 255 255
-0.111762 -0.696873 2.244 255 255 255
-1.07113 -0.477846 2.085 255 255 255
0.213063 0.545316 1.691 255 255 255
-0.223416 0.459098 1.917 255 255 255
0.286291 -0.339355 1.524 255 255 255
0.741949 0.517986 1.459 255 255 255
-0.610973 -0.0507989 1.257 255 255 255
0.536478 -0.463708 1.509 255 255 255
0.156284 -0.676136 2.212 255 255 255
-0.0679284 0.161283 2.244 255 255 255
0.601081 -0.494935 1.429 255 255 255
-0.377965 -0.726354 2.158 255 255 255
0.681623 0.140835 1.659 255 255 255
0.385278 -0.0137502 1.748 255 255 255
-0.293503 0.187515 0.951 255 255 255
-0.311076 0.183894 0.925 255 255 255
-0.370905 0.153469 0.951 255 255 255
0.572761 -0.378904 1.575 255 255 255
-0.321612 0.129289 1.278 255 255 255
-0.48385 0.0750117 0.957 255 255 255
-0.179729 0.4435 1.917 0 0 0
0.247404 -0.370246 1.7 255 255 255
0.398119 -0.151402 1.637 255 255 255
0.667086 -0.200951 1.316 255 255 255
0.400592 0.188212 1.831 255 255 255
-0.366945 -0.348369 2.383 255 255 255
-0.41401 0.0410118 2.479 255 255 255
-0.0647625 0.140428 2.261 255 255 255
0.383527 0.0432646 1.753 255 255 255
-0.461875 -0.0550726 1.31 255 255 255
0.296656 0.515366 1.729 255 255 255
-0.0857436 0.489097 1.842 255 255 255
-0.338453 0.264697 0.749 255 255 255
0.21824 0.540312 1.71 255 255 255
-0.613293 -0.673361 2.03 255 255 255
-0.462571 -0.0116486 1.227 255 255 255
-0.738639 -0.73919 1.985 255 255 255
-0.629442 -0.0479777 1.237 255 255 255
-0.502682 -0.810544 2.121 255 255 255
0.54674 -0.542806 1.477 255 255 255
0.523323 0.480173 1.734 255 255 255
0.571338 -0.552804 1.491 255 255 255
0.3971 -0.486279 1.466 255 255 255
0.109691 -0.407498 2.459 255 255 255
-0.354052 0.0281105 1.547 255 255 255
0.732527 0.308465 1.539 255 255 255
0.366077 -0.479122 1.466 255 255 255
-0.467171 0.0955966 0.93 255 255 255
-0.430617 -0.341561 1.668 255 255 255
0.378538 0.430945 1.633 255 255 255
-0.23242 -0.132457 2.479 255 255 255
0.272252 -0.0819836 1.81 255 255 255
-0.62453 -0.212307 1.575 255 255 255
0.647668 -0.252484 1.466 255 255 255
-0.500885 -0.733822 2.099 255 255 255
0.570456 0.192221 1.87 255 255 255
-0.110226 0.592187 1.668 255 255 255
-0.169835 0.451441 1.911 255 255 255
0.427993 -0.171869 1.629 255 255 255
-0.0849172 0.574802 1.705 255 255 255
-0.411442 0.194339 0.806 255 255 255
-0.692599 -0.74934 2.03 255 255 255
0.379686 -0.0468441 1.71 255 255 255
0.637999 0.573785 1.559 255 255 255
0.0517974 -0.57885 2.374 255 255 255
-0.419731 0.00877383 2.489 255 255 255
0.295967 -0.536518 1.416 255 255 255
-0.445369 0.115624 0.958 255 255 255
0.251759 -0.25316 2.107 255 255 255
0.300664 -0.0621574 2.269 255 255 255
-0.0928313 0.14563 2.228 255 255 255
-1.08834 -0.448811 2.092 255 255 255
0.635714 -0.11834 1.659 255 255 255
0.270153 0.432463 1.758 255 255 255
0.258301 0.568305 1.646 255 255 255
0.00557535 -0.40435 2.44 255 255 255
0.608715 -0.336173 1.616 255 255 255
-0.266915 0.229021 2.228 255 255 255
0.16138 -0.543439 2.338 255 255 255
0.328915 0.269369 1.899 255 255 255
-0.00230428 -0.59044 2.374 255 255 255
-0.253315 0.317215 0.969 255 255 255
-0.297729 0.296705 1.339 255 255 255
-0.0209795 0.0980639 2.303 255 255 255
-0.455825 -0.128406 1.439 255 255 255
-0.812956 -0.710118 1.985 255 255 255
-0.379366 -0.721997 2.166 255 255 255
-0.423999 -0.0484914 1.305 255 255 255
-0.514174 -0.0475255 1.176 255 255 255
0.661582 -0.190244 1.362 255 255 255
0.258809 -0.154505 2.166 255 255 255
0.666171 -0.13124 1.419 255 255 255
-0.577536 -0.111264 1.372 255 255 255
-0.0270477 -0.228876 2.519 255 255 255
-0.308143 0.170121 1.257 255 255 255
-0.0995221 0.425622 1.935 255 255 255
-0.208137 -0.700258 2.22 255 255 255
0.593257 0.587563 1.516 255 255 255
-0.480924 0.116135 0.913 255 255 255
-0.368122 -0.00219825 1.62 255 255 255
-0.244733 0.387623 1.077 255 255 255
0.680576 0.293243 1.799 0 0 0
-0.0264889 0.441028 1.893 0 0 0
-0.332197 0.250775 2.228 255 255 255
0.330657 0.578375 1.607 255 255 255
-0.409956 0.200201 0.798 255 255 255
0.503343 -0.234768 1.624 255 255 255
0.633576 -0.103558 1.682 255 255 255
-0.458966 -0.490173 2.338 255 255 255
0.659344 -0.178321 1.39 255 255 255
0.626779 0.436562 1.763 255 255 255
-0.243948 -0.603437 2.32 255 255 255
0.649675 0.561732 1.575 255 255 255
-0.0481236 -0.61046 2.347 255 255 255
-0.399001 0.155784 0.937 255 255 255
-0.4956 0.0525941 1.037 255 255 255
0.285765 -0.182416 1.784 255 255 255
-0.357201 0.0462477 1.176 255 255 255
0.153118 0.492856 1.729 255 255 255
0.376801 -0.151402 1.637 255 255 255
-0.865763 -0.281056 1.696 0 0 0
-0.071824 0.591691 1.659 255 255 255
-0.396995 0.169776 2.166 255 255 255
0.356641 -0.288091 1.583 255 255 255
-0.321317 0.116624 2.228 255 255 255
0.246113 -0.465455 1.491 255 255 255
0.454254 -0.122353 1.677 255 255 255
-0.122851 -0.223394 2.55 255 255 255
-0.248661 -0.433232 2.402 255 255 255
-0.151476 -0.37208 2.411 255 255 255
0.425736 -0.486279 1.466 255 255 255
-0.235233 -0.207553 2.509 255 255 255
0.693497 0.436583 1.729 255 255 255
-0.735782 -0.613509 1.935 255 255 255
0.0667284 -0.279926 2.499 255 255 255
0.123248 -0.517249 2.411 255 255 255
-0.334722 -0.713497 2.151 255 255 255
-0.351443 0.470424 1.719 255 255 255
-0.504394 -0.664215 2.173 255 255 255
-0.763622 -0.22942 1.587 255 255 255
-0.406067 0.158613 2.158 255 255 255
-0.469014 -0.278223 2.064 255 255 255
0.662375 0.550517 1.587 255 255 255
0.628326 -0.318796 1.362 255 255 255
0.654857 0.378653 1.859 255 255 255
0.6514 0.190216 1.911 255 255 255
-0.0514609 0.57035 1.7 255 255 255
0.163349 0.102209 2.312 255 255 255
-1.06706 -0.496545 2.064 255 255 255
0.574391 0.228471 1.893 255 255 255
-0.0254814 0.453887 1.821 255 255 255
0.0194275 0.614277 1.612 255 255 255
0.35394 0.190148 1.821 255 255 255
0.222273 -0.189603 2.338 255 255 255
-0.436111 -0.22639 1.7 255 255 255
-0.360152 0.270834 2.244 0 0 0
-0.164179 0.180581 2.212 255 255 255
0.0973884 0.478727 1.739 255 255 255
-0.253917 0.354939 1.009 255 255 255
0.664463 -0.149558 1.396 255 255 255
-0.4545 0.0993029 0.951 0 0 0
-0.530568 -0.291876 1.633 255 255 255
0.14193 -0.754448 2.158 255 255 255
-0.712789 -0.703657 1.985 255 255 255
-0.0230474 -0.118713 2.53 255 255 255
-0.308149 -0.459972 2.32 255 255 255
0.329608 -0.541896 1.412 255 255 255
0.0993864 -0.735412 2.228 255 255 255
0.543451 -0.560812 1.449 255 255 255
-0.3627 0.411014 1.911 255 255 255
-0.41276 0.108168 1.02 255 255 255
0.653482 0.0362308 1.691 255 255 255
-0.326648 0.250536 0.773 255 255 255
-0.320236 -0.395621 2.411 255 255 255
-0.28013 0.192642 0.969 255 255 255
-0.30517 0.159797 1.324 255 255 255
0.310153 0.0611042 1.774 255 255 255
-0.327003 0.423965 2.017 255 255 255
0.476091 0.0468013 1.779 255 255 255
-0.159326 -0.37208 2.411 255 255 255
0.0918651 -0.245273 2.519 255 255 255
-0.253787 0.337802 1.002 255 255 255
0.588383 -0.250023 1.655 255 255 255
0.153973 0.559905 1.677 255 255 255
0.433213 0.603767 1.571 255 255 255
-0.758573 -0.749459 1.978 255 255 255
-0.324644 0.184782 0.9 255 255 255
-0.363305 0.224014 1.696 0 0 0
0.251566 0.384869 1.831 255 255 255
0.435281 -0.502979 1.466 255 255 255
0.343968 -0.37431 1.505 255 255 255
-0.286989 0.214027 0.906 255 255 255
0.00467049 0.233391 2.044 255 255 255
-0.542526 -0.287263 1.637 255 255 255
0.497859 0.499805 1.686 0 0 0
0.682118 -0.0798707 1.409 255 255 255
-0.250019 0.285731 0.86 255 255 255
0.685118 0.378653 1.859 0 0 0
-0.0795303 0.487769 1.837 255 255 255
0.189301 0.208929 2.099 255 255 255
0.473671 0.194808 1.837 255 255 255
-0.352783 0.38526 2.092 255 255 255
-0.67725 -0.154213 1.357 255 255 255
-0.382933 0.237573 0.78 255 255 255
-0.460993 0.104162 0.939 0 0 0
-0.381543 0.217729 0.815 255 255 255
0.631936 -0.318676 1.52 255 255 255
0.35322 0.34435 1.664 255 255 255
0.670874 0.527693 1.62 255 255 255
-0.39505 -0.0697458 1.39 255 255 255
0.722549 0.306979 1.583 255 255 255
0.176889 -0.714984 2.114 255 255 255
-0.0275498 0.163758 2.228 255 255 255
-0.0291756 0.244858 2.085 255 255 255
-0.863381 -0.675413 1.997 255 255 255
-0.179227 -0.693032 2.22 255 255 255
0.0986727 -0.74453 2.212 255 255 255
0.642421 -0.284691 1.327 255 255 255
-0.92456 -0.524626 2.017 255 255 255
0.645178 0.286621 1.911 255 255 255
-0.0680521 -0.105899 2.519 255 255 255
0.521356 0.341682 1.691 255 255 255
0.273502 -0.124966 2.143 255 255 255
-0.553813 -0.713002 2.03 255 255 255
-0.374406 0.194713 0.866 255 255 255
-0.445034 -0.107391 2.212 0 0 0
0.0265622 -0.78129 2.204 255 255 255
0.69687 0.156167 1.595 255 255 255
-0.544305 -0.205647 1.603 255 255 255
-0.00201697 0.291378 2.078 255 255 255
-0.623997 -0.135928 1.396 255 255 255
0.293599 -0.389633 1.498 255 255 255
-0.0715812 0.077293 2.244 255 255 255
-0.00878213 0.318431 2.078 255 255 255
-0.855783 -0.711885 1.972 255 255 255
0.308229 -0.00526127 1.763 255 255 255
-0.518859 -0.0179232 1.12 255 255 255
0.259119 0.103634 2.261 255 255 255
0.624371 -0.205602 1.563 255 255 255
0.277946 -0.107929 1.753 255 255 255
0.718431 0.355134 1.591 255 255 255
-0.452911 -0.472177 1.911 255 255 255
-0.141616 0.0982257 2.143 255 255 255
-0.413636 0.127329 0.964 0 0 0
0.153064 0.293767 2.071 255 255 255
-0.150489 -0.0673623 2.459 255 255 255
0.00116582 0.497023 1.774 255 255 255
-0.500163 -0.153013 1.473 255 255 255
0.0546068 -0.708109 2.329 255 255 255
-0.491858 -0.0283157 1.173 255 255 255
0.704306 0.180503 1.516 255 255 255
0.29719 0.111021 2.189 255 255 255
-0.150942 0.539845 1.763 255 255 255
0.703017 0.180667 1.477 255 255 255
-0.336991 0.196737 0.875 255 255 255
-0.323139 0.215501 0.832 255 255 255
-0.374182 -0.25638 2.43 255 255 255
0.677765 0.292897 1.815 255 255 255
-0.103169 -0.526753 2.383 255 255 255
0.0166512 0.431787 1.893 255 255 255
0.222118 -0.689865 1.911 255 255 255
0.634825 -0.150662 1.629 255 255 255
-0.712542 -0.123766 1.387 0 0 0
-0.387605 0.117548 1.015 255 255 255
-0.314461 0.585431 1.563 255 255 255
-0.391548 -0.805553 2.099 255 255 255
0.249865 0.153979 2.244 255 255 255
0.580244 0.211831 1.882 255 255 255
0.701713 0.168524 1.435 255 255 255
-0.330212 0.172409 0.928 255 255 255
0.452312 0.277011 1.65 255 255 255
-0.338545 0.234784 0.792 255 255 255
0.634982 -0.28481 1.498 255 255 255
0.649727 0.33823 1.853 0 0 0
-0.649785 -0.647101 2.01 255 255 255
-0.0586632 -0.280584 2.469 255 255 255
0.0123001 -0.837539 2.22 255 255 255
-0.0938729 -0.732665 2.253 255 255 255
0.009829 0.476815 1.774 255 255 255
-0.359321 -0.0213319 1.333 255 255 255
0.272614 -0.287274 1.668 255 255 255
-0.319356 0.207841 0.862 255 255 255
0.698617 0.24503 1.599 255 255 255
0.247228 -0.387709 1.821 255 255 255
0.74719 0.559889 1.528 255 255 255
-1.0339 -0.46056 2.099 255 255 255
0.597395 0.571248 1.559 255 255 255
0.565131 -0.476982 1.52 255 255 255
0.101409 0.41933 1.865 255 255 255
-0.488852 -0.809324 2.136 255 255 255
-0.26503 0.262995 0.841 255 255 255
0.31949 0.108504 1.794 255 255 255
0.687046 0.204174 1.763 255 255 255
0.538511 0.120182 1.794 255 255 255
0.611021 -0.325406 1.275 255 255 255
0.530394 -0.0279731 1.748 255 255 255
-0.414543 -0.0180701 1.257 255 255 255
-0.333477 -0.784078 2.143 255 255 255
0.446498 -0.305081 1.591 255 255 255
0.29248 -0.440345 1.48 255 255 255
-0.238706 -0.0150982 2.42 255 255 255
0.686877 -0.00417798 1.4 255 255 255
0.306513 0.0390161 1.821 255 255 255
-0.0299239 -0.404974 2.42 255 255 255
0.383936 -0.118982 1.668 255 255 255
0.587929 0.252313 1.887 255 255 255
-0.576532 -0.718283 2.017 255 255 255
0.635083 -0.0791107 1.686 255 255 255
-0.212863 -0.810637 2.158 255 255 255
-0.324883 0.21576 0.833 255 255 255
-0.183663 -0.225759 2.53 255 255 255
-0.285118 0.280142 1.237 255 255 255
0.591215 -0.546317 1.48 255 255 255
0.382711 0.581843 1.595 255 255 255
-0.284755 0.208029 1.11 255 255 255
0.457995 -0.342843 1.551 255 255 255
-0.16613 0.418986 1.978 255 255 255
0.675313 0.0824432 1.575 255 255 255
-0.347549 0.0549353 2.383 255 255 255
-0.270573 -0.303457 2.459 255 255 255
-0.421015 -0.34803 1.673 255 255 255
-0.278803 0.217167 0.913 255 255 255
-0.464757 -0.0242645 1.26 255 255 255
-0.368998 0.0998452 1.037 255 255 255
-0.0610821 0.136749 2.261 255 255 255
-0.369317 -0.581392 2.278 255 255 255
-0.218195 -0.313227 2.411 255 255 255
-0.884673 -0.689422 1.972 255 255 255
0.476894 -0.336136 1.555 255 255 255
0.407885 0.197797 1.837 255 255 255
0.398922 -0.370393 1.509 255 255 255
-0.0433027 -0.671336 2.294 255 255 255
-0.385363 0.182319 0.888 255 255 255
-0.0514453 -0.240217 2.509 255 255 255
-0.271552 0.623037 1.642 255 255 255
0.656613 -0.138349 1.47 255 255 255
0.734431 0.372041 1.543 255 255 255
0.704291 0.21636 1.543 255 255 255
-0.428203 -0.176872 1.579 255 255 255
0.306951 0.0295966 1.789 255 255 255
0.172798 -0.40647 2.338 255 255 255
-0.442984 -0.383974 2.037 255 255 255
-0.250826 0.30172 0.772 255 255 255
0.0898585 0.110209 2.173 255 255 255
-0.418274 0.0593695 1.1 255 255 255
-0.326773 0.121837 1.333 255 255 255
-0.371551 -0.656635 2.269 255 255 255
0.419672 0.267723 1.659 255 255 255
-0.274865 0.305215 1.201 255 255 255
-0.100108 0.379971 2.01 0 0 0
-0.0738155 0.574802 1.705 255 255 255
-0.280955 0.154259 2.196 255 255 255
0.674693 -0.0810021 1.516 255 255 255
-0.280028 0.266404 1.12 255 255 255
-0.346656 0.243547 0.787 255 255 255
-0.183131 0.541682 1.769 255 255 255
0.58963 0.541764 1.607 255 255 255
-0.305582 0.130258 1.094 255 255 255
0.673297 -0.225873 1.324 255 255 255
-0.154509 0.485913 1.876 255 255 255
-1.06285 -0.55609 2.024 255 255 255
-0.243899 -0.578295 2.356 255 255 255
0.397678 -0.265645 1.603 255 255 255
0.00473219 0.185921 2.071 255 255 255
-0.292421 0.187374 1.185 255 255 255
0.535771 0.589727 1.528 255 255 255
0.721791 0.537604 1.587 255 255 255
0.175049 -0.7518 2.092 255 255 255
0.208233 0.606275 1.591 255 255 255
-0.335698 0.522089 1.696 255 255 255
-0.38024 -0.692494 2.151 255 255 255
-0.950246 -0.485081 2.044 255 255 255
0.6802 0.0478799 1.459 255 255 255
0.430474 -0.142638 1.659 255 255 255
0.652361 -0.13232 1.539 255 255 255
0.280272 -0.369412 1.505 255 255 255
-0.642303 -0.0978676 1.372 255 255 255
0.373455 0.174753 1.815 255 255 255
0.587657 -0.11456 1.724 255 255 255
0.250926 -0.52928 1.409 255 255 255
0.502089 -0.409684 1.509 255 255 255
-0.313553 -0.263201 2.42 255 255 255
0.0952279 0.599296 1.607 255 255 255
-0.212357 0.114583 2.189 255 255 255
0.284406 -0.0878171 2.173 255 255 255
-0.733801 -0.763231 1.972 255 255 255
0.208358 0.315724 1.899 255 255 255
-1.02904 -0.598172 1.978 255 255 255
0.265101 -0.425083 1.655 255 255 255
0.282587 -0.0763332 2.365 255 255 255
-0.372314 0.321342 2.166 255 255 255
0.286145 0.346586 1.882 255 255 255
-0.301522 0.192716 1.299 255 255 255
0.229213 -0.140594 2.411 255 255 255
-0.304471 0.146103 1.03 255 255 255
-0.733667 -0.280252 1.612 255 255 255
-0.395006 -0.00777995 1.247 255 255 255
-0.526457 -0.738183 2.092 255 255 255
0.709614 0.490615 1.655 255 255 255
-0.406549 0.0477758 1.122 255 255 255
-0.393538 0.308606 1.972 255 255 255
0.44513 -0.334463 1.559 255 255 255
-1.00666 -0.729466 1.917 255 255 255
0.64587 0.396173 1.842 255 255 255
0.176199 0.563332 1.655 255 255 255
-1.00025 -0.549503 2.024 255 255 255
0.416445 0.102093 1.784 255 255 255
0.340837 -0.385785 1.502 255 255 255
0.190104 0.603686 1.591 255 255 255
-0.287422 0.272261 1.247 255 255 255
0.583984 -0.503038 1.524 255 255 255
-0.461523 0.0595042 2.411 255 255 255
-0.3209 0.240242 0.793 255 255 255
-0.438673 0.129519 0.957 255 255 255
-0.0379344 0.561101 1.714 255 255 255
-0.457309 -0.125188 1.429 255 255 255
-0.0567482 0.498424 1.779 255 255 255
0.320368 -0.53185 1.422 255 255 255
-0.660004 -0.163682 1.381 255 255 255
0.341918 0.101521 1.774 255 255 255
-0.122101 -0.385686 2.374 255 255 255
0.00160942 -0.393885 2.449 255 255 255
0.500694 -0.088326 1.705 255 255 255
-0.390904 0.362354 1.853 255 255 255
-0.456113 -0.145924 2.196 255 255 255
0.625737 -0.342823 1.406 255 255 255
0.272155 0.296518 1.935 255 255 255
0.460602 -0.259128 1.595 255 255 255
-0.0555506 0.00824155 2.338 255 255 255
-0.186223 -0.166723 2.509 255 255 255
0.282712 -0.159618 1.696 255 255 255
-0.252408 0.0948703 2.228 255 255 255
-0.369317 -0.640705 2.278 255 255 255
0.373366 -0.396352 1.505 255 255 255
0.233303 0.397027 1.805 255 255 255
-0.463921 0.0277898 2.383 255 255 255
-0.170812 0.612647 1.65 255 255 255
-0.272054 0.63401 1.629 255 255 255
-0.198264 0.399597 2.01 255 255 255
0.562859 0.197777 1.865 255 255 255
-0.277645 0.211473 1.03 255 255 255
-0.627126 -0.138892 1.403 255 255 255
0.312126 -0.0201359 2.121 255 255 255
-0.295254 0.161406 2.196 255 255 255
0.142917 -0.720794 2.173 255 255 255
0.676662 -0.0523131 1.543 255 255 255
0.515498 -0.462765 1.498 255 255 255
0.409533 0.215029 1.831 255 255 255
-0.479301 -0.490773 2.204 255 255 255
-0.312816 0.148667 1.302 255 255 255
0.458285 -0.193551 1.633 255 255 255
0.640053 0.424343 1.784 255 255 255
-0.140624 0.308778 2.128 255 255 255
-0.820455 -0.213924 1.587 255 255 255
-0.196266 0.0394236 2.383 255 255 255
0.319926 -0.082591 1.646 255 255 255
0.698153 0.260783 1.616 255 255 255
0.221308 -0.0887916 2.499 0 0 0
-0.638915 -0.688742 2.017 0 0 0
-0.649698 -0.222541 1.612 255 255 255
-0.256035 0.214518 2.228 255 255 255
0.33517 0.243302 1.865 255 255 255
-0.628376 -0.130784 1.366 255 255 255
0.356495 0.60888 1.571 255 255 255
-0.356106 0.192133 0.88 255 255 255
0.261196 0.22913 2.128 255 255 255
0.21733 0.134541 2.286 255 255 255
0.742793 0.306045 1.456 255 255 255
-0.642198 -0.68546 2.017 0 0 0
-0.0724676 -0.143416 2.53 255 255 255
0.407169 0.496057 1.62 255 255 255
-0.385081 -0.250414 2.449 255 255 255
-0.5521 -0.120983 1.381 255 255 255
-0.69607 -0.383423 1.673 255 255 255
-0.254634 -0.206726 2.499 255 255 255
-0.402137 0.116969 1.01 255 255 255
0.5352 -0.118498 1.7 255 255 255
0.583148 -0.544744 1.509 255 255 255
-0.0486936 0.57035 1.7 255 255 255
-0.368766 0.0575645 1.135 255 255 255
-0.297869 0.247939 0.797 255 255 255
0.182425 -0.0623283 2.582 255 255 255
-0.391151 -0.108491 1.487 255 255 255
-0.491686 -0.321898 2.278 255 255 255
-0.280629 0.206542 0.939 255 255 255
0.452475 0.349987 1.603 255 255 255
-0.293118 0.241138 1.254 255 255 255
0.269376 -0.267799 1.616 255 255 255
-0.481616 0.112534 0.92 0 0 0
-0.533794 -0.352419 1.668 255 255 255
-0.426375 0.0938654 1.009 255 255 255
0.641043 -0.176872 1.579 255 255 255
0.290856 -0.32182 1.535 255 255 255
0.203331 -0.177291 2.43 255 255 255
-0.461389 -0.247692 2.312 255 255 255
0.0700306 0.26876 2.01 255 255 255
-0.341682 0.336525 2.173 255 255 255
-0.303401 -0.378508 2.402 255 255 255
-0.570835 -0.426291 1.714 255 255 255
-1.04896 -0.565328 2.01 255 255 255
-0.499151 -0.67021 2.181 255 255 255
-0.649955 -0.211342 1.587 255 255 255
0.462584 0.111423 1.794 255 255 255
-0.332206 0.309046 2.204 255 255 255
-0.87558 -0.597743 1.966 255 255 255
-0.270259 0.262792 0.836 255 255 255
-0.58639 -0.299848 1.633 255 255 255
0.351223 0.529515 1.642 0 0 0
0.0836971 0.320037 2.024 255 255 255
-0.360691 0.160304 2.181 0 0 0
0.083 -0.32466 2.499 255 255 255
-0.346863 0.101659 1.595 255 255 255
0.140573 0.472671 1.748 255 255 255
-0.322437 0.267413 0.743 255 255 255
-0.00458105 0.519762 1.763 255 255 255
-0.265106 0.601321 1.686 255 255 255
-0.161789 0.395143 2.004 255 255 255
-0.435002 -0.332619 1.664 255 255 255
-0.206615 0.425622 1.935 255 255 255
-0.344545 0.176469 0.91 255 255 255
-0.432355 -0.559149 2.278 255 255 255
0.0322811 0.512687 1.739 255 255 255
-0.323873 0.125892 1.33 255 255 255
0.453305 -0.429781 1.502 255 255 255
-0.159526 0.0313089 2.356 255 255 255
0.618909 -0.327644 1.575 255 255 255
0.624628 -0.415281 1.435 255 255 255
0.510513 -0.0913678 1.71 255 255 255
0.381597 0.253057 1.784 255 255 255
-0.300005 0.217098 0.871 255 255 255
-0.313695 0.0858782 2.278 255 255 255
-0.439889 -0.24416 1.748 255 255 255
-0.415227 -0.0329301 1.278 255 255 255
-0.130111 0.553899 1.753 255 255 255
-0.747086 -0.253232 1.607 255 255 255
-0.388736 -0.0162285 1.273 255 255 255
0.5947 0.364717 1.805 255 255 255
0.531887 -0.391436 1.524 255 255 255
-0.0831964 -0.750195 2.166 255 255 255
0.559442 0.123856 1.805 255 255 255
-0.616597 -0.679967 2.03 255 255 255
-0.0336114 -0.495774 2.402 255 255 255
-0.536487 0.0375506 1.041 255 255 255
0.165857 0.594066 1.607 255 255 255
-0.283119 0.256339 0.803 255 255 255
-0.367335 0.369155 2.078 0 0 0
0.731043 0.448598 1.505 255 255 255
-0.298244 -0.435321 2.392 255 255 255
0.652091 -0.235216 1.316 255 255 255
-0.619085 -0.600289 1.985 255 255 255
-0.00459664 0.510016 1.769 0 0 0
0.461567 0.50953 1.664 255 255 255
-0.344286 0.0696747 1.152 255 255 255
-0.0952782 0.314666 2.121 255 255 255
0.694065 0.224014 1.696 255 255 255
0.427354 -0.00517473 1.734 255 255 255
-0.265494 0.312749 1.055 255 255 255
-0.54653 0.0444545 1.044 255 255 255
0.0966817 0.00824155 2.338 255 255 255
-0.312132 0.275742 0.733 255 255 255
0.669204 0.0758579 1.655 255 255 255
-0.861511 -0.371663 1.815 0 0 0
0.673398 -0.18319 1.359 255 255 255
-0.711627 -0.102362 1.403 255 255 255
-0.26497 0.23709 0.927 255 255 255
0.513573 -0.553842 1.425 255 255 255
0.262385 -0.263729 2.03 255 255 255
-0.14312 0.0599288 2.278 255 255 255
-0.362519 0.129473 1.005 255 255 255
0.609042 0.22682 1.905 255 255 255
0.237996 0.448349 1.753 255 255 255
0.712299 0.55966 1.555 255 255 255
-0.651891 -0.277053 1.624 255 255 255
-0.325536 0.053713 1.215 255 255 255
0.735443 0.430145 1.509 255 255 255
-0.0989145 -0.401139 2.374 255 255 255
-0.0996645 -0.559883 2.392 255 255 255
0.633464 -0.315814 1.378 255 255 255
0.731689 0.356923 1.532 255 255 255
0.516185 0.478788 1.729 255 255 255
-0.415066 -0.35264 1.682 255 255 255
-0.562466 -0.294533 1.633 255 255 255
0.272007 0.576355 1.616 255 255 255
-0.684243 -0.489807 1.815 255 255 255
0.0863937 0.43815 1.805 255 255 255
0.706118 0.136389 1.393 255 255 255
-0.303488 0.271012 0.753 255 255 255
0.564991 -0.494483 1.513 255 255 255
-0.302094 0.228198 2.22 255 255 255
-0.371031 0.470424 1.719 255 255 255
-0.207832 0.374307 2.107 255 255 255
-0.86013 -0.672164 1.997 255 255 255
-0.533082 -0.702809 2.078 255 255 255
0.521623 -0.298809 1.599 255 255 255
-0.275293 -0.402693 2.43 255 255 255
0.210822 0.603686 1.591 255 255 255
0.43354 0.319427 1.62 255 255 255
-0.145287 -0.520901 2.374 255 255 255
0.712708 0.165118 1.406 255 255 255
-0.161159 -0.747222 2.22 255 255 255
-0.28453 0.168554 2.196 255 255 255
0.670862 0.00545324 1.547 255 255 255
-0.51707 -0.306124 1.624 255 255 255
0.345622 -0.438766 1.491 255 255 255
-0.311075 -0.531352 2.286 255 255 255
0.197221 -0.375613 2.312 255 255 255
-0.500945 -0.565633 2.071 255 255 255
-0.524931 -0.424737 1.719 255 255 255
-0.321579 0.20505 0.868 255 255 255
0.48508 0.536909 1.616 0 0 0
0.105124 0.468154 1.774 0 0 0
0.321448 0.542414 1.682 255 255 255
-0.409502 0.132772 0.958 0 0 0
0.614884 0.0997407 1.848 255 255 255
0.193304 0.0734828 2.356 255 255 255
-0.276714 0.277666 1.114 255 255 255
0.506029 0.510614 1.65 255 255 255
-0.785107 -0.521521 1.887 255 255 255
-0.501015 -0.527049 1.953 255 255 255
0.0628867 0.201419 1.991 255 255 255
0.290778 -0.071657 2.338 255 255 255
0.335832 -0.32182 1.535 255 255 255
-0.285418 -0.254399 2.449 255 255 255
0.484247 -0.0933797 1.696 255 255 255
0.34672 0.528126 1.646 255 255 255
0.258262 -0.148185 2.286 255 255 255
-0.235233 -0.20347 2.509 255 255 255
-0.265729 0.278016 0.794 255 255 255
-0.514964 -0.715819 2.158 255 255 255
0.489525 0.585431 1.563 255 255 255
0.490778 0.581829 1.567 255 255 255
0.676222 0.0490439 1.659 255 255 255
0.182492 0.331058 1.953 255 255 255
0.0220697 -0.248383 2.509 255 255 255
-0.728775 -0.274153 1.607 255 255 255
-0.801408 -0.495638 1.882 255 255 255
0.507372 -0.180705 1.637 255 255 255
-0.447333 -0.16012 2.057 255 255 255
-0.154821 -0.0267124 2.402 255 255 255
0.546281 -0.316231 1.595 255 255 255
-0.453674 -0.22691 2.411 255 255 255
-0.394268 0.0957495 2.338 255 255 255
0.313717 0.00969676 1.882 255 255 255
0.309166 0.085456 2.173 255 255 255
0.300143 0.327048 1.893 255 255 255
-0.295606 0.214801 0.879 255 255 255
-0.48284 -0.0133229 1.198 255 255 255
-0.430096 0.143273 0.945 255 255 255
0.243206 -0.505326 1.459 255 255 255
-0.373416 -0.0207878 1.299 255 255 255
-0.463102 0.0759523 0.969 0 0 0
-0.487705 -0.299222 1.659 255 255 255
-0.294905 0.192178 1.203 255 255 255
-0.990916 -0.726868 1.935 255 255 255
-0.241382 0.47632 1.911 255 255 255
-0.457559 -0.204505 2.136 0 0 0
0.604701 -0.0457104 1.774 255 255 255
0.705366 0.0571712 1.396 255 255 255
-0.40136 -0.12392 1.498 255 255 255
-0.349036 0.175758 0.914 255 255 255
-0.563088 -0.751815 2.064 255 255 255
-0.239103 -0.833952 2.173 255 255 255
-0.300613 -0.387774 2.411 255 255 255
0.246228 0.347722 1.905 255 255 255
-0.250912 0.319597 0.948 255 255 255
0.103625 -0.466243 2.411 255 255 255
-0.502506 -0.459141 1.799 255 255 255
-0.360023 0.285461 1.668 255 255 255
0.645651 -0.268162 1.435 255 255 255
-0.271774 0.30589 1.196 255 255 255
0.00904635 0.0758728 2.312 255 255 255
0.386274 0.578098 1.599 255 255 255
-0.313791 0.144715 1.324 255 255 255
-0.456671 -0.359697 1.664 255 255 255
0.400287 0.56911 1.603 255 255 255
-0.0712275 0.515794 1.779 255 255 255
-0.240589 0.383433 1.09 255 255 255
0.432042 0.366409 1.595 255 255 255
0.462072 -0.167385 1.637 255 255 255
0.238411 -0.159778 2.347 255 255 255
-0.252358 -0.753439 2.196 255 255 255
0.535771 0.592214 1.528 255 255 255
-0.380592 0.180933 2.173 255 255 255
-0.169598 0.260634 2.189 255 255 255
0.662528 0.0937409 1.686 255 255 255
0.667621 -0.0457089 1.575 255 255 255
-0.615932 -0.623096 2.017 255 255 255
0.410376 0.0519705 1.758 255 255 255
0.298454 -0.546458 1.406 255 255 255
-0.108109 0.0663378 2.244 255 255 255
0.593214 -0.48141 1.473 255 255 255
-0.408493 0.163537 0.904 255 255 255
0.31116 0.257127 1.923 255 255 255
0.0931427 0.413964 1.882 0 0 0
-0.388502 0.183957 0.882 255 255 255
0.210381 0.52763 1.714 0 0 0
-0.310532 0.175135 0.951 255 255 255
-0.405886 0.206655 0.808 255 255 255
-0.0769533 -0.797346 2.189 255 255 255
-0.240491 -0.0679102 2.479 255 255 255
0.637676 -0.243826 1.516 255 255 255
-0.354276 -0.015358 1.381 255 255 255
-0.478627 -0.430914 1.744 255 255 255
-0.299318 0.178771 1.205 255 255 255
-0.227127 0.587619 1.71 255 255 255
-0.468572 -0.076753 1.354 255 255 255
-0.365516 0.27105 0.73 255 255 255
0.650393 -0.216806 1.348 255 255 255
-0.34782 0.274773 0.718 255 255 255
0.302468 -0.466076 1.47 255 255 255
-0.0997745 0.354431 2.071 255 255 255
0.241568 -0.412936 2.269 255 255 255
-0.327463 0.11481 1.327 255 255 255
-0.285302 0.223973 0.887 255 255 255
0.220537 -0.496638 2.01 255 255 255
-0.368648 0.240784 0.774 255 255 255
-0.502353 0.0525941 1.037 255 255 255
-0.338165 0.589979 1.603 255 255 255
-0.21713 0.582319 1.719 255 255 255
-0.486374 -0.288135 1.673 255 255 255
-0.431907 0.0766781 0.999 255 255 255
-0.393286 -0.099325 1.459 255 255 255
-0.194541 0.128832 2.189 0 0 0
0.665022 -0.0753002 1.551 255 255 255
0.647269 -0.162362 1.563 255 255 255
-0.240491 -0.0921151 2.479 0 0 0
-0.339365 0.259371 0.762 255 255 255
0.188292 -0.538708 2.166 255 255 255
0.229109 0.518179 1.729 255 255 255
-0.564265 -0.339735 1.646 255 255 255
0.682213 -0.088578 1.333 255 255 255
-0.406222 -0.289618 1.714 255 255 255
0.465795 -0.300657 1.595 255 255 255
0.268861 -0.303029 1.567 255 255 255
-0.289156 0.200452 0.932 255 255 255
-0.446038 -0.443573 1.882 255 255 255
-0.454137 0.169989 0.884 255 255 255
-0.350854 -0.12489 2.489 255 255 255
0.105491 -0.820743 2.204 255 255 255
-0.32645 0.504039 1.691 255 255 255
0.525537 -0.291731 1.603 255 255 255
-0.106248 -0.181897 2.55 255 255 255
-0.241588 0.312608 0.831 255 255 255
-0.669808 -0.237371 1.642 0 0 0
-0.575617 -0.678997 2.037 255 255 255
0.399355 -0.355779 1.52 255 255 255
0.35962 -0.367938 1.509 255 255 255
-0.197121 -0.576086 2.347 255 255 255
0.277865 -0.0725699 1.953 255 255 255
0.0656959 0.219417 1.978 255 255 255
0.214742 -0.604899 2.114 255 255 255
-0.506547 -0.289544 1.65 255 255 255
0.270555 0.266413 2.017 255 255 255
0.464783 -0.439121 1.484 255 255 255
-0.533755 -0.776028 2.121 255 255 255
0.633769 -0.314735 1.456 255 255 255
-0.370672 0.366018 1.953 255 255 255
-0.311526 -0.784993 2.136 255 255 255
0.0466812 0.0608233 2.312 255 255 255
-0.285479 0.204968 0.925 255 255 255
-0.626882 -0.719061 2.01 255 255 255
-0.300103 0.201605 1.275 255 255 255
-0.394741 -0.703113 2.173 255 255 255
-0.324908 0.111213 1.39 255 255 255
-0.24441 0.326313 0.875 255 255 255
-0.077782 -0.622314 2.32 255 255 255
0.0800772 -0.560407 2.411 255 255 255
-0.495818 0.0460208 1.041 255 255 255
0.422262 -0.0793454 1.691 255 255 255
0.349372 -0.476736 1.466 255 255 255
0.390534 -0.111171 1.673 255 255 255
-0.204524 -0.682194 2.22 255 255 255
0.67228 -0.191111 1.322 255 255 255
-0.279634 0.205443 1.025 255 255 255
-0.270059 0.309479 1.18 255 255 255
-0.64868 -0.294097 1.616 255 255 255
0.746505 0.537606 1.487 255 255 255
-0.240014 0.507283 1.876 255 255 255
-0.109595 0.38536 2.004 255 255 255
0.0244651 -0.66775 2.347 255 255 255
-0.478998 -0.0260852 1.249 255 255 255
-0.541716 -0.345118 1.659 255 255 255
-0.373237 -0.671492 2.151 255 255 255
-0.513833 0.0215802 1.09 255 255 255
0.429183 0.0204429 1.753 255 255 255
0.458566 -0.0360055 1.724 255 255 255
-0.412486 0.167681 0.872 255 255 255
0.404703 -0.502951 1.459 255 255 255
0.268388 -0.423486 1.48 255 255 255
0.479176 0.253639 1.748 255 255 255
-0.282647 -0.764738 2.128 255 255 255
-0.316053 0.185151 0.909 255 255 255
0.440924 -0.057975 1.71 255 255 255
-0.354906 -0.0803354 2.489 255 255 255
-0.476193 -0.00940805 1.196 255 255 255
0.481542 -0.273323 1.587 255 255 255
0.576303 -0.183134 1.659 255 255 255
0.456551 -0.272788 1.599 255 255 255
0.481784 0.310918 1.659 255 255 255
0.44244 -0.500593 1.466 255 255 255
0.399672 0.0870861 1.774 255 255 255
-0.311808 0.126586 2.212 255 255 255
-0.355086 0.270971 0.733 255 255 255
0.630437 -0.42804 1.357 255 255 255
0.291956 0.26901 1.941 255 255 255
0.664496 0.505243 1.65 255 255 255
-0.192658 -0.210117 2.54 255 255 255
0.331709 -0.237167 1.587 255 255 255
0.195381 0.184112 2.128 255 255 255
-0.764379 -0.504706 1.859 255 255 255
-0.252169 0.610297 1.673 255 255 255
-0.738639 -0.74565 1.985 255 255 255
-0.272773 -0.0154663 2.479 255 255 255
-0.0171035 0.123381 2.286 255 255 255
-0.246148 0.342283 0.93 255 255 255
0.19327 -0.546937 2.143 255 255 255
-0.263013 -0.757245 2.166 255 255 255
0.0727971 -0.0586591 2.43 0 0 0
-0.402595 0.268647 1.985 255 255 255
-0.177936 -0.763357 2.204 255 255 255
-0.298739 0.207522 0.897 255 255 255
0.129716 -0.747475 2.189 255 255 255
0.636592 -0.152466 1.62 255 255 255
0.503344 0.507929 1.65 255 255 255
-0.297221 0.259495 1.327 255 255 255
-0.384249 0.267348 0.76 255 255 255
0.620292 0.224424 1.911 255 255 255
0.664104 0.572918 1.543 255 255 255
0.00442143 0.422473 1.935 255 255 255
0.506387 0.477351 1.734 255 255 255
-0.124166 0.610484 1.637 255 255 255
-0.384032 0.246443 0.772 255 255 255
0.653691 -0.185739 1.412 255 255 255
-0.409404 0.125167 0.984 255 255 255
-0.460572 0.0789428 0.967 0 0 0
0.69502 0.550311 1.579 255 255 255
-0.379345 0.261652 2.228 255 255 255
0.725656 0.405778 1.607 255 255 255
-0.29848 0.27155 2.22 255 255 255
-0.295487 0.224076 1.273 255 255 255
0.201638 0.297719 1.985 0 0 0
0.674719 0.310808 1.799 0 0 0
-0.0139502 -0.581044 2.383 255 255 255
-0.282298 0.23704 0.856 255 255 255
0.263856 -0.515428 1.876 255 255 255
0.674478 0.0714405 1.616 255 255 255
0.67631 -0.0625137 1.487 255 255 255
-0.362234 0.272887 1.691 0 0 0
-0.623029 -0.153195 1.452 255 255 255
0.395903 -0.0685402 1.696 255 255 255
-0.354338 0.274391 0.717 255 255 255
-0.60757 -0.528995 1.87 0 0 0
-0.42901 -0.367758 2.383 255 255 255
-0.100979 0.599222 1.65 255 255 255
0.591667 0.232286 1.899 255 255 255
-0.41251 0.0139007 1.192 255 255 255
0.327737 -0.411573 1.498 255 255 255
0.073603 0.575056 1.65 255 255 255
0.394069 -0.057636 1.7 255 255 255
-0.626998 -0.0229935 1.194 255 255 255
0.0691595 0.365555 1.985 255 255 255
-0.371656 -0.0149904 1.579 255 255 255
-0.29008 -0.0803354 2.489 255 255 255
-0.357089 0.0298138 1.208 255 255 255
0.735621 0.375107 1.535 255 255 255
0.499481 0.382886 1.655 255 255 255
0.0836823 0.383904 1.947 255 255 255
0.0664614 -0.12084 2.489 255 255 255
0.0015483 0.012139 2.356 255 255 255
-0.39137 -0.0438816 2.489 255 255 255
0.601888 0.549315 1.591 255 255 255
0.239088 -0.143378 2.392 255 255 255
0.683749 -0.0779068 1.336 255 255 255
-0.122968 -0.312727 2.469 255 255 255
0.657446 -0.0657088 1.563 255 255 255
0.673999 0.581693 1.52 255 255 255
0.418766 -0.520557 1.442 255 255 255
0.245996 0.518179 1.729 0 0 0
-1.03604 -0.570162 2.004 255 255 255
0.355729 0.266315 1.815 255 255 255
0.577688 -0.43007 1.547 255 255 255
0.510196 0.533275 1.629 255 255 255
0.66032 0.45976 1.753 255 255 255
-0.424562 -0.158183 1.547 255 255 255
-0.444626 -0.0574086 2.228 0 0 0
0.664809 0.353308 1.853 255 255 255
0.556357 -0.550017 1.477 255 255 255
-0.359377 0.0218674 1.466 255 255 255
-0.0867222 -0.750195 2.166 255 255 255
-0.480093 -0.820145 2.128 255 255 255
-0.0724085 -0.583239 2.392 255 255 255
-0.171968 0.43192 1.935 255 255 255
0.698641 0.427217 1.714 255 255 255
-0.507885 -0.297918 1.637 255 255 255
-0.394741 -0.713722 2.173 255 255 255
-0.551812 -0.157159 1.445 255 255 255
0.279835 0.37684 1.821 255 255 255
0.534858 0.460237 1.744 255 255 255
-0.7769 -0.520139 1.882 255 255 255
0.42979 -0.057975 1.71 255 255 255
0.454241 0.220988 1.831 255 255 255
-0.27734 0.606298 1.677 255 255 255
-0.342595 0.27827 0.712 255 255 255
0.1393 0.579761 1.633 255 255 255
-0.155041 -0.668918 2.236 255 255 255
-0.593706 -0.472969 1.774 255 255 255
-0.711001 -0.128002 1.384 255 255 255
0.166549 0.297137 2.071 255 255 255
-0.187588 0.53176 1.784 255 255 255
-0.444127 0.154688 0.887 255 255 255
0.629983 0.452759 1.748 255 255 255
0.336934 -0.188438 1.612 255 255 255
-0.451317 0.00614163 1.192 255 255 255
0.269757 -0.402358 1.719 255 255 255
-0.90794 -0.73363 1.953 255 255 255
-0.567614 -0.661373 2.044 255 255 255
-0.825917 -0.617313 1.947 255 255 255
0.664451 0.0850534 1.677 255 255 255
0.422483 -0.499569 1.463 255 255 255
-0.425144 -0.0504987 1.302 255 255 255
-0.259054 0.0534829 2.32 255 255 255
-0.0943294 -0.593631 2.356 255 255 255
0.428369 -0.297314 1.591 255 255 255
0.730907 0.354127 1.52 255 255 255
0.287485 -0.338726 2.044 255 255 255
0.387482 0.0691356 1.758 255 255 255
-0.146665 0.474914 1.893 0 0 0
0.449378 -0.145337 1.659 255 255 255
-0.0726658 -0.655533 2.278 255 255 255
0.493212 -0.259754 1.583 255 255 255
0.161345 -0.705045 2.136 0 0 0
-0.264654 -0.501574 2.303 255 255 255
0.683452 0.00920005 1.357 255 255 255
-0.0414313 -0.577859 2.402 255 255 255
-0.970526 -0.567296 2.017 255 255 255
-0.060147 0.488029 1.794 255 255 255
-0.576532 -0.721566 2.017 255 255 255
-0.290495 0.554761 1.774 255 255 255
0.673528 -0.0427076 1.559 255 255 255
0.731043 0.30165 1.505 255 255 255
-0.423832 0.174037 0.841 255 255 255
0.0482628 -0.805724 2.212 255 255 255
0.615024 -0.356248 1.387 255 255 255
-0.24515 0.32249 0.888 255 255 255
-0.494657 -0.52387 1.953 255 255 255
-0.25051 0.285719 0.816 255 255 255
0.033775 -0.405138 2.469 255 255 255
0.436105 -0.541106 1.422 255 255 255
0.6551 -0.160725 1.456 255 255 255
0.354465 0.110492 1.779 255 255 255
0.110936 0.57634 1.646 255 255 255
0.681663 -0.046865 1.452 255 255 255
0.655498 -0.488398 1.289 255 255 255
-1.04748 -0.445407 2.092 255 255 255
0.433867 -0.444511 1.494 255 255 255
-0.308317 0.157963 0.999 255 255 255
0.594677 -0.156859 1.696 255 255 255
-0.454859 -0.101632 1.393 255 255 255
-0.38754 0.193527 0.867 255 255 255
-0.72019 -0.28851 1.629 255 255 255
0.706062 0.115238 1.384 255 255 255
-0.312135 0.12662 1.194 255 255 255
0.0911405 -0.752597 2.204 255 255 255
-0.128262 0.58109 1.691 255 255 255
0.681901 0.173396 1.714 255 255 255
-0.386441 -0.108139 1.516 255 255 255
0.0763458 0.339703 2.004 255 255 255
-0.325675 0.0981948 1.114 255 255 255
-0.115003 -0.738053 2.236 255 255 255
-0.390521 0.146643 2.189 255 255 255
0.292962 -0.331043 1.52 255 255 255
-0.323777 0.242649 2.22 255 255 255
0.376162 -0.430329 1.487 255 255 255
-0.295869 0.202003 1.215 255 255 255
-0.523622 -0.795421 2.136 255 255 255
0.336135 0.454561 1.744 255 255 255
0.429044 -0.164319 1.633 255 255 255
0.449865 0.556067 1.603 0 0 0
0.131282 0.100706 2.278 255 255 255
0.302997 0.30528 1.911 255 255 255
-0.119912 -0.258554 2.489 255 255 255
-0.471678 0.138586 0.924 0 0 0
0.733304 0.27025 1.442 255 255 255
0.0332415 -0.446191 2.43 255 255 255
0.26357 -0.428303 1.48 255 255 255
-0.131537 -0.0921151 2.479 255 255 255
-0.833982 -0.595911 1.929 255 255 255
0.337071 0.16249 1.81 255 255 255
0.32837 0.432847 1.748 0 0 0
-0.213813 -0.734664 2.204 255 255 255
0.0469645 -0.184587 2.53 255 255 255
-1.04008 -0.405251 2.044 255 255 255
-0.293445 0.228682 0.856 255 255 255
0.352138 0.0575281 1.753 255 255 255
-0.557548 -0.229354 1.642 255 255 255
-0.439989 0.00472341 2.489 255 255 255
-0.405642 -0.32703 1.677 255 255 255
0.611987 -0.381025 1.532 255 255 255
-0.180854 0.430581 1.929 0 0 0
-0.28758 0.24364 0.831 255 255 255
0.135219 0.597393 1.616 255 255 255
0.734824 0.313798 1.459 255 255 255
-0.0146878 -0.2443 2.509 255 255 255
0.479244 0.583314 1.571 255 255 255
0.115981 0.17244 2.071 255 255 255
0.476058 -0.397829 1.52 255 255 255
0.39444 -0.534164 1.422 255 255 255
-0.0459152 0.626499 1.603 255 255 255
0.478968 -0.135268 1.668 255 255 255
0.103465 0.204757 2.024 255 255 255
-0.197715 -0.290267 2.449 255 255 255
0.12343 -0.766943 2.204 255 255 255
0.0380517 0.502808 1.744 255 255 255
-0.302172 0.323403 1.369 255 255 255
0.341305 -0.508824 1.442 255 255 255
-0.45444 -0.0920768 2.374 255 255 255
-0.306531 0.165871 0.988 255 255 255
0.236614 0.182265 2.189 255 255 255
-0.415248 -0.0395677 1.291 255 255 255
0.253557 -0.353986 1.65 255 255 255
0.619794 -0.34019 1.539 255 255 255
0.0658692 0.504111 1.729 255 255 255
0.68401 -0.0277694 1.442 255 255 255
-0.543859 -0.294533 1.633 255 255 255
0.25485 -0.320616 1.591 255 255 255
0.371838 -0.293577 1.571 255 255 255
0.277053 -0.124353 1.784 255 255 255
-0.487746 -0.340561 1.65 255 255 255
0.364371 -0.290667 1.583 255 255 255
-0.532342 -0.139189 1.406 255 255 255
-0.0576047 0.13354 2.269 255 255 255
-0.406733 0.174948 2.143 255 255 255
-0.333906 0.534123 1.547 255 255 255
-0.409597 0.213456 0.78 255 255 255
0.236776 0.200755 2.158 255 255 255
0.205995 0.483015 1.724 0 0 0
0.677693 0.456088 1.739 255 255 255
-0.679443 -0.377515 1.659 255 255 255
-0.482005 -0.157309 1.491 255 255 255
0.248615 -0.50422 1.449 255 255 255
-0.252597 -0.132457 2.479 255 255 255
0.606592 0.556857 1.583 255 255 255
0.183757 0.53162 1.7 0 0 0
-0.307314 0.174905 1.262 255 255 255
-0.756382 -0.26238 1.599 255 255 255
0.208548 0.249086 2.121 255 255 255
-0.691544 -0.253268 1.624 255 255 255
0.652912 -0.419152 1.322 255 255 255
0.675928 0.172841 1.826 255 255 255
-0.213471 -0.335511 2.402 255 255 255
-0.439838 0.178231 0.835 255 255 255
0.729562 0.298042 1.487 255 255 255
0.258701 0.212612 2.136 255 255 255
-0.164475 0.403512 1.997 255 255 255
-0.246826 0.487225 1.905 255 255 255
0.582394 0.241557 1.899 255 255 255
-0.265184 0.32506 1.167 255 255 255
-0.01649 -0.741837 2.204 255 255 255
0.110381 0.198758 2.03 255 255 255
0.650256 -0.361499 1.308 255 255 255
