ply
format ascii 1.0
comment Created by Open3D
element vertex 1333
property double x
property double y
property double z
property uchar red
property uchar green
property uchar blue
end_header
0.0771319 -0.124054 0.53 44 35 26
-0.633977 0.308604 1.403 142 111 84
-0.127631 0.188184 0.722 55 34 17
0.138986 0.165428 0.529 27 44 56
0.229471 0.0309823 0.474 238 255 255
0.160549 0.145129 0.518 40 72 102
-0.540467 -0.0575735 1.227 164 130 99
-0.166531 0.194343 0.51 130 103 81
0.0962429 -0.0863112 0.526 33 31 23
0.0594038 0.22128 0.647 42 27 17
0.0492496 0.224051 0.652 42 23 10
0.111428 -0.118488 0.517 48 39 32
0.0844825 0.0931001 0.544 254 255 251
-0.049577 0.18985 0.715 58 30 11
0.218103 0.0724426 0.483 191 255 254
-0.60902 -0.371907 1.167 153 129 104
0.0646246 0.172966 0.556 30 28 20
-0.10446 -0.351814 0.909 137 108 87
0.101817 0.210485 0.577 16 18 7
-0.102275 0.204464 0.595 148 118 100
0.0265643 -0.048621 0.555 36 32 23
0.0343799 -0.168199 0.536 52 39 26
-0.186102 -0.315057 0.964 163 130 103
-0.49649 0.164 1.273 151 116 88
0.084519 0.108447 0.55 171 149 139
0.0679994 0.171442 0.554 33 28 26
-0.0988598 0.170313 0.763 175 145 129
0.0568854 0.0757897 0.56 254 241 201
-0.200147 0.0998097 1.092 159 121 96
0.099563 -0.0196938 0.53 250 255 251
0.103292 -0.180403 0.502 70 60 46
0.0953281 -0.122796 0.521 50 39 32
0.177586 -0.106199 0.484 37 32 28
0.0729965 -0.158641 0.519 250 255 254
0.0337179 0.0788596 0.569 111 137 155
0.0837166 -0.109839 0.528 39 32 24
0.131367 -0.133306 0.5 61 56 64
0.0433662 0.0440508 0.562 192 176 171
0.0397069 0.0294178 0.562 138 156 181
0.170801 -0.0448848 0.494 28 25 20
-0.464603 -0.336876 1.108 159 132 106
0.0492898 0.0656647 0.567 253 237 205
-0.457923 -0.0422462 1.189 163 126 94
-0.152236 -0.127928 1.01 173 133 107
-0.632628 0.249194 1.39 141 113 83
-0.188779 -0.121594 1.012 222 180 148
-0.532636 -0.360673 1.126 143 121 93
0.0377992 -0.168756 0.535 41 30 21
-0.0139233 0.121268 0.586 38 29 22
0.0417715 -0.0376468 0.553 62 70 67
-0.389274 -0.40553 1.089 171 139 115
0.123789 -0.113341 0.509 48 39 34
-0.00938454 -0.269998 0.874 177 141 118
0.108138 0.00188237 0.534 234 193 172
-0.708193 0.23592 1.419 139 116 86
-0.124696 0.129563 0.541 175 140 114
-0.181635 -0.322113 0.957 198 168 136
0.263094 -0.269467 0.73 120 97 78
0.188604 -0.0330856 0.486 23 23 25
0.00504022 0.057035 0.573 34 25 16
-0.0399812 0.102367 0.69 70 49 36
0.053575 -0.145521 0.536 65 60 56
0.170025 0.11822 0.511 138 248 240
0.0604619 -0.0617079 0.543 30 28 18
-0.387375 -0.27001 1.13 172 139 112
-0.178049 -0.105955 0.989 236 190 161
0.0937101 0.0367793 0.536 254 255 249
0.049332 -0.071064 0.547 46 49 50
-0.0363945 -0.229037 0.909 136 102 80
0.119612 -0.0846703 0.516 34 30 23
0.15639 0.169709 0.521 26 50 60
-0.204611 -0.186739 1.017 160 125 97
0.178399 -0.0143657 0.495 24 32 31
-0.40753 -0.337463 1.081 148 124 97
-0.282476 0.168319 1.16 151 116 90
-0.550545 -0.256123 1.176 148 121 97
0.203262 0.0468897 0.487 32 83 124
-0.654084 0.220134 1.378 142 113 90
0.0445962 0.0618646 0.566 253 229 206
0.0763904 0.163918 0.556 168 194 223
0.213827 0.0599905 0.484 43 106 161
-0.0495584 -0.191258 0.934 126 98 79
-0.191498 0.144755 0.491 189 160 135
0.161296 0.122498 0.515 32 241 255
0.189297 0.0419364 0.494 60 59 66
0.128352 -0.0433563 0.514 29 26 23
-0.30861 -0.132234 1.044 209 171 133
0.172223 -0.294257 0.77 186 154 134
0.133793 -0.130013 0.503 55 45 45
0.00267634 0.211673 0.684 50 24 9
0.0493043 -0.149288 0.537 54 44 30
-0.552977 -0.27172 1.169 148 116 92
0.0265393 0.0982343 0.574 84 111 122
0.105053 0.0245679 0.536 255 255 235
-0.79324 0.443175 1.52 137 113 86
-0.0998374 -0.261454 0.935 132 103 82
-0.233042 0.148198 1.122 156 121 93
0.0679994 0.0921069 0.554 254 255 245
-0.105862 0.173745 0.751 90 47 38
-0.375407 0.177543 1.21 149 116 87
0.151613 -0.104199 0.497 38 34 25
-0.501503 -0.091152 1.196 130 100 66
0.147236 -0.0345153 0.507 28 28 24
0.182723 -0.0823994 0.483 35 30 26
0.175283 -0.120663 0.482 46 43 38
-0.16752 0.139162 0.491 146 119 86
-0.193611 -0.335699 0.947 139 112 90
-0.12431 -0.160353 0.997 163 125 100
0.142296 -0.0305698 0.51 30 29 29
0.244367 0.156028 0.479 53 82 83
0.333659 -0.251918 0.701 90 71 56
-0.11741 0.190381 0.717 62 31 18
-0.0440419 0.198681 0.701 52 27 7
0.0866585 0.0142324 0.541 253 255 242
-0.740207 0.542483 1.528 179 145 110
0.137513 -0.16094 0.49 248 255 250
0.135617 -0.0173925 0.513 29 39 42
0.160826 -0.150157 0.481 250 255 251
-0.436973 -0.1611 1.102 181 144 114
0.0893785 -0.0534313 0.531 30 30 24
0.05212 -0.119144 0.539 62 59 54
-0.0851604 -0.230974 0.941 197 162 134
0.124653 0.140921 0.534 108 100 99
0.210285 0.184908 0.498 29 66 96
-0.161244 -0.240906 0.975 137 108 87
0.25122 -0.267254 0.737 60 51 42
-0.392491 -0.131927 1.098 125 100 64
0.175947 -0.0947744 0.486 36 32 25
-0.0199644 0.21683 0.697 56 32 7
-0.158655 -0.140937 1.009 195 161 128
0.139257 -0.0552504 0.508 28 28 24
0.232182 -0.0651426 0.461 55 92 113
-0.27962 0.15457 1.156 152 117 89
-0.562974 -0.255506 1.182 153 124 101
0.107578 -0.0281584 0.527 32 35 34
0.136403 0.14821 0.529 94 106 108
0.130988 -0.0907978 0.508 37 33 26
-0.433991 0.23204 1.26 144 113 84
-0.0566073 -0.268075 0.901 126 97 76
0.178792 -0.111481 0.483 42 34 31
-0.0922519 0.19253 0.712 66 33 16
0.126354 -0.125024 0.506 48 39 32
-0.0970774 0.226551 0.587 108 86 62
-0.143366 -0.0973137 0.983 237 191 162
-0.547003 0.0582112 1.27 153 121 89
-0.0129251 0.115151 0.584 45 25 26
-0.508962 -0.169546 1.147 116 88 60
0.0630546 -0.137413 0.535 49 38 33
0.210399 -0.00842725 0.478 26 26 26
0.152855 0.0492968 0.512 52 65 74
0.128403 0.0442285 0.521 106 113 121
-0.0597389 -0.276323 0.904 134 100 80
0.160672 -0.0723637 0.495 36 32 25
-0.176439 -0.104345 0.989 237 191 164
0.216134 -0.154736 0.451 49 45 36
0.0814661 0.202325 0.586 68 41 17
0.168029 -0.148132 0.477 250 255 251
0.0788783 0.030135 0.542 254 255 247
0.225712 0.177515 0.491 54 72 79
0.0256495 0.112441 0.575 73 90 120
0.243857 0.139367 0.478 79 89 94
-0.149547 0.152379 0.495 104 85 68
-0.196441 0.173683 0.474 188 160 132
0.0980221 -0.00504109 0.531 249 207 195
0.110232 0.129323 0.54 86 59 53
0.182975 0.171935 0.51 25 37 43
0.165889 -0.126394 0.489 49 48 48
0.135798 0.150216 0.53 75 100 107
-0.746284 0.267346 1.439 144 117 82
-0.15415 0.197156 0.513 75 65 51
-0.0411401 0.163104 0.71 126 97 87
0.0351953 0.0212245 0.563 82 102 115
0.191724 -0.107216 0.478 39 31 28
0.150431 0.11141 0.518 123 180 255
0.245658 0.164946 0.48 57 83 83
0.0634623 -0.0300621 0.546 195 221 237
-0.203815 0.183325 0.475 173 145 117
0.15069 0.104263 0.516 217 255 254
0.155244 0.141458 0.52 166 153 182
-0.296556 0.115065 1.156 154 119 93
0.0527013 0.0781666 0.564 254 246 206
0.224857 0.109611 0.484 49 89 120
-0.0238817 -0.275964 0.884 182 143 123
0.0452081 -0.0500639 0.551 55 62 66
-0.180979 -0.0438479 1.043 130 97 70
-0.136124 0.132964 0.559 167 134 107
0.223996 -0.0403237 0.469 30 30 34
0.138261 0.0895062 0.523 250 255 254
0.0982556 0.085785 0.537 237 232 228
0.196126 0.0959916 0.495 23 157 197
0.0963695 -0.144285 0.513 102 123 140
-0.436548 -0.233823 1.124 166 133 106
0.135617 -0.00737467 0.513 252 255 251
0.145048 0.180753 0.526 31 85 125
-0.192449 -0.0424335 1.05 127 96 69
-0.2134 -0.318325 0.974 143 111 89
-0.156058 0.176942 0.503 129 85 26
0.0855863 0.214974 0.569 15 18 17
-0.0885778 -0.346095 0.898 131 102 79
0.236686 0.0563179 0.473 43 73 76
0.166515 0.103656 0.513 244 255 255
-0.093571 -0.11308 0.981 174 136 111
0.0735419 -0.141038 0.529 52 43 36
0.076413 -0.113919 0.531 39 32 22
-0.0218116 -0.187982 0.918 125 96 73
-0.0109927 -0.248591 0.889 122 95 73
0.0336586 0.0768724 0.568 111 137 155
-0.133088 -0.138329 1.002 192 158 127
0.109353 0.17414 0.54 58 53 63
-0.351096 -0.370085 1.044 187 159 131
0.164056 -0.149533 0.479 250 255 251
-0.39626 -0.0167763 1.167 161 127 96
-0.451638 -0.0152724 1.198 161 124 94
0.18143 0.15142 0.508 29 46 51
0.0464398 0.00376273 0.555 132 144 158
0.230848 0.154825 0.485 53 82 83
-0.325377 -0.160951 1.077 207 164 127
0.142368 -0.147485 0.493 155 189 211
0.234313 0.0752657 0.476 51 80 92
-0.351021 -0.230627 1.075 199 166 139
0.188913 0.00173785 0.493 250 255 251
0.203771 0.129562 0.494 50 177 217
0.0763279 -0.186026 0.513 73 58 46
-0.320639 -0.134703 1.05 202 160 130
-0.111527 0.152357 0.748 179 146 131
0.236186 0.163619 0.483 60 84 84
0.212998 -0.0725331 0.47 28 23 19
-0.000550349 0.00568948 0.567 104 84 64
0.150721 -0.303933 0.782 200 168 144
0.00605635 0.0937594 0.581 41 43 34
-0.276297 -0.248257 1.025 137 108 87
-0.312524 -0.347615 1.018 178 144 122
0.0404874 -0.16471 0.536 40 31 24
0.264282 -0.264715 0.73 71 53 44
-0.0834611 0.199015 0.599 208 177 150
0.117217 0.197231 0.548 20 20 14
0.169967 -0.13301 0.487 250 255 254
0.17663 -0.14612 0.473 250 255 251
-0.418587 -0.207474 1.12 193 160 133
0.200236 -0.118428 0.467 54 59 68
0.181437 -0.0379866 0.488 24 25 21
-0.433659 -0.21958 1.126 181 148 121
-0.198099 0.161925 0.478 210 183 157
-0.549141 -0.23829 1.173 194 165 126
0.184724 -0.123034 0.476 57 60 63
-0.124189 0.176655 0.524 94 81 70
-0.0251775 -0.324468 0.879 126 97 74
0.211279 0.00715985 0.48 250 255 251
-0.0126078 -0.209426 0.901 184 150 126
-0.505093 -0.394587 1.098 197 170 144
0.120217 0.0472208 0.526 106 89 91
0.187262 0.032355 0.495 71 70 79
0.0162897 0.0824983 0.575 51 62 58
-0.138438 0.111529 0.561 186 151 125
0.146893 -0.070259 0.503 30 26 19
0.127404 -0.173254 0.491 67 53 38
0.159374 -0.133303 0.491 238 255 255
0.0809552 0.21127 0.569 16 17 13
-0.701284 0.105659 1.348 153 120 91
0.206626 0.151377 0.497 57 136 179
-0.294531 -0.0122997 1.106 163 126 96
0.0281666 -0.0832402 0.551 29 26 12
0.194034 -0.29879 0.772 194 162 140
0.100805 0.0434308 0.532 244 186 159
-0.0956584 0.106931 1.057 154 119 93
0.180959 0.135152 0.509 54 171 201
-0.681592 -0.0907556 1.302 158 128 96
0.153036 -0.0908132 0.499 34 32 22
0.200848 0.00881294 0.485 250 255 251
0.123321 0.117884 0.532 101 75 73
0.141134 -0.121914 0.5 45 41 34
-0.475927 0.149665 1.257 148 117 90
0.000385103 0.154644 0.586 40 31 22
0.217076 0.183794 0.495 29 36 44
-0.463993 -0.253943 1.124 160 124 103
0.00607719 0.116852 0.583 93 105 109
-0.151662 0.173323 0.502 131 87 30
-0.0110239 0.107549 0.584 40 29 22
0.199192 -0.0382245 0.481 25 23 15
-0.0854961 0.164587 0.777 205 176 153
0.197626 -0.0476174 0.481 23 19 24
-0.479032 -0.329664 1.108 199 168 139
-0.493109 -0.222052 1.158 192 159 130
0.111575 0.122716 0.538 107 67 54
-0.529892 -0.170876 1.156 114 86 58
0.207591 0.0183217 0.486 250 255 251
-0.106577 0.21981 0.592 103 87 66
-0.544946 -0.197213 1.156 235 189 158
0.04198 0.081494 0.568 254 245 210
0.00669221 0.217481 0.642 50 30 8
-0.540663 -0.0377594 1.232 167 129 102
0.142547 0.0991473 0.52 255 249 255
0.0396888 -0.160648 0.537 34 30 21
-0.0924571 0.209713 0.588 138 111 87
-0.256775 -0.223672 1.027 155 121 99
0.232633 -0.124543 0.456 226 255 255
0.0486813 0.163275 0.56 61 50 41
-0.0294427 -0.170981 0.923 125 97 78
0.0933181 -0.120092 0.524 47 38 31
0.173849 -0.0738738 0.489 35 28 22
-0.705966 0.117406 1.357 145 117 89
-0.621316 -0.125679 1.249 130 102 74
-0.134126 -0.0900827 0.974 216 174 146
0.0300658 0.0752879 0.57 119 142 159
-0.101049 -0.193659 0.961 127 100 78
-0.535537 -0.300678 1.156 146 119 93
0.20944 0.168022 0.496 52 84 102
-0.429053 0.11078 1.234 156 122 91
-0.0315709 0.226734 0.595 55 34 21
0.342397 -0.255071 0.691 163 132 105
0.0382938 -0.119807 0.542 41 32 25
0.168035 -0.142227 0.486 156 190 212
0.233887 -0.108455 0.457 46 56 61
-0.12188 0.195184 0.677 32 25 8
-0.174188 -0.0336641 1.043 129 96 69
-0.024303 0.215502 0.607 216 190 161
-0.22833 0.104878 1.108 156 119 89
0.149287 -0.147986 0.492 231 255 255
0.0684075 -0.0940579 0.536 35 31 22
-0.0232765 0.216133 0.606 224 193 166
0.0455175 0.108839 0.566 210 194 162
-0.40946 -0.0768163 1.156 135 98 66
0.180816 -0.0111435 0.495 22 33 33
-0.313408 -0.328995 1.043 140 113 91
-0.0792635 0.00516268 1.002 128 95 68
0.0651597 -0.0979109 0.538 38 31 25
-0.179659 -0.196083 0.989 185 151 118
-0.152027 0.146207 0.801 214 182 160
0.170025 0.193893 0.511 50 40 26
-0.455955 -0.389515 1.079 206 175 148
-0.181153 -0.016707 1.044 130 97 70
0.00601465 0.0752735 0.577 33 31 19
0.0616157 0.197379 0.597 72 49 28
0.0607849 0.0542422 0.554 255 254 212
0.0617713 -0.0980928 0.539 32 30 20
0.126185 -0.0640174 0.512 28 29 20
-0.58917 -0.0821988 1.237 163 126 94
-0.186532 0.0562708 1.075 160 120 96
-0.0343547 -0.15022 0.934 167 132 115
-0.242935 -0.315818 0.991 140 108 84
0.182403 -0.165782 0.472 60 51 42
0.117932 -0.0619984 0.516 32 32 26
-0.0506844 -0.289747 0.9 197 166 139
0.162449 0.142889 0.516 38 56 52
-0.550545 -0.265692 1.176 149 120 97
-0.575021 -0.395186 1.141 145 123 88
-0.219471 0.153128 1.118 153 118 92
0.0266047 0.236887 0.619 40 23 9
-0.104557 0.124484 1.06 150 117 90
-0.184921 0.140386 0.542 137 109 81
-0.718949 0.206336 1.422 144 113 86
0.229917 -0.0353633 0.464 39 54 78
0.156082 -0.293139 0.777 87 69 58
0.0834805 0.154592 0.555 239 254 251
-0.0475329 0.198965 0.702 56 28 11
0.183008 0.06862 0.501 39 85 130
-0.1198 -0.0501768 1 127 94 67
-0.0705614 -0.129442 0.972 169 129 103
-0.732906 0.323296 1.459 137 111 82
-0.214424 -0.309411 0.986 139 109 91
-0.185 0.141907 0.495 209 183 154
-0.169035 0.0279913 1.064 161 123 96
-0.163639 -0.30184 0.952 135 103 81
-0.357694 -0.189501 1.09 200 166 131
-0.522113 -0.330309 1.135 152 122 104
0.0321179 -0.127745 0.542 38 24 18
-0.175825 0.162379 0.501 95 71 55
0.085377 -0.0501631 0.533 31 26 22
-0.0555393 -0.342138 0.884 141 107 85
-0.129179 -0.0565161 0.997 113 80 53
0.0208237 0.0586943 0.571 47 55 52
0.193512 0.176824 0.505 21 35 39
0.202684 -0.0615785 0.48 26 23 20
-0.193704 0.112875 0.537 165 135 103
0.105553 -0.159293 0.505 250 255 251
0.0489636 -0.19172 0.524 69 57 41
0.15206 -0.157855 0.483 244 255 252
-0.608927 -0.0712545 1.257 160 130 98
-0.0190779 -0.333623 0.862 157 123 103
0.141739 0.0193773 0.514 91 76 66
-0.331842 -0.276749 1.064 147 115 91
0.0307761 0.04068 0.566 76 96 109
0.135571 0.00685713 0.516 105 117 135
-0.004534 0.230926 0.606 169 137 115
0.0463561 -0.0205856 0.554 40 39 41
0.167489 0.176477 0.516 144 185 209
-0.0388776 -0.255492 0.898 128 99 76
0.143021 0.167693 0.528 33 55 77
0.16131 -0.00394886 0.502 250 255 251
0.0640435 0.00732225 0.551 254 255 247
0.146601 -0.0864577 0.502 39 32 26
0.116157 0.0430226 0.527 167 130 116
0.0956887 -0.165045 0.505 250 255 251
0.0875041 -0.189088 0.51 74 58 53
0.069173 0.0716207 0.549 254 245 210
-0.22237 -0.352071 0.958 137 108 83
-0.184905 -0.0286543 1.046 132 98 74
-0.28398 -0.0265535 1.1 139 106 77
0.117479 0.0990239 0.533 178 248 255
-0.142138 0.170394 0.503 90 61 38
0.0445174 0.0534803 0.565 238 218 198
0.254282 -0.269014 0.732 76 56 48
0.0694285 -0.00339398 0.544 255 255 239
0.0253819 0.0436735 0.569 65 88 84
-0.737634 0.284921 1.445 142 115 78
-0.234053 -0.0852051 1.03 131 93 68
-0.00707293 0.0494888 0.572 94 69 60
-0.27883 -0.330091 1.01 141 112 91
0.23266 -0.00672777 0.468 145 194 222
-0.614212 0.0424651 1.294 157 123 90
-0.575765 -0.122057 1.213 130 99 72
0.20002 -0.0085154 0.483 20 27 31
-0.078884 0.17753 0.762 64 34 18
0.146779 0.112687 0.52 174 196 255
-0.148997 0.0553286 1.057 160 122 97
0.0209331 0.166423 0.574 35 29 16
0.0593586 -0.0817295 0.541 30 26 19
-0.79205 0.401739 1.513 137 110 84
0.191344 0.0288974 0.491 75 83 98
0.0722686 -0.150509 0.526 85 99 119
0.120446 0.0678931 0.527 197 236 255
-0.258282 -0.350233 0.988 146 115 88
0.0135286 0.166353 0.577 36 28 16
-0.529235 -0.261759 1.167 146 119 95
0.0645868 0.0251179 0.548 255 244 226
-0.124004 0.206764 0.538 108 86 62
0.14311 -0.0518414 0.507 30 27 24
0.149043 0.146249 0.522 41 29 40
0.194072 0.107109 0.498 214 255 255
0.0521125 -0.178391 0.53 252 255 251
0.153444 -0.0293317 0.503 26 26 28
-0.130918 0.0703404 1.05 159 120 98
0.107901 0.19118 0.546 28 21 15
0.209938 -0.103892 0.47 33 30 27
-0.394656 0.0466016 1.185 156 122 91
-0.467623 -0.0443669 1.194 165 131 96
0.203716 0.0870481 0.49 31 137 164
0.17643 -0.0280029 0.494 22 26 21
-0.121268 0.156009 0.748 144 114 96
-0.140011 -0.245011 0.96 197 162 136
0.15904 -0.0283431 0.5 22 28 26
0.113767 -0.0819419 0.52 34 30 23
0.154889 0.109301 0.516 202 255 255
0.0641597 0.0711138 0.552 255 245 209
0.20827 0.185279 0.499 61 112 146
0.0922495 -0.138948 0.518 59 50 45
0.162134 0.106575 0.515 216 255 253
-0.0140183 0.142258 0.59 32 25 17
0.0868537 -0.144289 0.516 76 74 85
0.00503143 0.0485579 0.572 36 27 18
-0.180944 -0.275977 0.97 139 105 83
-0.588338 0.0872221 1.302 156 122 91
-0.4336 -0.2981 1.098 150 123 99
-0.237615 -0.308743 0.989 137 108 83
-0.440208 -0.237481 1.124 165 130 102
0.0998176 0.0725415 0.536 251 245 209
0.202289 -0.123441 0.463 250 255 254
0.0838752 -0.0962729 0.529 37 30 22
-0.336566 -0.227388 1.068 198 165 136
-0.47091 0.166426 1.26 151 118 91
0.110167 -0.0449665 0.523 30 30 26
0.106425 0.16362 0.543 247 255 252
0.0593007 0.0572552 0.557 252 249 208
0.226384 0.165651 0.489 56 84 88
0.219221 0.054252 0.482 38 77 93
0.13977 0.0379261 0.516 70 65 61
0.13952 -0.00819349 0.512 252 255 249
-0.122791 0.184366 0.529 88 82 69
0.165889 -0.114458 0.489 43 35 32
-0.0466671 -0.162901 0.937 185 150 124
-0.204242 -0.222451 0.999 137 108 87
0.155796 0.0241112 0.508 92 78 74
-0.131102 0.141802 0.77 232 191 170
0.178824 0.150357 0.51 33 43 48
0.156102 0.0274719 0.509 85 73 71
0.0981248 0.157416 0.546 235 255 252
0.187676 0.147822 0.507 162 233 255
0.147039 0.173378 0.527 69 77 105
-0.00436192 0.0969284 0.583 36 25 16
-0.331571 0.184911 1.194 149 114 88
-0.344164 -0.342735 1.07 144 116 86
0.198477 0.18349 0.503 93 113 124
0.163501 -0.124803 0.489 46 47 41
-0.623227 -0.247228 1.217 194 168 137
0.0520032 -0.0514807 0.547 33 28 24
0.338224 -0.250777 0.701 79 61 52
0.204277 -0.150012 0.459 34 41 45
0.0728365 -0.0298969 0.543 33 46 73
-0.144939 -0.114211 1.005 213 174 141
-0.306277 -0.0178592 1.116 166 128 101
-0.0842554 -0.257306 0.931 133 104 83
0.15373 -0.108025 0.496 45 36 31
-0.109672 0.0647796 1.043 158 122 99
0.153749 -0.0146269 0.504 30 35 40
0.0635785 0.0339736 0.547 240 195 159
-0.200904 -0.085616 1.015 122 92 58
-0.436548 -0.208215 1.124 191 159 127
-0.362819 -0.0822982 1.128 129 94 66
-0.141021 -0.0769851 0.989 116 84 60
-0.573963 -0.312735 1.173 147 120 94
-0.190234 0.173718 0.472 136 113 94
-0.602615 0.0920216 1.31 153 121 89
0.00038576 0.165416 0.587 38 29 8
0.220211 0.17904 0.493 34 48 54
0.188946 0.0225053 0.491 242 255 255
0.0615718 -0.0344415 0.545 36 33 28
-0.190111 0.180282 1.106 150 116 92
0.177395 -0.0445214 0.49 27 27 23
-0.234163 0.0906169 1.11 159 121 94
0.0556664 -0.0319558 0.548 176 198 208
-0.376865 -0.221226 1.089 169 136 107
-0.448002 -0.399033 1.081 153 126 104
-0.100158 -0.240923 0.938 181 143 118
0.226716 0.140694 0.488 54 84 89
0.205421 0.153302 0.498 0 112 161
0.0570886 0.183978 0.562 61 40 23
-0.0839112 -0.337657 0.895 130 106 79
0.181377 0.0890023 0.501 245 255 255
0.184517 -0.293875 0.769 197 166 139
-0.563386 0.181973 1.313 146 114 80
-0.158949 0.18825 0.507 78 45 28
0.00707441 0.149176 0.587 65 58 41
0.192157 0.0208221 0.489 250 255 251
0.180292 -0.285622 0.767 76 63 50
-0.366121 -0.357853 1.053 171 135 112
0.175159 0.118586 0.509 158 255 255
0.0888475 -0.0336832 0.533 31 31 33
0.121658 -0.0659403 0.514 30 26 19
-0.614306 -0.277066 1.192 142 120 94
0.146655 -0.0417753 0.505 28 28 24
0.124032 -0.104434 0.51 43 36 26
0.0523835 -0.0249574 0.551 202 228 246
0.00404297 -0.00719001 0.564 53 34 21
0.0807916 0.0858599 0.543 254 255 249
0.0471961 0.216505 0.668 53 29 13
-0.605704 -0.102742 1.242 149 116 87
0.0349893 -0.181661 0.532 60 45 33
-0.152871 0.0434108 1.06 161 123 96
0.205552 -0.102462 0.474 33 29 22
0.185084 0.0937066 0.5 250 255 254
-0.192849 0.124415 0.516 175 144 115
-0.154785 0.105701 0.564 187 155 123
0.0292218 -0.0665642 0.554 34 30 21
-0.192764 -0.184903 1.007 154 118 95
0.20581 -0.0404883 0.48 25 21 24
0.0454371 0.0911774 0.565 249 226 205
-0.330976 -0.366442 1.029 169 138 111
0.0224543 -0.143003 0.543 73 56 42
-0.315436 -0.177814 1.073 200 168 134
0.139248 -0.0198194 0.511 30 36 34
0.231137 -0.0181516 0.468 43 56 67
-0.352048 -0.191099 1.089 196 164 130
0.0848265 -0.0355508 0.535 31 31 31
0.196538 0.0463812 0.49 39 228 255
-0.228372 -0.25159 1.005 138 109 84
-0.0969017 -0.224143 0.951 135 102 85
-0.138016 0.138436 0.497 154 125 102
-0.140764 0.135748 0.563 164 128 105
0.151897 -0.168592 0.48 62 51 42
-0.37301 0.124886 1.196 155 117 92
0.0816843 0.10289 0.549 160 98 95
0.0857779 0.0115913 0.541 251 215 192
-0.513962 0.109446 1.265 156 119 89
-0.072054 -0.0784462 0.93 232 186 155
0.135542 0.13788 0.529 50 69 57
0.162783 -0.0364067 0.499 25 26 22
-0.53314 -0.418015 1.108 147 128 101
-0.0627678 -0.247149 0.927 133 101 81
0.211781 -0.0968018 0.469 32 24 21
0.220926 -0.125159 0.461 250 255 254
0.193292 0.0808496 0.496 237 255 252
0.220366 0.0148463 0.476 250 255 251
0.181622 -0.00550485 0.495 31 43 47
-0.138931 0.122005 0.563 169 138 111
-0.41181 -0.331038 1.083 151 122 99
0.222968 0.188285 0.492 31 65 85
0.138893 0.0626395 0.519 250 255 254
0.0505044 0.168743 0.56 29 24 20
-0.183321 0.140054 0.497 205 179 148
-0.451162 -0.305671 1.106 147 120 94
0.0989875 0.00806974 0.541 255 247 226
-0.24593 0.0306726 1.098 159 125 94
0.163742 0.0446901 0.507 62 64 72
0.0727702 0.141298 0.556 57 72 87
0.0966089 -0.0436779 0.528 35 32 27
-0.561119 0.243314 1.333 147 116 87
0.151725 0.0292429 0.511 75 67 64
-0.389434 -0.0317225 1.158 163 129 98
0.205008 0.146524 0.497 45 163 190
-0.470709 0.135023 1.254 155 118 86
0.0280644 -0.0999127 0.549 30 23 15
-0.0731344 0.214983 0.579 195 167 139
-0.674752 -0.105182 1.297 162 132 100
-0.278691 -0.372598 0.975 144 110 86
-0.128571 -0.226194 0.98 128 98 80
0.118617 -0.0353322 0.519 31 32 28
-0.0080165 -0.313381 0.88 126 99 77
0.0347577 -0.0315175 0.556 45 47 38
0.0886718 0.109837 0.548 255 242 238
0.227179 -0.117348 0.454 250 255 254
-0.172215 0.138124 0.493 158 130 100
0.155208 -0.148287 0.493 242 255 255
0.108061 -0.110916 0.517 38 34 27
-0.371063 0.136563 1.196 153 118 92
-0.0459276 0.204898 0.695 54 29 11
0.234954 -0.0180353 0.465 54 58 72
-0.558062 -0.340881 1.152 152 123 102
-0.114864 -0.187967 0.972 160 127 100
0.060555 -0.131565 0.536 45 36 31
0.202469 0.0215294 0.487 250 255 251
0.164889 -0.0411962 0.498 25 25 19
0.130161 -0.0949312 0.508 40 33 27
-0.284478 0.0438881 1.116 161 123 96
-0.0157771 0.104698 0.584 143 114 100
0.0113635 0.216385 0.671 55 27 8
0.145725 -0.104618 0.499 41 37 26
-0.0564952 -0.0330559 0.975 128 95 68
-0.466654 0.0540225 1.222 156 123 94
-0.167335 0.163682 0.5 137 108 85
-0.743285 0.425234 1.509 131 110 79
-0.102347 0.0998615 1.055 156 117 95
-0.118069 0.166053 0.531 110 96 81
0.236973 0.162047 0.483 55 78 85
-0.563659 0.0993208 1.294 149 114 86
-0.000594027 0.226241 0.612 166 137 116
0.0108037 0.115704 0.582 60 66 77
0.177858 0.177608 0.512 32 62 67
0.120082 0.183158 0.533 43 32 27
-0.0679735 0.202276 0.6 199 170 145
-0.224227 -0.345579 0.966 140 111 88
-0.152717 0.194724 0.511 80 66 51
0.158781 0.116632 0.515 0 170 219
0.219221 0.0534676 0.482 38 76 90
-0.111011 0.193205 0.706 59 31 12
0.143968 0.0243485 0.513 82 71 66
-0.0595564 -0.249356 0.924 130 98 76
-0.298319 -0.15613 1.068 177 143 110
0.0196155 -0.0163391 0.563 32 33 24
0.280196 -0.263067 0.719 88 69 56
0.0524786 0.00104754 0.552 255 254 232
-0.190528 -0.334158 0.947 137 110 88
-0.551478 0.00237594 1.252 153 123 91
-0.131089 -0.198067 0.975 134 102 80
0.137523 0.166603 0.53 37 63 90
-0.210566 0.118441 1.1 154 119 93
0.110806 -0.0805581 0.522 32 30 22
0.198082 0.156167 0.502 69 128 178
0.117546 -0.0816267 0.518 34 30 23
-0.54485 0.0312206 1.265 157 123 92
-0.236297 -0.0924955 1.018 123 92 65
0.0705726 -0.024731 0.546 250 255 254
0.14676 0.164489 0.526 28 40 46
0.178123 0.115046 0.508 157 255 252
0.223874 -0.0821783 0.464 40 30 28
-0.397394 0.100333 1.205 153 118 90
-0.140232 0.0274389 1.043 162 124 99
0.0605107 -0.166548 0.528 160 181 189
0.226566 -0.0440457 0.468 46 64 71
-0.636975 -0.232598 1.213 211 185 145
0.00337673 -0.321371 0.863 126 99 75
0.0182009 -0.108649 0.548 61 41 31
0.154719 -0.127687 0.494 47 43 44
-0.00152528 0.123385 0.587 28 26 16
0.173352 0.135683 0.511 0 113 155
-0.0487576 0.217884 0.592 211 183 153
0.0917593 -0.131022 0.52 55 44 35
-0.0651519 0.203592 0.601 205 174 147
0.171712 -0.0591148 0.492 29 27 17
-0.608769 -0.204088 1.185 196 166 134
0.203578 -0.0791539 0.473 27 23 16
-0.708896 0.567661 1.509 147 120 83
0.232476 0.08241 0.477 47 83 91
0.243543 0.185242 0.482 31 41 55
0.222404 0.141778 0.489 59 86 95
-0.578621 -0.0260852 1.249 160 126 93
-0.435174 0.0179145 1.201 159 122 90
-0.283693 0.208857 1.165 150 115 87
0.0612414 -0.00790656 0.55 254 255 247
-0.15596 0.00368719 1.046 138 103 77
0.144466 0.177666 0.527 85 153 163
-0.0184957 0.206979 0.611 203 177 148
0.177719 -0.134441 0.478 250 255 254
0.0243057 0.227546 0.638 41 23 12
-0.114713 0.178503 0.548 95 83 56
0.0991705 0.177431 0.542 48 37 32
0.120532 0.138573 0.535 84 68 61
0.195615 -0.0792128 0.478 29 26 21
-0.140514 0.187607 0.512 129 109 87
0.0911056 -0.11627 0.526 43 36 30
0.0847884 -0.133735 0.524 53 42 33
-0.123948 0.14592 0.509 117 97 77
-0.583088 -0.282915 1.176 161 132 107
-0.148486 0.147886 0.796 231 192 170
-0.0805986 0.152105 0.791 223 189 167
0.122319 0.0274287 0.524 112 86 82
0.0983913 0.049584 0.533 253 196 166
-0.430757 -0.0531308 1.173 162 129 100
0.0745437 -0.132679 0.53 50 41 36
-0.244731 -0.266309 1.005 171 137 113
0.235185 0.0161888 0.47 238 255 255
0.141176 0.019415 0.515 94 75 69
0.00223029 0.028909 0.57 48 32 27
-0.144768 -0.0364902 1.027 128 97 70
-0.00938815 0.225108 0.601 201 174 148
-0.154888 0.0469492 1.062 158 120 93
-0.151039 -0.156332 1.013 163 128 100
-0.69565 -0.0169934 1.333 152 120 88
0.139257 -0.0984796 0.505 38 34 25
-0.600604 -0.0806395 1.244 165 128 98
-0.142597 0.11834 0.563 174 139 111
0.228362 -0.0302722 0.467 48 77 87
-0.690692 0.00253535 1.336 154 126 98
-0.474171 0.109918 1.247 153 119 88
-0.0313739 0.199692 0.61 171 144 122
0.0122621 -0.0245411 0.562 46 30 23
-0.433008 -0.32135 1.092 196 165 136
-0.511505 0.0367755 1.244 157 123 92
-0.230366 0.0358361 1.092 159 121 96
0.213288 0.115754 0.49 218 255 246
-0.396729 -0.338499 1.09 169 143 114
0.205688 0.0669764 0.489 54 107 138
0.135253 0.0431308 0.518 80 73 67
-0.087982 -0.195558 0.955 129 102 80
-0.526183 -0.301512 1.152 149 120 99
0.129626 0.175352 0.533 46 71 105
0.163835 -0.105123 0.49 40 33 25
0.213178 0.0118219 0.479 250 255 251
0.0410554 0.104602 0.568 209 194 184
0.00680927 -0.0200749 0.565 52 34 25
0.175057 -0.162971 0.475 58 49 42
0.0648225 0.00909902 0.55 255 255 241
0.00870992 0.0214507 0.569 40 26 20
-0.450354 0.0356226 1.205 155 123 91
0.239233 0.0897942 0.475 124 170 192
0.14397 0.0505216 0.516 62 81 99
0.119303 -0.00835351 0.522 252 255 249
0.0662894 -0.138634 0.533 50 39 30
-0.590666 0.0148687 1.275 160 126 93
0.0283887 0.239969 0.614 45 26 11
-0.105512 0.200552 0.638 69 57 37
-0.35584 -0.238509 1.079 196 168 138
0.0843509 -0.0639208 0.532 32 29 24
0.0463195 -0.109424 0.543 40 39 24
0.13129 0.0187212 0.519 95 95 89
-0.299536 -0.151511 1.06 221 182 151
0.158356 -0.00477527 0.503 252 255 251
0.206658 -0.0968576 0.473 39 32 24
-0.103363 -0.0541228 0.983 133 97 74
-0.126148 0.185938 0.727 63 37 24
0.182924 -0.0182818 0.492 26 25 32
-0.12096 0.200217 0.544 111 92 63
-0.106862 0.19804 0.599 146 122 97
-0.00523805 0.063784 0.575 43 29 23
-0.636428 0.0130948 1.305 158 123 95
0.0452902 -0.032189 0.552 37 35 42
-0.00178513 0.208129 0.687 49 20 6
-0.601252 -0.128498 1.237 130 98 74
0.110288 0.0995812 0.536 216 255 255
0.141723 -0.0812218 0.505 31 27 20
0.0605327 0.232435 0.626 34 16 5
0.206989 -0.0935805 0.472 27 27 21
-0.172222 0.136712 0.567 130 102 74
-0.555829 -0.310296 1.171 148 119 94
0.148744 0.0835927 0.518 250 255 254
-0.138143 -0.0970167 0.98 234 190 160
-0.249563 -0.152224 1.053 173 138 110
0.17601 -0.105411 0.484 40 35 31
-0.00715949 0.0717655 0.579 46 27 12
-0.201639 0.155645 1.11 158 122 101
0.0854608 -0.0068713 0.539 238 199 179
-0.30986 -0.385314 1.004 147 115 93
-0.492312 -0.318528 1.126 146 119 93
0.185848 -0.0637985 0.485 33 26 20
0.127066 0.00014033 0.519 155 135 127
-0.461242 0.0121717 1.213 158 124 93
-0.0712494 0.212157 0.579 223 189 165
0.0389301 0.0460432 0.564 104 120 139
-0.214012 0.169502 1.118 158 120 95
-0.339735 0.0189094 1.143 160 123 93
0.208382 0.0214852 0.486 250 255 251
-0.104849 0.0421413 1.029 160 121 99
0.166228 -0.133032 0.49 246 255 254
0.197955 -0.129827 0.467 250 255 254
0.0718201 -0.036898 0.542 32 32 28
0.0689746 -0.155941 0.527 250 255 254
0.146893 -0.0661663 0.503 30 30 24
0.15839 0.17683 0.522 124 191 236
-0.0811314 0.117378 0.706 200 168 148
-0.116984 0.163153 0.53 120 106 89
-0.568004 0.00238543 1.257 163 131 99
-0.173369 0.144032 0.494 176 148 118
0.0920147 0.162739 0.552 250 255 254
-0.29326 0.000299587 1.108 163 123 97
0.198137 0.121207 0.496 51 180 208
0.0828572 -0.103824 0.528 37 30 22
0.001339 0.162273 0.586 35 29 16
0.164633 -0.101136 0.49 39 32 26
0.218816 0.00477635 0.476 53 77 89
0.0214103 -0.0199683 0.562 35 31 22
0.177511 0.137346 0.511 8 113 161
-0.0356428 0.211075 0.693 55 27 8
-0.054699 -0.0842357 0.944 225 183 155
-0.133273 0.17712 0.513 92 73 60
0.163923 -0.00149214 0.5 250 255 251
-0.416868 -0.380931 1.06 195 168 142
-0.0323138 0.211257 0.609 176 147 122
-0.218156 -0.327835 0.974 198 165 136
-0.0560569 -0.186566 0.941 125 98 76
0.184698 -0.0830131 0.482 33 25 22
0.166544 0.0353335 0.503 77 69 68
0.15354 -0.0825271 0.498 34 30 19
-0.010968 -0.304326 0.887 127 100 78
-0.427315 0.138331 1.229 151 119 87
-0.0486033 -0.245707 0.916 130 101 80
0.0180506 0.210297 0.676 54 28 13
-0.255104 -0.222001 1.027 168 132 109
0.160769 0.192431 0.516 50 34 27
-0.324572 -0.0872567 1.098 131 97 62
0.213729 0.0244459 0.482 247 255 254
0.0525736 0.00374917 0.553 255 250 233
-0.125512 0.155112 0.512 104 97 80
0.162457 0.00985957 0.498 250 255 251
-0.252692 -0.228018 1.024 138 109 88
-0.0129694 0.122221 0.586 36 27 22
-0.20675 -0.00489752 1.062 151 116 90
-0.564155 -0.0280052 1.244 163 129 98
-0.307872 -0.147921 1.059 226 184 152
-0.286008 -0.225632 1.036 172 138 107
-0.00817196 0.104698 0.584 36 25 18
0.123898 0.206278 0.558 15 16 10
-0.126135 0.187244 0.525 75 68 51
-0.106426 0.150097 0.755 194 158 137
-0.295596 -0.00331254 1.11 164 125 96
-0.551085 -0.333353 1.165 139 114 94
-0.152431 0.156962 1.094 152 118 94
-0.107295 0.0945315 1.053 152 117 91
-0.144133 0.196576 0.678 105 85 65
0.0103396 -0.056954 0.557 81 60 47
0.158556 0.132228 0.517 76 173 203
-0.0250629 -0.324415 0.875 127 98 77
-0.0719332 -0.333248 0.891 130 103 79
-0.155236 -0.295944 0.948 131 104 82
-0.0148264 0.0989954 0.584 109 72 56
-0.142223 0.142914 0.79 221 189 169
0.0861316 -0.122495 0.527 44 37 31
-0.156621 0.146085 0.564 147 118 93
-0.0660696 -0.208824 0.931 130 100 82
-0.118392 -0.182201 0.975 185 152 123
-0.566325 -0.286011 1.173 200 175 141
-0.394636 -0.21529 1.104 172 137 109
-0.151428 0.0224969 1.05 162 122 98
-0.160677 0.0592691 1.066 159 121 96
-0.0446749 -0.285861 0.897 195 162 135
0.0191974 -0.0966901 0.551 47 34 23
-0.0536665 0.214392 0.593 203 176 143
0.0886807 -0.160668 0.512 242 255 255
-0.028916 0.213638 0.694 74 46 29
-0.602317 -0.440195 1.147 143 124 97
-0.520915 -0.136825 1.187 131 98 69
-0.122934 0.207917 0.541 99 80 63
-0.428642 -0.108859 1.137 129 94 66
0.222675 -0.153402 0.445 57 44 31
-0.117992 0.194943 0.68 35 29 14
0.0959307 -0.042039 0.529 32 32 26
-0.538685 -0.432191 1.112 140 125 97
-0.102111 -0.298761 0.928 186 150 129
0.106353 -0.0668384 0.521 27 27 21
0.194514 0.0750479 0.495 173 255 253
0.0468491 0.149756 0.571 249 255 254
-0.193504 -0.352728 0.939 136 109 85
0.144772 0.152216 0.525 75 74 81
0.0895638 0.116971 0.548 252 255 249
0.117246 -0.131763 0.513 51 44 36
0.14923 0.0275798 0.511 75 65 65
-0.127177 -0.0362415 1.02 129 96 67
0.0337772 0.16248 0.57 43 34 27
-0.126931 0.157304 0.511 72 68 69
0.0597266 0.108791 0.561 189 190 184
0.195241 0.13792 0.501 47 182 213
-0.565766 0.0930035 1.294 154 123 94
-0.530478 0.104087 1.275 151 119 87
-0.0900088 -0.111029 0.977 144 111 84
0.190157 -0.00624664 0.49 28 36 37
-0.656815 0.358833 1.403 136 114 79
-0.494961 -0.117311 1.185 129 98 69
-0.0831021 0.0117666 1.009 130 96 72
0.223928 0.0989612 0.482 92 162 215
0.180849 -0.124583 0.476 106 127 133
0.140767 0.120835 0.526 224 253 255
0.125005 -0.0542301 0.514 34 29 25
-0.100455 0.224829 0.59 98 81 56
-0.142687 0.130253 0.567 169 136 109
0.22718 0.188728 0.489 46 75 87
-0.4265 -0.350593 1.089 151 120 91
0.204348 -0.0906998 0.473 34 29 25
0.235088 0.0737165 0.476 43 76 80
-0.278508 -0.270468 1.027 144 115 92
0.145873 -0.0271432 0.508 30 30 32
0.153751 0.101546 0.515 246 255 255
-0.0520183 0.175544 0.733 68 35 18
0.175488 -0.151188 0.472 249 255 251
-0.0398717 0.175318 0.708 109 93 70
0.23595 0.0146591 0.47 245 255 252
0.127171 -0.0107766 0.516 252 255 249
-0.466626 0.151349 1.254 149 118 89
-0.707789 0.202157 1.409 147 117 85
-0.0234687 0.210928 0.7 49 25 11
0.209083 0.187715 0.499 149 203 255
-0.732534 0.31704 1.463 136 112 85
0.0792911 0.167824 0.551 81 70 63
0.0415914 -0.141072 0.539 45 36 27
0.125515 -0.171553 0.493 63 52 45
0.171839 -0.0119974 0.497 28 34 36
0.164889 -0.0436275 0.498 30 23 17
-0.625383 -0.15007 1.249 130 98 66
-0.0024639 0.0969284 0.583 31 24 14
0.196504 0.123317 0.498 56 172 198
-0.428169 0.205624 1.249 150 115 87
-0.675041 0.137281 1.357 141 116 82
-0.18363 -0.0710988 1.02 116 80 59
-0.136543 0.149819 1.081 153 119 97
-0.418294 -0.416835 1.077 152 124 107
-0.681182 0.39309 1.445 138 112 81
0.12512 0.163255 0.536 42 68 86
-0.118293 -0.0393673 1.015 128 97 70
0.0848263 0.14657 0.552 41 56 71
-0.717906 0.401795 1.477 136 112 87
-0.572119 -0.33329 1.185 144 120 95
0.224247 0.0713599 0.481 191 255 247
-0.476313 0.0852238 1.242 155 123 91
-0.429038 -0.144726 1.114 113 86 51
0.146122 -0.0393877 0.506 28 28 22
-0.061445 -0.0299746 0.978 130 96 72
-0.19454 -0.206155 0.991 159 126 97
-0.475064 0.039807 1.213 153 121 89
-0.158949 0.189075 0.507 81 58 37
0.0804791 0.111739 0.553 225 226 222
0.131598 0.10134 0.527 249 255 255
-0.109468 0.214993 0.592 124 99 79
-0.579341 0.201644 1.33 151 119 87
0.28987 -0.260075 0.714 96 69 61
-0.520645 -0.145867 1.182 125 98 63
-0.0542839 -0.330308 0.887 127 103 80
-0.109498 -0.337388 0.914 128 104 81
-0.211379 -0.219858 1.002 139 110 87
-0.247143 -0.163751 1.05 197 163 130
0.213386 0.0763726 0.483 158 255 254
0.125491 0.0435471 0.523 106 113 117
-0.194768 -0.246333 0.984 141 109 87
-0.138894 0.196513 0.674 53 36 20
0.034705 0.103115 0.57 178 188 193
0.15549 0.124055 0.518 0 128 189
-0.291883 -0.341201 1.004 180 144 121
-0.170653 0.176824 0.505 107 86 69
-0.731032 0.411282 1.494 136 109 83
0.155052 0.0400533 0.511 61 61 63
0.0367315 -0.100072 0.545 43 35 21
0.117766 -0.160477 0.501 250 255 251
0.138703 -0.049561 0.509 28 28 24
0.0647964 -0.124354 0.535 43 36 26
0.176738 -0.0805385 0.486 33 30 25
-0.107892 -0.325133 0.913 134 105 84
0.165166 0.126442 0.514 30 184 240
0.0264685 -0.0691438 0.553 31 24 14
-0.11272 0.165059 0.756 213 181 159
-0.154425 0.123661 1.083 151 115 92
0.226906 0.0915206 0.48 38 87 131
0.214811 -0.0260979 0.474 23 22 26
-0.138684 0.11813 0.562 179 145 114
0.209182 -0.0270393 0.477 21 24 23
0.188046 0.186968 0.508 132 152 147
-0.549244 -0.384021 1.13 143 121 93
0.148788 -0.137055 0.493 250 255 254
-0.675966 0.379435 1.429 138 110 80
0.211982 0.0984028 0.487 231 255 249
0.170058 -0.130096 0.485 231 255 255
-0.686505 0.237826 1.403 141 113 83
0.122495 -0.063431 0.514 32 30 22
-0.140226 0.193358 0.514 50 36 32
0.0447537 0.120316 0.568 179 182 181
-0.0482095 0.2206 0.574 184 162 138
0.228469 0.0907395 0.48 45 87 115
-0.111459 0.124484 1.06 156 121 95
0.128434 -0.0805236 0.511 36 29 23
-0.546766 -0.102064 1.21 127 101 72
-0.0799864 0.195862 0.65 32 23 14
-0.174974 0.134887 0.508 132 104 76
-0.801023 0.40747 1.516 137 113 88
-0.186353 0.131922 0.503 181 147 123
-0.287426 -0.296112 1.029 144 115 92
0.168329 0.178156 0.516 175 219 251
0.0735427 0.132916 0.555 58 70 86
-0.383026 0.149109 1.203 152 120 86
0.109861 0.213497 0.57 17 18 9
-0.578274 0.119552 1.308 150 118 94
0.132729 -0.148468 0.499 238 255 255
0.159175 -0.00477527 0.503 252 255 251
-0.48284 -0.046465 1.198 157 125 93
-0.489719 -0.260581 1.137 158 124 102
0.124373 -0.121385 0.508 49 42 36
0.304125 -0.258188 0.712 87 67 57
0.177033 -0.0651204 0.489 29 27 19
-0.371266 -0.0700029 1.137 129 99 67
0.161273 -0.152188 0.48 250 255 251
0.111748 -0.141772 0.507 181 203 215
0.0739919 0.0648906 0.545 255 253 214
-0.0425291 0.223945 0.573 188 161 137
-0.0333051 0.201346 0.609 169 142 118
0.0985759 0.0305592 0.534 254 255 249
0.204212 0.186022 0.501 47 83 107
0.0902395 -0.13297 0.521 55 42 31
-0.254034 0.0955878 1.126 157 122 94
0.0715551 -0.0490644 0.54 30 27 22
0.151725 0.0184326 0.511 98 86 84
-0.0324448 0.206622 0.697 47 22 2
-0.419071 -0.412342 1.079 156 122 98
-0.163713 0.170044 1.098 159 120 98
-0.0857611 -0.138905 0.983 163 125 98
-0.32626 -0.0360202 1.116 146 112 81
0.22939 -0.0529575 0.466 59 69 83
0.116702 -0.0790978 0.518 33 31 23
-0.161999 0.143929 0.57 142 114 86
-0.169226 0.153494 0.496 115 96 69
0.0434143 -0.0554438 0.551 55 66 62
-0.0850583 0.1943 0.71 68 35 20
-0.189899 0.158338 0.491 206 182 159
-0.670918 0.0305913 1.327 151 123 95
0.164297 -0.115254 0.489 42 37 33
0.113565 0.10549 0.535 250 254 255
-0.109785 -0.238884 0.942 194 160 136
0.239315 -0.279557 0.741 161 132 109
0.0672629 -0.0141202 0.548 246 217 192
-0.204244 0.179063 0.476 185 153 131
0.230039 0.0400688 0.472 96 135 210
0.164388 0.0912518 0.509 247 255 254
-0.61492 -0.30458 1.171 173 138 112
0.122625 0.0836462 0.529 250 255 254
0.21753 0.0290311 0.48 83 166 194
0.225787 0.121927 0.486 48 86 100
-0.50921 -0.155676 1.169 139 109 73
0.115319 -0.159662 0.501 250 255 251
0.19269 0.146417 0.505 61 141 186
-0.00993524 0.0610829 0.576 96 70 59
-0.580599 0.261408 1.348 147 112 84
0.115412 -0.0645175 0.516 30 30 24
0.232182 -0.0346082 0.464 38 51 62
-0.0857377 0.0680434 1.041 154 119 93
-0.447173 -0.414098 1.079 151 127 104
-0.402418 -0.0671771 1.152 131 99 65
0.116348 -0.0109437 0.524 252 255 249
0.155244 0.198154 0.52 20 20 14
0.169027 0.084459 0.508 213 255 255
0.0528936 -0.0434694 0.547 34 30 23
0.169618 -0.12641 0.486 59 52 61
0.0911812 0.135451 0.547 60 60 64
0.110082 0.088948 0.535 98 114 135
0.135682 -0.0922691 0.507 36 34 24
-0.28798 0.203518 1.167 150 115 89
-0.0523913 -0.0948388 0.958 184 142 110
-0.167529 -0.151387 1.013 181 147 116
-0.0688668 0.192884 0.722 60 32 15
0.213648 0.111539 0.489 232 255 255
-0.0709694 -0.268066 0.916 125 95 77
-0.79564 0.428679 1.539 134 112 84
0.0289845 0.022298 0.567 59 83 71
-0.274167 -0.334624 0.999 163 129 105
-0.711641 0.0179535 1.351 151 118 89
-0.383853 -0.202714 1.104 197 167 133
0.156407 -0.012935 0.502 35 37 45
-0.0583866 0.214921 0.564 186 159 133
-0.632629 -0.220525 1.201 227 193 162
0.196839 0.167938 0.503 54 83 95
-0.516963 -0.383332 1.112 143 119 96
-0.309344 0.157245 1.176 152 118 94
0.229926 -0.107947 0.458 37 36 36
-0.0166113 -0.27758 0.88 197 162 134
-0.146431 -0.298352 0.941 137 108 85
-0.0627678 -0.216978 0.927 136 102 90
0.117417 -0.140654 0.503 231 255 255
-0.710283 0.345341 1.442 139 112 75
0.126707 0.0281195 0.521 90 83 73
-0.299004 -0.062128 1.096 131 97 66
0.216417 0.0314399 0.481 48 79 106
0.0404771 0.0101758 0.56 90 106 127
0.214347 -0.144262 0.455 135 161 179
-0.354611 0.00592007 1.149 161 123 96
-0.401428 -0.289166 1.098 164 131 102
0.0175645 0.23626 0.62 38 25 12
0.0126766 0.11456 0.581 85 108 115
-0.0759698 -0.201879 0.941 128 96 72
0.1406 -0.131127 0.501 59 50 53
-0.395344 -0.2387 1.096 182 143 123
0.218772 0.122429 0.488 183 255 254
0.0591265 -0.0318975 0.547 67 81 103
-0.200369 0.168993 0.476 195 178 149
0.0202767 -0.0459942 0.556 38 27 18
0.220351 -0.0259327 0.471 32 28 29
-0.244979 0.157303 1.135 153 118 90
0.0543746 -0.0724448 0.544 33 28 26
-0.0399801 0.212823 0.605 172 143 118
0.0147276 0.213281 0.675 55 27 10
0.141416 -0.108298 0.501 44 35 30
0.152704 0.14315 0.52 77 31 57
-0.156278 0.159032 1.096 155 121 97
0.029591 -0.0153681 0.561 44 45 34
0.0395656 0.00653054 0.56 139 159 172
0.119815 0.0216235 0.528 203 166 152
0.220288 -0.0817742 0.466 25 22 17
0.0337897 0.222841 0.661 52 26 13
-0.371444 -0.0183873 1.149 163 125 98
-0.620585 -0.231639 1.208 201 175 133
0.226264 0.0583467 0.477 63 108 135
0.0745803 0.115059 0.556 255 235 218
0.199807 -0.125758 0.466 250 255 254
0.121342 0.219121 0.563 31 25 12
0.0842116 0.102702 0.548 158 96 95
-0.151495 0.17746 0.741 56 31 22
-0.511505 0.0529707 1.244 152 119 92
0.135285 0.127309 0.528 47 54 58
-0.439158 -0.214083 1.126 187 155 123
-0.175359 -0.191835 0.992 196 160 137
-0.118261 0.163396 0.528 112 98 81
0.11423 0.072592 0.53 115 105 115
0.313941 -0.261346 0.708 165 134 105
0.212616 0.156894 0.494 36 119 174
0.190585 -0.0619634 0.483 29 25 18
0.0571902 0.134832 0.563 103 156 176
0.224404 0.0576911 0.478 56 100 136
0.133686 -0.0498531 0.512 30 27 22
-0.263414 -0.0635033 1.089 131 97 66
0.171191 0.129283 0.512 52 201 245
0.052421 0.103313 0.561 195 187 175
0.149995 -0.112286 0.497 43 34 29
0.181547 0.0316769 0.497 77 73 78
-0.235693 -0.333384 0.981 200 169 142
0.020173 0.154681 0.579 86 71 61
0.227927 0.0186407 0.474 249 255 254
0.130098 -0.0730396 0.511 31 27 20
0.308458 -0.274395 0.706 166 138 119
-0.0568485 0.211597 0.596 200 173 147
0.228162 0.105018 0.481 46 81 96
0.206857 0.0843104 0.488 47 144 183
0.060555 -0.123714 0.536 37 33 24
-0.114151 0.0859636 1.053 158 120 93
0.0429046 0.15544 0.568 140 150 178
-0.0890875 -0.160248 0.967 145 111 89
-0.35851 -0.0821523 1.126 131 97 66
0.0441415 -0.147815 0.538 47 40 30
-0.0835575 0.209954 0.586 177 146 119
0.149864 -0.167377 0.481 62 53 46
-0.16639 0.126339 0.566 147 115 91
-0.438559 -0.167085 1.106 234 192 162
0.18265 -0.0418713 0.487 26 20 22
0.0690215 -0.115432 0.534 40 31 22
-0.276068 -0.279694 1.018 202 170 138
0.125939 -0.0846815 0.511 35 31 24
0.108049 -0.0592078 0.521 30 27 24
-0.0800725 0.198288 0.618 74 60 41
0.189786 -0.104322 0.479 35 30 26
-0.296127 -0.29644 1.036 160 126 104
0.103582 0.13333 0.542 83 57 55
0.158894 -0.0661858 0.497 27 27 21
-0.667387 0.235114 1.387 145 118 85
-0.461679 -0.313321 1.114 149 120 95
0.210735 -0.0340254 0.477 25 24 26
-0.349364 -0.0236417 1.132 158 123 95
0.322482 -0.266744 0.704 161 130 101
0.185498 -0.123809 0.476 77 104 115
-0.145457 0.180468 0.506 125 109 86
0.0664931 -0.168579 0.521 250 255 251
0.22843 -0.0906494 0.461 31 24 18
0.105541 0.158318 0.543 182 224 241
0.236973 0.163619 0.483 56 80 82
0.215901 -0.0783172 0.468 32 30 22
-0.286308 -0.244921 1.025 139 111 92
0.0654218 -0.138634 0.533 50 39 30
0.213047 0.170906 0.495 66 93 104
0.128851 -0.00657809 0.516 252 255 251
-0.034909 0.228072 0.586 132 113 88
-0.532636 -0.362505 1.126 145 123 95
0.214617 0.00245768 0.477 29 38 48
-0.172222 0.138558 0.567 131 103 75
0.137251 0.018613 0.516 92 85 79
0.218514 -0.0382773 0.472 23 19 24
0.2354 0.161261 0.483 60 82 85
0.222167 0.183481 0.492 21 35 41
-0.149782 0.149181 0.796 232 193 171
-0.410047 -0.329275 1.083 152 123 102
0.182257 0.135713 0.508 41 168 195
-0.132285 0.136742 1.075 156 121 95
0.197767 -0.144538 0.463 250 255 251
-0.759968 0.349655 1.47 136 114 90
0.153138 -0.0496963 0.502 25 26 20
0.189349 -0.132545 0.474 250 255 254
-0.613708 0.242558 1.378 148 115 86
-0.440561 -0.292013 1.102 150 119 92
-0.483545 -0.114506 1.176 128 101 68
0.224247 0.083101 0.481 206 254 248
0.205688 0.112335 0.489 220 255 250
-0.124684 -0.155953 1 165 130 102
0.00610847 0.15083 0.586 85 71 52
-0.344382 0.189429 1.198 150 115 87
-0.47644 0.234735 1.286 141 113 85
-0.45744 0.0296904 1.203 161 124 90
0.226251 0.158633 0.487 55 83 89
0.131116 -0.00907957 0.515 252 255 249
0.180105 0.0720246 0.502 250 255 254
0.0893785 -0.0612083 0.531 29 26 21
0.228408 0.0287287 0.475 250 255 251
0.173511 -0.163744 0.475 60 51 46
-0.531232 0.0434687 1.262 157 122 94
0.126432 -0.0532897 0.513 33 28 24
0.0188134 0.232155 0.628 31 24 14
-0.162331 -0.246492 0.972 169 137 115
-0.206232 0.0787726 1.096 157 122 96
0.199445 -0.0905005 0.476 30 26 19
0.0456783 0.130483 0.568 115 131 150
-0.142459 -0.240255 0.966 153 120 105
0.0902201 0.0481186 0.536 252 197 164
-0.181929 0.19495 0.516 112 97 71
-0.12784 0.135713 0.508 156 127 106
0.15497 -0.0617033 0.5 30 30 24
-0.817403 0.519019 1.547 159 135 112
-0.498563 -0.0701511 1.203 163 125 98
-0.413086 0.053271 1.205 155 123 91
0.0733678 -0.0937069 0.534 31 27 16
0.0866585 0.0626536 0.541 254 255 218
0.212056 0.113926 0.489 214 255 248
-0.153534 0.161582 0.757 150 115 87
0.0253819 0.0307102 0.569 48 54 52
-0.441774 0.0179444 1.203 159 125 94
0.197195 -0.125268 0.467 250 255 254
-0.118761 0.205206 0.6 166 132 110
-0.133685 0.194121 0.681 41 31 17
0.242533 0.14698 0.48 54 87 89
0.207317 -0.0887834 0.471 31 26 24
-0.301689 -0.362441 1.004 146 117 94
-0.157485 0.131796 1.092 152 117 91
0.153551 0.141458 0.52 79 55 83
0.183234 -0.00228274 0.495 152 182 205
-0.565921 -0.0520878 1.239 160 128 96
0.173988 0.100166 0.508 250 255 254
-0.15998 -0.117716 1.007 217 178 145
0.145349 0.192004 0.524 31 24 18
0.0400088 0.228259 0.64 36 23 12
-0.498095 -0.289675 1.135 145 116 95
0.159089 0.120217 0.516 19 236 255
0.0949355 0.0850692 0.538 254 254 248
0.230147 0.0645565 0.477 72 123 166
0.211862 0.157529 0.496 56 152 196
-0.261667 -0.104296 1.02 118 85 58
-0.681536 0.0771419 1.348 154 123 94
0.215582 -0.0276406 0.474 23 24 18
-0.73253 0.257262 1.435 146 115 86
-0.129038 0.140926 0.503 116 86 68
0.0596877 -0.0467721 0.544 30 28 18
-0.302762 0.0517942 1.13 153 118 92
0.12553 -0.125848 0.506 50 41 34
-0.0748926 0.169809 0.772 70 35 30
-0.239211 -0.0622788 1.068 130 96 65
-0.153387 0.160273 0.497 126 107 78
0.146202 0.126344 0.524 112 132 158
-0.519499 -0.203207 1.158 217 183 148
0.0406385 -0.149566 0.538 38 31 21
0.232933 -0.0568904 0.461 116 164 184
0.0602074 0.0944185 0.557 255 242 224
-0.574138 0.215114 1.333 143 109 85
0.0543154 0.217792 0.662 52 26 13
-0.660933 0.0827911 1.333 152 119 92
-0.276875 0.0761686 1.137 157 122 94
-0.0827452 0.181319 0.752 68 35 18
-0.449915 -0.20381 1.13 183 148 122
0.111859 -0.0598251 0.519 32 29 24
0.0758408 0.168129 0.552 78 67 60
-0.49985 -0.307378 1.139 149 120 95
-0.412897 -0.00737441 1.182 168 126 98
0.00312489 -0.031971 0.564 156 120 97
0.123321 0.10057 0.532 249 255 254
0.118143 0.161837 0.54 29 59 80
0.0991873 -0.0385226 0.528 29 30 26
-0.513408 -0.121884 1.192 128 100 72
-0.541182 -0.28751 1.156 179 152 128
-0.66327 -0.131614 1.267 133 103 71
-0.169808 0.146949 0.493 146 122 97
-0.231176 -0.109174 0.989 182 143 121
-0.209797 -0.320835 0.972 161 129 105
-0.235119 0.0758917 1.106 156 121 93
-0.194536 0.167865 0.475 191 169 141
-0.172914 0.149156 0.495 149 125 102
0.0762314 0.0283709 0.542 254 255 249
-0.208142 -0.352223 0.95 139 107 85
-0.189158 0.159561 0.485 184 157 135
0.243346 0.128984 0.477 119 156 175
-0.489113 -0.129264 1.171 133 99 66
-0.168841 -0.271132 0.964 134 105 82
-0.344182 -0.180899 1.081 203 169 136
-0.176545 0.138132 1.1 154 119 93
0.146473 0.00514763 0.513 250 255 251
0.0989875 0.109314 0.541 133 79 71
-0.186612 0.141101 0.495 192 163 140
-0.18334 0.203231 0.52 132 118 85
0.0243267 0.00383731 0.566 47 45 35
-0.0693974 -0.217329 0.935 135 103 83
-0.225687 -0.237576 1.015 134 107 85
0.189799 -0.0611774 0.483 27 23 14
-0.0619648 0.197282 0.618 197 165 143
0.0705726 0.0463507 0.546 255 229 187
0.221706 -0.0410869 0.469 28 22 24
-0.427227 -0.278952 1.1 150 118 94
0.0591257 -0.162309 0.531 203 230 243
-0.318034 0.208938 1.187 149 117 85
-0.0460986 0.222234 0.571 188 161 137
-0.298983 -0.0931142 1.083 128 94 61
-0.253097 0.132705 1.13 158 123 95
0.190157 0.0240542 0.49 214 251 255
-0.0803404 -0.317514 0.904 133 105 86
-0.322744 0.124711 1.176 154 116 89
0.140901 -0.0943706 0.505 40 33 25
0.143685 0.0549322 0.518 249 255 254
-0.0869238 0.198988 0.596 204 176 146
-0.556521 0.112215 1.297 149 118 89
0.189093 0.121857 0.502 234 255 255
0.107871 0.108506 0.537 101 91 91
0.228851 -0.0181516 0.468 35 54 72
0.16056 0.0549138 0.51 55 70 85
0.144302 -0.164372 0.486 40 48 63
0.0725434 -0.148504 0.528 70 66 71
-0.43791 -0.0419975 1.182 163 129 98
0.115961 0.100079 0.534 113 183 218
0.0534293 0.111728 0.562 233 212 197
0.154945 0.130206 0.519 74 205 212
-0.538469 -0.0635637 1.227 165 127 100
0.164388 0.0887668 0.509 250 255 254
