ply
format ascii 1.0
comment Created by Open3D
element vertex 1282
property double x
property double y
property double z
property uchar red
property uchar green
property uchar blue
end_header
0.0548197 -0.136246 0.399 255 255 255
0.188424 -0.0243113 0.455 255 255 255
-0.162934 -0.0994356 0.46 255 255 255
-0.110358 0.046945 0.553 255 255 255
0.186093 -0.118923 0.387 255 255 255
0.0136153 0.167155 0.543 0 0 0
0.0120106 -0.0318296 0.479 0 0 0
-0.0195408 -0.103234 0.435 255 255 255
0.351508 0.0810889 0.731 255 255 255
0.0502443 0.0184326 0.511 255 255 255
0.0171396 0.117323 0.605 255 255 255
-0.286164 0.0683121 0.566 255 255 255
-0.176352 -0.0306897 0.512 255 255 255
-0.0625501 0.109076 0.577 255 255 255
0.1093 -0.13961 0.385 0 0 0
0.199473 -0.107427 0.391 0 0 0
0.0810506 -0.107105 0.417 255 255 255
0.136972 0.211451 0.567 255 255 255
0.019341 -0.0738404 0.45 255 255 255
-0.242722 0.113197 0.547 255 255 255
0.00814355 0.185412 0.532 255 255 255
0.115239 -0.133691 0.386 255 255 255
-0.18799 -0.0424284 0.503 255 255 255
-0.0686343 -0.152224 0.407 255 255 255
0.160479 -0.119872 0.386 255 255 255
0.183549 0.0094834 0.479 0 0 0
0.123632 -0.0468493 0.451 255 255 255
-0.258553 -0.00953795 0.541 255 255 255
0.0852873 0.0985953 0.555 255 255 255
-0.0309999 0.0367107 0.535 255 255 255
0.262145 0.202276 0.6 255 255 255
-0.0651131 0.0548451 0.551 255 255 255
0.129195 0.167257 0.604 255 255 255
-0.168104 0.00891704 0.539 255 255 255
0.0336091 0.0854864 0.552 255 255 255
-0.125359 -0.0230098 0.508 255 255 255
0.092954 -0.122573 0.401 255 255 255
-0.272968 0.152226 0.528 255 255 255
0.0879508 -0.122878 0.402 255 255 255
-0.0368151 -0.113943 0.43 255 255 255
-0.273148 0.113044 0.542 255 255 255
0.293874 0.112146 0.688 255 255 255
0.194564 -0.0148148 0.459 255 255 255
-0.114289 0.182484 0.514 255 255 255
0.0793013 -0.117409 0.408 255 255 255
-0.179734 0.125199 0.545 0 0 0
0.137062 0.033074 0.506 255 255 255
-0.106334 0.193271 0.516 255 255 255
0.0644559 -0.078999 0.438 255 255 255
0.169131 -0.0592085 0.434 255 255 255
-0.251073 -0.0731692 0.495 255 255 255
-0.213254 -0.0589067 0.497 255 255 255
-0.00248797 -0.110543 0.425 255 255 255
-0.0387096 -0.0557066 0.47 255 255 255
-0.278329 -0.0233621 0.535 255 255 255
-0.0394747 -0.0564714 0.47 255 255 255
-0.264505 0.019461 0.565 255 255 255
-0.182532 -0.000725965 0.535 0 0 0
0.0604947 -0.0314973 0.474 255 255 255
0.205296 -0.0895238 0.405 255 255 255
0.102044 -0.135576 0.386 255 255 255
0.158022 0.171615 0.609 255 255 255
0.0311375 -0.0532547 0.462 0 0 0
0.168277 0.0168433 0.489 255 255 255
0.0437605 0.0226788 0.513 255 255 255
-0.0775926 -0.120521 0.431 255 255 255
-0.198829 -0.00505059 0.532 255 255 255
0.293513 0.169375 0.634 255 255 255
0.147907 -0.0210621 0.465 255 255 255
-0.0778774 0.151292 0.54 255 255 255
-0.0848086 0.15358 0.545 255 255 255
-0.169909 -0.0468691 0.498 255 255 255
-0.150884 0.185104 0.519 255 255 255
0.0665427 0.135307 0.589 255 255 255
0.245469 0.117716 0.675 255 255 255
0.132939 -0.122384 0.39 0 0 0
0.214439 -0.0557985 0.419 255 255 255
-0.28436 0.0355027 0.587 255 255 255
-0.219399 -0.00161151 0.54 255 255 255
-0.160711 0.174632 0.518 0 0 0
-0.055973 -0.115176 0.432 255 255 255
-0.0931087 0.196061 0.508 255 255 255
-0.205798 0.200307 0.519 255 255 255
0.0338035 -0.120571 0.412 255 255 255
-0.0641217 0.115287 0.566 255 255 255
0.186905 -0.0595007 0.431 255 255 255
-0.106295 0.0339114 0.546 255 255 255
-0.153849 -0.0248573 0.512 255 255 255
0.18319 0.102961 0.54 255 255 255
-0.0211256 0.0610108 0.55 255 255 255
-0.299659 0.0507722 0.576 255 255 255
0.118773 0.0114112 0.495 255 255 255
-0.0526516 0.0531481 0.552 255 255 255
-0.194717 0.174796 0.521 255 255 255
0.369026 0.0807561 0.728 255 255 255
0.0625428 -0.0967111 0.425 255 255 255
-0.120382 0.0044221 0.526 255 255 255
-0.165877 -0.115161 0.44 255 255 255
-0.144595 -0.0383357 0.503 255 255 255
0.156271 -0.110827 0.401 255 255 255
0.094173 -0.102601 0.418 255 255 255
0.00672328 -0.14913 0.397 255 255 255
0.162236 0.0715942 0.529 255 255 255
-0.150551 -0.133059 0.433 255 255 255
-0.0787523 -0.0697903 0.467 255 255 255
-0.13668 -0.0398138 0.501 255 255 255
0.351251 0.0843102 0.728 255 255 255
-0.0620557 -0.155319 0.403 255 255 255
0.0503282 -0.0893714 0.433 255 255 255
-0.097764 0.129456 0.548 255 255 255
0.172376 -0.0865875 0.413 255 255 255
-0.0224122 -0.0811634 0.45 255 255 255
-0.0216454 -0.0596542 0.465 255 255 255
-0.0162047 0.000137356 0.508 255 255 255
-0.229366 0.116757 0.547 255 255 255
0.122538 0.155291 0.615 255 255 255
-0.171668 -0.109211 0.442 255 255 255
-0.120926 0.0184621 0.536 255 255 255
-0.219805 0.000146279 0.541 255 255 255
-0.25045 -0.0436093 0.517 255 255 255
-0.109796 -0.146151 0.42 255 255 255
-0.286927 0.0886605 0.555 255 255 255
0.33065 0.0865605 0.727 255 255 255
-0.0861963 -0.145762 0.415 255 255 255
-0.0725417 0.118258 0.567 255 255 255
-0.115902 0.00961246 0.529 255 255 255
0.13675 0.0137719 0.493 255 255 255
0.174194 -0.125796 0.383 0 0 0
-0.0777405 -0.0801466 0.461 255 255 255
-0.250317 0.14445 0.531 255 255 255
0.117014 0.00652491 0.491 255 255 255
0.16929 -0.133117 0.379 255 255 255
-0.234127 -0.034554 0.52 255 255 255
-0.0120399 0.157725 0.544 255 255 255
-0.209319 0.0391124 0.57 255 255 255
0.292214 0.142809 0.659 255 255 255
-0.0610992 -0.0919431 0.449 255 255 255
-0.159016 -0.0398933 0.502 255 255 255
0.113111 0.0438889 0.517 255 255 255
0.0901711 0.0275798 0.511 255 255 255
-0.109732 -0.0820012 0.463 255 255 255
0.177296 0.0563518 0.508 255 255 255
0.193223 0.0522097 0.5 255 255 255
-0.280999 0.00555903 0.554 255 255 255
-0.14777 -0.140283 0.425 255 255 255
0.0668003 0.00175547 0.498 255 255 255
-0.163427 -0.0399728 0.503 255 255 255
0.176693 -0.1325 0.379 0 0 0
-0.0559087 -0.15185 0.406 255 255 255
-0.250578 0.123821 0.539 255 255 255
-0.0400656 -0.136994 0.413 255 255 255
-0.0384135 0.137184 0.554 255 255 255
-0.205647 0.0356923 0.56 255 255 255
0.16538 -0.0957326 0.409 255 255 255
-0.21943 -0.0981891 0.472 255 255 255
0.164562 0.198443 0.583 255 255 255
0.0824636 0.0528544 0.531 255 255 255
-0.217641 -0.00161151 0.54 255 255 255
0.0255681 -0.12768 0.409 255 255 255
-0.137524 0.1024 0.561 255 255 255
0.0473479 0.0402963 0.525 255 255 255
-0.0556324 0.116715 0.564 255 255 255
0.328831 0.0907905 0.723 255 255 255
-0.268641 -0.0453796 0.518 255 255 255
-0.0373041 0.0404186 0.538 0 0 0
-0.21759 0.109541 0.551 255 255 255
0.0827013 0.175266 0.588 255 255 255
0.131657 -0.145452 0.379 255 255 255
0.05037 -0.127091 0.405 0 0 0
0.0223647 -0.106833 0.424 255 255 255
0.126021 -0.0378046 0.457 255 255 255
0.297578 0.147098 0.659 255 255 255
0.0163077 -0.0174456 0.491 255 255 255
0.021953 -0.151079 0.392 255 255 255
0.184367 0.221991 0.568 255 255 255
-0.0110439 -0.0120456 0.499 255 255 255
-0.106255 -0.157631 0.409 255 255 255
0.284787 0.112772 0.685 255 255 255
0.154908 0.17892 0.597 255 255 255
0.0394949 0.159345 0.559 255 255 255
-0.103556 0.112325 0.565 255 255 255
0.0268514 0.089619 0.561 255 255 255
-0.178396 0.0740769 0.575 255 255 255
-0.0731485 -0.00403539 0.513 255 255 255
-0.247017 0.1596 0.524 255 255 255
0.0461784 -0.0509992 0.462 255 255 255
0.0854272 0.178789 0.587 255 255 255
0.246274 0.182017 0.614 255 255 255
0.200232 -0.0775521 0.415 255 255 255
-0.00594769 -0.0327452 0.481 255 255 255
0.0568465 -0.0948289 0.429 0 0 0
-0.0666964 0.160673 0.542 255 255 255
0.0428046 -0.14231 0.396 0 0 0
0.334113 0.0574126 0.748 255 255 255
-0.15368 -0.0791539 0.473 255 255 255
0.0586195 -0.014834 0.484 255 255 255
0.00768859 -0.0678475 0.454 0 0 0
0.347364 0.107341 0.708 255 255 255
0.0237882 -0.0111886 0.497 255 255 255
0.177169 -0.0998218 0.404 255 255 255
-0.0195811 0.0744772 0.557 255 255 255
-0.226554 0.146514 0.526 0 0 0
0.112447 0.00413626 0.492 255 255 255
-0.00789209 0.136907 0.564 255 255 255
-0.228252 0.161306 0.524 255 255 255
-0.233815 0.182972 0.525 255 255 255
0.0500849 0.0550966 0.536 255 255 255
-0.0795162 -0.0863177 0.454 255 255 255
0.123669 -0.14188 0.381 255 255 255
0.0199627 0.193709 0.524 255 255 255
-0.00967651 0.142569 0.561 255 255 255
-0.0601728 -0.131052 0.422 255 255 255
0.114601 -0.112208 0.406 255 255 255
-0.0380253 -0.0550586 0.471 255 255 255
-0.147094 0.0278439 0.549 0 0 0
-0.128513 -0.0157535 0.514 255 255 255
0.198958 -0.0740313 0.418 255 255 255
0.289374 0.148337 0.655 255 255 255
0.0469305 -0.0509992 0.462 255 255 255
0.0392788 0.0289118 0.52 255 255 255
0.145536 -0.109795 0.402 255 255 255
0.176189 -0.138664 0.374 255 255 255
-0.0381845 0.192737 0.526 255 255 255
0.0983895 0.163765 0.602 255 255 255
-0.105946 -0.142388 0.421 255 255 255
-0.0173245 -0.0512263 0.471 255 255 255
0.126168 -0.0315198 0.463 255 255 255
-0.226012 0.135224 0.539 255 255 255
0.0193265 -0.116885 0.418 255 255 255
0.0853275 -0.102601 0.418 255 255 255
0.108125 -0.076688 0.433 255 255 255
-0.23918 0.120322 0.543 255 255 255
0.0203412 -0.0622099 0.456 0 0 0
-0.0526906 0.125446 0.562 255 255 255
-0.119309 -0.0107348 0.514 255 255 255
0.141807 0.185778 0.591 255 255 255
0.205626 -0.0333818 0.438 255 255 255
0.162444 0.172039 0.607 255 255 255
0.177546 0.156779 0.629 255 255 255
-0.195086 -0.0734206 0.486 0 0 0
-0.0867348 -0.155254 0.408 255 255 255
-0.190884 0.142659 0.534 255 255 255
-0.215601 0.0795051 0.567 255 255 255
0.179594 0.156779 0.629 255 255 255
0.0386423 -0.0647493 0.453 255 255 255
0.134552 0.160295 0.615 255 255 255
0.0342232 -0.125684 0.409 255 255 255
0.189203 -0.0804468 0.416 255 255 255
-0.0866392 0.133751 0.551 255 255 255
-0.124329 0.18834 0.514 0 0 0
0.156022 -0.0872165 0.416 255 255 255
-0.264525 0.0205247 0.569 255 255 255
-0.141594 -0.156643 0.417 255 255 255
-0.0791726 0.178151 0.531 255 255 255
-0.249125 -0.0452044 0.516 255 255 255
0.0773377 -0.145875 0.385 0 0 0
-0.0813712 -0.0147139 0.507 255 255 255
0.0189584 -0.105702 0.425 255 255 255
-0.268632 -0.00253177 0.549 255 255 255
0.178925 -0.110253 0.392 255 255 255
-0.12598 0.089984 0.575 0 0 0
0.0907251 0.0685619 0.539 255 255 255
-0.13165 0.15539 0.53 255 255 255
0.114088 -0.0483171 0.451 255 255 255
-0.223548 0.0631762 0.578 255 255 255
-0.00230753 0.156527 0.546 255 255 255
0.367315 0.0904138 0.72 255 255 255
0.00034633 0.189673 0.527 0 0 0
0.213112 0.20122 0.594 255 255 255
-0.0386492 -0.0964817 0.443 255 255 255
-0.106552 -0.146135 0.418 255 255 255
0.0796098 -0.074893 0.439 255 255 255
0.0172773 0.160375 0.547 255 255 255
0.131551 0.106147 0.552 255 255 255
-0.26056 -0.0621969 0.504 255 255 255
0.156228 0.0754631 0.532 255 255 255
0.146933 0.077775 0.536 255 255 255
0.0309936 0.127232 0.57 255 255 255
-0.226559 0.0144955 0.551 255 255 255
-0.00400825 -0.0929642 0.44 255 255 255
-0.0768231 -0.0807213 0.46 255 255 255
0.134943 -0.0425398 0.452 255 255 255
0.0708558 0.135261 0.593 255 255 255
0.121022 -0.118005 0.401 255 255 255
-0.18129 -0.114339 0.448 255 255 255
0.162473 -0.074404 0.424 255 255 255
0.0146471 -0.0867166 0.441 255 255 255
-0.0646797 -0.155319 0.403 255 255 255
-0.152453 0.0936748 0.569 255 255 255
-0.183135 -0.0347195 0.51 255 255 255
-0.0224578 0.042248 0.539 255 255 255
-0.046781 0.118467 0.568 255 255 255
0.0899483 0.166569 0.598 255 255 255
0.0849975 -0.0709283 0.441 255 255 255
-0.0523648 -0.020936 0.498 255 255 255
0.0547309 0.141998 0.566 255 255 255
0.0588618 -0.0125227 0.486 255 255 255
0.313179 0.0696664 0.736 255 255 255
0.203743 -0.0447717 0.431 255 255 255
-0.292874 0.0110079 0.556 255 255 255
-0.0656145 -0.0312185 0.494 255 255 255
0.17495 -0.109445 0.396 255 255 255
-0.157775 -0.146853 0.424 255 255 255
0.100411 -0.00463287 0.488 255 255 255
-0.104036 -0.115684 0.442 255 255 255
-0.138029 0.156523 0.528 255 255 255
0.148455 -0.00912808 0.474 255 255 255
0.207481 -0.0782358 0.408 255 255 255
-0.0850155 -0.0722245 0.468 255 255 255
-0.04887 0.0361751 0.54 255 255 255
-0.249207 -0.0497557 0.511 255 255 255
-0.25685 -0.0232311 0.532 255 255 255
-0.0205716 -0.112453 0.427 255 255 255
-0.104656 0.0596235 0.571 255 255 255
0.176244 -0.0776177 0.419 255 255 255
-0.107127 -0.120065 0.437 255 255 255
-0.129013 0.190752 0.516 255 255 255
0.0565408 -0.089868 0.432 255 255 255
-0.0608598 -0.131052 0.422 255 255 255
-0.232489 -0.0503893 0.509 255 255 255
-0.146022 0.131408 0.545 0 0 0
0.022289 -0.144972 0.398 255 255 255
0.0325131 0.047939 0.534 255 255 255
-0.181397 -0.0903163 0.471 255 255 255
-0.0325788 -0.0247372 0.493 255 255 255
0.0525743 -0.0772117 0.44 0 0 0
0.0483818 0.115467 0.627 255 255 255
-0.172003 0.0134014 0.543 255 255 255
0.163501 0.017639 0.489 255 255 255
0.114454 -0.0138433 0.477 255 255 255
0.0197897 0.0888886 0.568 255 255 255
0.157148 -0.0113456 0.47 255 255 255
0.181081 0.181772 0.6 255 255 255
-0.111011 -0.111873 0.444 255 255 255
0.0959533 0.173861 0.593 255 255 255
-0.248402 -0.0900725 0.482 255 255 255
-0.0260733 -0.132255 0.415 255 255 255
0.00621873 0.0152541 0.516 255 255 255
-0.0817001 0.135381 0.554 255 255 255
0.0558913 0.13278 0.578 255 255 255
-0.160118 0.0639584 0.594 255 255 255
-0.246486 0.193358 0.514 255 255 255
0.114768 0.199809 0.576 255 255 255
-0.171053 0.00981234 0.54 255 255 255
0.04763 0.00502721 0.501 255 255 255
-0.0798502 0.123177 0.56 255 255 255
-0.168486 -0.0422597 0.501 255 255 255
0.172835 0.0697973 0.522 255 255 255
0.0458131 -0.0681331 0.451 255 255 255
0.0301711 -0.150694 0.391 255 255 255
-0.0489043 -0.0766438 0.458 255 255 255
0.00647331 0.112341 0.621 255 255 255
-0.166233 0.144127 0.533 255 255 255
0.0135818 -0.100648 0.43 255 255 255
0.107819 0.0495995 0.524 255 255 255
0.406919 -0.0219534 0.852 255 255 255
-0.229702 -0.0902914 0.479 255 255 255
0.191932 0.00470611 0.469 255 255 255
0.056979 -0.0943502 0.43 255 255 255
0.118667 -0.127134 0.389 255 255 255
0.0470979 -0.0248142 0.479 0 0 0
0.311687 0.0616987 0.741 255 255 255
0.111469 -0.135576 0.386 255 255 255
0.0832202 -0.0231095 0.476 255 255 255
-0.0737167 0.131109 0.555 255 255 255
0.17802 0.1053 0.543 255 255 255
0.201748 -0.102225 0.398 255 255 255
-0.0467466 0.149419 0.546 255 255 255
0.207804 -0.0624675 0.418 255 255 255
0.101389 -0.0417956 0.46 255 255 255
0.0154993 -0.106394 0.425 255 255 255
-0.122151 -0.0441702 0.495 255 255 255
-0.0716507 0.0604437 0.553 255 255 255
0.073301 -0.0223819 0.477 255 255 255
0.106218 0.139509 0.625 255 255 255
0.112344 0.196741 0.578 255 255 255
0.203082 -0.0160955 0.453 255 255 255
-0.265293 0.0871671 0.557 255 255 255
-0.155051 -0.0174942 0.516 255 255 255
-0.25518 0.179555 0.525 255 255 255
-0.0705891 -0.0447639 0.484 255 255 255
0.184447 -0.0926151 0.407 255 255 255
-0.127102 0.0212362 0.54 0 0 0
0.132204 0.0574925 0.526 255 255 255
-0.0600359 -0.0874085 0.452 255 255 255
-0.262832 0.195173 0.51 255 255 255
0.162525 -0.0337878 0.453 255 255 255
0.102494 -0.128452 0.395 255 255 255
-0.233059 -0.0813294 0.486 0 0 0
0.0491444 -0.0883684 0.435 255 255 255
-0.129748 -0.0222268 0.509 255 255 255
0.161619 -0.0912921 0.413 255 255 255
0.154785 0.0795195 0.536 255 255 255
0.0524259 0.133031 0.571 255 255 255
-0.222088 -0.11815 0.46 0 0 0
0.159188 -0.0338624 0.454 255 255 255
0.164744 -0.0400655 0.449 255 255 255
-0.214365 -0.106799 0.466 255 255 255
0.00207769 0.185063 0.531 255 255 255
0.134924 -0.00842725 0.478 255 255 255
-0.158891 -0.142333 0.427 255 255 255
0.186935 0.0584844 0.505 255 255 255
-0.219384 0.0507865 0.587 255 255 255
0.0141819 -0.0773297 0.449 255 255 255
-0.0766681 -0.150376 0.411 255 255 255
0.127852 0.0376321 0.512 255 255 255
0.190995 -0.131536 0.378 255 255 255
0.144287 -0.105739 0.404 255 255 255
-0.0553713 -0.0800194 0.456 255 255 255
-0.103322 0.00184007 0.522 255 255 255
-0.230889 0.0492924 0.592 255 255 255
0.075172 -0.0934725 0.426 255 255 255
-0.249608 0.188597 0.517 255 255 255
-0.0884378 -0.0810723 0.462 255 255 255
0.08484 0.211726 0.558 255 255 255
-0.00232866 0.149891 0.551 255 255 255
0.161316 -0.122694 0.385 255 255 255
0.412306 -0.0475838 0.816 255 255 255
-0.241046 0.167275 0.524 255 255 255
0.275543 0.122291 0.676 255 255 255
0.0176161 -0.104564 0.426 255 255 255
-0.274845 0.138573 0.535 255 255 255
0.20403 -0.0209742 0.447 255 255 255
-0.038562 -0.0969832 0.442 255 255 255
-0.183372 0.079414 0.573 255 255 255
-0.186594 0.178529 0.522 255 255 255
0.326026 0.0526139 0.749 255 255 255
0.0210338 -0.104319 0.425 255 255 255
-0.0684514 0.0474988 0.549 255 255 255
-0.220776 0.111133 0.55 255 255 255
0.194925 -0.0958771 0.404 255 255 255
0.396394 0.0191766 0.777 255 255 255
-0.264137 -0.0637106 0.503 255 255 255
0.00207769 0.183335 0.531 255 255 255
-0.0190889 0.0505143 0.543 255 255 255
-0.0416825 -0.103709 0.437 255 255 255
0.125619 0.168383 0.601 255 255 255
0.178469 -0.110608 0.391 255 255 255
-0.0726741 -0.0534313 0.477 255 255 255
0.0873773 0.0695679 0.54 0 0 0
-0.0430333 0.153298 0.544 0 0 0
0.291903 0.112937 0.686 255 255 255
0.106867 0.150776 0.617 255 255 255
0.216213 0.21781 0.579 255 255 255
0.250407 0.165755 0.632 255 255 255
0.122833 -0.107849 0.407 255 255 255
-0.158353 0.112842 0.554 255 255 255
0.135707 0.0537603 0.523 255 255 255
0.108829 -0.125226 0.397 255 255 255
-0.198186 -0.0990914 0.469 255 255 255
-0.0720204 0.0103545 0.523 255 255 255
-0.0166663 -0.150257 0.4 255 255 255
-0.0357648 -0.0957608 0.443 255 255 255
0.16489 -0.138182 0.376 255 255 255
0.293885 0.179462 0.626 255 255 255
0.105026 0.198182 0.574 255 255 255
0.113577 -0.0846586 0.427 255 255 255
0.185108 0.0141603 0.479 255 255 255
-0.269689 0.0910407 0.553 255 255 255
-0.0468356 0.0172945 0.527 255 255 255
-0.00765423 -0.0237892 0.49 255 255 255
-0.00313777 0.0420128 0.536 255 255 255
-0.0120463 -0.00151303 0.507 255 255 255
0.176923 -0.111941 0.389 0 0 0
0.298508 0.224641 0.587 255 255 255
-0.218034 0.19212 0.522 255 255 255
-0.0591292 -0.144673 0.41 255 255 255
-0.0996137 -0.101945 0.448 255 255 255
0.341301 0.0889267 0.727 255 255 255
0.111047 -0.123599 0.398 255 255 255
-0.0224213 0.131379 0.56 255 255 255
0.033063 -0.0263732 0.479 0 0 0
-0.104046 -0.0123836 0.513 255 255 255
0.0357879 0.187656 0.531 255 255 255
0.18939 0.0180201 0.478 255 255 255
-0.016382 -0.0575075 0.466 255 255 255
0.173081 -0.0448783 0.446 255 255 255
-0.10729 -0.0865214 0.459 255 255 255
-0.0538432 0.0316047 0.537 255 255 255
-0.0688314 0.0316636 0.538 255 255 255
0.00688085 -0.00477527 0.503 255 255 255
-0.025782 -0.150908 0.4 255 255 255
0.0583463 0.0385141 0.524 255 255 255
-0.107862 -0.117309 0.44 255 255 255
-0.0566123 -0.0105886 0.507 255 255 255
-0.00698638 0.135311 0.565 255 255 255
0.191461 -0.0681941 0.424 255 255 255
-0.223841 -0.00510755 0.538 255 255 255
-0.213436 -0.0851892 0.481 255 255 255
-0.015152 -0.0408396 0.475 255 255 255
0.156428 -0.055731 0.44 255 255 255
0.212859 0.197048 0.596 255 255 255
-0.0183746 -0.0938932 0.441 255 255 255
-0.223552 0.165469 0.521 255 255 255
0.138801 -0.0354178 0.455 255 255 255
-0.0797844 0.0646278 0.566 255 255 255
-0.0872348 -0.136582 0.42 255 255 255
-0.165883 -0.0159681 0.521 255 255 255
0.00626073 -0.132339 0.409 255 255 255
0.161986 -0.110923 0.399 255 255 255
0.150857 -0.0437188 0.449 255 255 255
-0.160297 -0.157733 0.411 255 255 255
-0.0461087 -0.14825 0.407 255 255 255
-0.245719 0.0897787 0.562 255 255 255
0.0527597 -0.0431916 0.467 255 255 255
-0.16947 0.16399 0.519 255 255 255
0.0875778 -0.100119 0.419 255 255 255
0.262263 0.149453 0.646 255 255 255
-0.15991 0.137599 0.538 0 0 0
-0.0433099 0.130235 0.559 255 255 255
-0.0457685 -0.0663216 0.464 0 0 0
-0.2596 -0.0664521 0.499 255 255 255
-0.0346935 0.0163746 0.525 255 255 255
0.00404297 0.137825 0.564 0 0 0
-0.113673 -0.00907957 0.515 255 255 255
0.111123 -0.0395499 0.46 255 255 255
-0.201248 -0.0300897 0.516 255 255 255
-0.10365 0.176285 0.528 255 255 255
-0.14078 -0.138113 0.429 255 255 255
0.125931 0.103265 0.551 255 255 255
0.170585 0.159088 0.626 255 255 255
-0.0583439 0.0018154 0.515 255 255 255
-0.0329365 -0.000693398 0.511 255 255 255
-0.0567811 0.156565 0.54 255 255 255
-0.199251 0.126086 0.545 0 0 0
-0.0327759 0.100551 0.582 255 255 255
0.258654 0.121012 0.675 255 255 255
0.0524462 -0.0247624 0.478 255 255 255
-0.0207799 0.0459263 0.541 0 0 0
-0.0904304 -0.122909 0.432 255 255 255
-0.0425586 0.169118 0.538 255 255 255
-0.00626397 -0.146065 0.401 255 255 255
0.051404 -0.0598522 0.455 255 255 255
-0.0369023 0.0489265 0.545 255 255 255
0.0204579 0.0490822 0.537 255 255 255
-0.135473 -0.0582737 0.485 255 255 255
-0.114625 -0.111873 0.444 255 255 255
0.0807257 -0.0261529 0.475 255 255 255
-0.160178 -0.0504099 0.493 255 255 255
-0.294205 0.0751458 0.562 255 255 255
-0.132726 -0.106557 0.449 255 255 255
0.137154 -0.0745833 0.429 255 255 255
-0.223269 0.121205 0.543 255 255 255
0.152648 0.197762 0.581 255 255 255
-0.0226568 -0.113843 0.427 255 255 255
0.0976339 -0.0507429 0.453 255 255 255
0.0731372 0.0373739 0.52 255 255 255
0.06817 -0.122477 0.405 0 0 0
-0.0964956 0.161511 0.536 255 255 255
-0.145754 0.0213935 0.544 255 255 255
-0.0630894 0.141306 0.549 0 0 0
-0.155239 -0.0391542 0.503 255 255 255
0.0627601 -0.143622 0.384 255 255 255
0.352299 0.120073 0.695 255 255 255
0.0228792 -0.146546 0.397 255 255 255
-0.109295 -0.117309 0.44 255 255 255
0.0612328 0.0662975 0.542 0 0 0
0.0751678 -0.0185783 0.479 255 255 255
0.00137099 0.09292 0.6 255 255 255
-0.0853788 -0.0679441 0.47 255 255 255
0.0693697 0.12791 0.623 255 255 255
-0.170796 -0.0399728 0.503 255 255 255
0.0472034 0.0646525 0.543 255 255 255
-0.0826019 0.127267 0.554 255 255 255
0.34039 0.0409337 0.782 255 255 255
0.100681 -0.126837 0.398 255 255 255
0.10189 -0.0154926 0.48 255 255 255
-0.221466 0.0443252 0.59 255 255 255
-0.0284385 -0.124963 0.42 255 255 255
-0.0983847 0.110877 0.567 255 255 255
-0.272703 0.095022 0.55 255 255 255
-0.11647 0.172768 0.52 255 255 255
0.171468 -0.113789 0.391 0 0 0
0.0511162 -0.120279 0.411 255 255 255
-0.234323 0.0275396 0.561 255 255 255
-0.101674 -0.129735 0.429 255 255 255
-0.0517376 0.200828 0.516 255 255 255
-0.0491845 -0.119682 0.428 255 255 255
0.170456 -0.0926306 0.41 255 255 255
0.358218 0.0779444 0.735 255 255 255
-0.119777 -0.156106 0.412 255 255 255
-0.254943 -0.0838743 0.487 255 255 255
0.132832 -0.132435 0.386 255 255 255
0.256517 0.205777 0.596 255 255 255
-0.183585 0.142392 0.533 0 0 0
-0.0168107 0.1871 0.527 255 255 255
0.0125785 -0.0829714 0.444 255 255 255
0.258919 0.124477 0.67 255 255 255
0.28035 0.218696 0.589 255 255 255
-0.0297252 0.0965568 0.617 255 255 255
0.212277 0.206236 0.589 255 255 255
-0.130408 0.163322 0.525 255 255 255
0.0637531 -0.139027 0.394 0 0 0
0.071945 0.154402 0.571 255 255 255
-0.210951 0.06025 0.577 255 255 255
0.0100797 0.166271 0.543 0 0 0
0.265612 0.223493 0.584 255 255 255
-0.264718 -0.0659032 0.501 255 255 255
-0.15338 -0.158211 0.414 255 255 255
-0.163937 0.00101338 0.534 255 255 255
-0.205449 0.0813505 0.567 255 255 255
0.166713 -0.127666 0.383 0 0 0
-0.116492 -0.136774 0.427 255 255 255
0.0354496 0.116572 0.633 255 255 255
-0.287311 0.00916519 0.554 255 255 255
0.144187 -0.0811121 0.423 255 255 255
0.145095 -0.0986355 0.41 255 255 255
-0.250039 0.196387 0.511 255 255 255
0.0366803 -0.0964494 0.43 255 255 255
0.151897 -0.000651333 0.48 255 255 255
-0.251043 0.119657 0.54 255 255 255
0.0853898 -0.00227352 0.493 255 255 255
-0.0496795 0.0692866 0.559 255 255 255
0.160245 0.0398965 0.509 255 255 255
-0.274167 0.152796 0.527 255 255 255
-0.103394 -0.0778152 0.465 255 255 255
0.177299 0.0376389 0.501 255 255 255
0.0414806 -0.116047 0.415 255 255 255
-0.0142642 0.188314 0.528 255 255 255
0.0989809 -0.0874381 0.427 255 255 255
-0.081206 0.0209609 0.533 255 255 255
0.182736 -0.141998 0.37 255 255 255
0.033082 0.00668437 0.503 255 255 255
0.192474 -0.0989189 0.403 255 255 255
-0.263635 -0.0173323 0.537 255 255 255
0.0046356 0.0318738 0.527 255 255 255
0.0754718 -0.0254334 0.476 255 255 255
0.0244982 -0.0119491 0.495 255 255 255
0.0219628 0.0134432 0.511 255 255 255
-0.0828865 -0.116147 0.433 255 255 255
0.0686422 -0.0254868 0.477 0 0 0
0.368289 0.0211513 0.804 255 255 255
0.123326 0.125036 0.609 255 255 255
0.143751 0.113744 0.554 255 255 255
0.122488 0.0155012 0.497 255 255 255
-0.161694 0.12674 0.544 255 255 255
0.0328197 0.0351702 0.525 255 255 255
0.126754 0.0849762 0.543 255 255 255
-0.257147 0.0902091 0.559 255 255 255
-0.0816922 -0.012287 0.509 255 255 255
0.20039 0.0307209 0.482 255 255 255
0.0151346 -0.124151 0.415 255 255 255
0.0327531 -0.00472781 0.498 255 255 255
0.00478513 0.0568042 0.544 255 255 255
0.0526035 0.178971 0.544 255 255 255
-0.12981 -0.13486 0.432 255 255 255
0.0249036 -0.0572655 0.458 255 255 255
0.056091 -0.0651974 0.451 255 255 255
-0.0566209 -0.108687 0.437 255 255 255
-0.196404 -0.11638 0.456 255 255 255
-0.14594 -0.0526025 0.491 255 255 255
-0.039945 -0.0353853 0.485 0 0 0
-0.0746368 0.158909 0.542 255 255 255
-0.108362 0.0423687 0.552 255 255 255
-0.278985 0.0829317 0.559 255 255 255
-0.245191 0.0801441 0.565 255 255 255
0.0683087 0.180044 0.564 255 255 255
0.0722907 0.0356815 0.52 255 255 255
-0.0345479 0.0376516 0.536 255 255 255
0.150756 0.0654442 0.528 255 255 255
-0.00211735 -0.00638687 0.501 255 255 255
0.36353 0.0604872 0.756 255 255 255
0.00380875 -0.10135 0.433 255 255 255
0.0604236 0.161164 0.559 255 255 255
-0.0453248 -0.00401179 0.51 255 255 255
0.142481 -0.0860047 0.42 255 255 255
0.12727 -0.0742296 0.431 255 255 255
0.17832 0.015949 0.486 255 255 255
-0.245527 0.195105 0.512 255 255 255
-0.288522 0.0482932 0.58 255 255 255
-0.0557039 0.0856903 0.584 255 255 255
0.170706 -0.0937358 0.409 255 255 255
-0.0467467 0.0164057 0.526 255 255 255
0.0290357 0.130483 0.568 255 255 255
-0.05264 0.19237 0.525 255 255 255
0.130355 0.0699248 0.536 255 255 255
0.0124118 -0.0143657 0.495 255 255 255
0.147249 0.217692 0.557 255 255 255
-0.0787651 -0.153262 0.408 255 255 255
-0.0870603 -0.064029 0.475 255 255 255
-0.193917 0.0243145 0.55 255 255 255
-0.0822276 0.0218692 0.534 255 255 255
-0.150251 0.0550895 0.582 255 255 255
-0.213785 0.168335 0.522 255 255 255
-0.110757 0.172252 0.521 0 0 0
0.0460473 -0.101098 0.426 255 255 255
-0.0293955 0.0695684 0.554 255 255 255
-0.115254 -0.140283 0.425 255 255 255
0.0223497 0.201539 0.52 255 255 255
-0.074901 -0.0750577 0.462 255 255 255
-0.0492817 -0.00812947 0.508 255 255 255
-0.181079 -0.0439779 0.502 0 0 0
-0.159516 0.153086 0.528 255 255 255
-0.0424982 0.00265862 0.516 255 255 255
-0.0551023 0.11477 0.568 0 0 0
0.0737204 0.070838 0.543 255 255 255
0.243591 0.162927 0.633 255 255 255
-0.0116636 0.19053 0.527 255 255 255
-0.252127 0.133719 0.533 0 0 0
0.255589 0.128261 0.667 255 255 255
-0.215505 0.176999 0.52 255 255 255
0.308249 0.0774141 0.73 255 255 255
-0.146377 -0.0133472 0.518 255 255 255
0.351028 0.0833539 0.73 255 255 255
0.209014 -0.0687726 0.415 255 255 255
-0.187887 0.0363421 0.556 255 255 255
-0.140237 -0.0343791 0.505 255 255 255
0.134323 0.0081064 0.49 255 255 255
0.224739 0.136627 0.65 255 255 255
-0.170691 0.0408661 0.556 255 255 255
-0.0724876 -0.0763956 0.461 0 0 0
0.12272 -0.0235831 0.47 255 255 255
0.021468 -0.131692 0.407 255 255 255
-0.00271042 -0.0548769 0.463 255 255 255
0.0243163 -0.0538896 0.461 0 0 0
-0.270548 0.0391227 0.584 255 255 255
-0.303936 0.0508603 0.577 0 0 0
0.118737 -0.0637518 0.441 255 255 255
0.0771116 0.0436304 0.524 255 255 255
0.182909 0.213672 0.578 255 255 255
0.200177 -0.0382835 0.437 255 255 255
-0.0745317 -0.0577234 0.474 255 255 255
-0.157544 -0.105563 0.451 255 255 255
-0.00122906 -0.0437465 0.473 0 0 0
-0.260367 0.0738385 0.566 255 255 255
-0.181088 0.0972679 0.563 255 255 255
-0.00497084 -0.145775 0.402 255 255 255
-0.120067 -0.153796 0.413 255 255 255
-0.138729 0.142659 0.534 255 255 255
-0.101491 -0.00406686 0.517 255 255 255
0.0196504 0.138742 0.564 0 0 0
-0.26902 0.154511 0.527 255 255 255
-0.288073 0.0464855 0.581 0 0 0
-0.170549 0.12674 0.544 255 255 255
0.0732547 -0.102846 0.419 255 255 255
0.0527969 0.169855 0.546 255 255 255
-0.248258 0.0428506 0.583 255 255 255
0.280476 0.127035 0.672 255 255 255
0.131815 0.0356847 0.508 255 255 255
-0.172522 0.103854 0.559 255 255 255
-0.199558 0.0848913 0.566 255 255 255
0.166726 -0.13757 0.376 0 0 0
-0.0561841 -0.129297 0.423 255 255 255
-0.0887106 -0.152383 0.411 255 255 255
-0.202501 0.0278439 0.549 255 255 255
-0.2192 0.142722 0.531 255 255 255
0.217143 0.156994 0.634 255 255 255
0.196151 0.220918 0.57 255 255 255
-0.138743 -0.126755 0.438 255 255 255
0.404209 -0.0109762 0.861 255 255 255
0.0725497 -0.00387807 0.493 255 255 255
-0.0704514 -0.126055 0.426 255 255 255
0.25293 0.154555 0.641 255 255 255
-0.123313 0.14728 0.535 255 255 255
-0.186197 0.0306354 0.551 255 255 255
0.167737 0.0630016 0.522 255 255 255
-0.233908 0.129084 0.539 255 255 255
-0.0112147 -0.0474945 0.472 0 0 0
-0.190009 0.0939357 0.565 0 0 0
0.105963 0.204789 0.569 255 255 255
0.363419 0.0283162 0.785 255 255 255
0.149106 0.173442 0.605 255 255 255
-0.203999 0.0945194 0.563 0 0 0
0.0109232 0.16918 0.541 0 0 0
-0.00875533 -0.109674 0.427 255 255 255
0.348173 0.084426 0.729 255 255 255
0.00942912 -0.0485113 0.467 0 0 0
-0.0828581 -0.0155083 0.506 255 255 255
-0.145085 0.14728 0.535 255 255 255
0.10455 0.170462 0.598 255 255 255
-0.232963 0.00280804 0.545 255 255 255
0.0464925 -0.137238 0.4 255 255 255
0.153051 0.075605 0.533 255 255 255
0.0177966 -0.0756994 0.448 255 255 255
-0.0320685 0.0163434 0.524 255 255 255
-0.0643178 -0.105376 0.441 255 255 255
0.098079 0.124253 0.625 255 255 255
-0.135995 0.179343 0.517 255 255 255
-0.205382 -0.101165 0.468 255 255 255
-0.0769608 -0.152972 0.409 255 255 255
0.12406 -0.037142 0.458 255 255 255
0.150501 -0.0188324 0.466 255 255 255
-0.0314797 -0.0744968 0.454 255 255 255
-0.240636 -0.115402 0.464 255 255 255
0.0332068 -0.0434691 0.47 255 255 255
-0.146658 -0.00920298 0.522 255 255 255
0.0981411 -0.0674927 0.442 255 255 255
-0.0519013 0.0932932 0.584 0 0 0
-0.238894 0.0616132 0.581 255 255 255
0.12136 0.0632237 0.531 255 255 255
-0.122281 0.121858 0.554 255 255 255
0.0983199 -0.114472 0.407 255 255 255
0.180575 -0.138901 0.373 255 255 255
-0.194607 0.0893385 0.565 255 255 255
-0.250317 0.146178 0.531 255 255 255
-0.247635 0.00820399 0.55 0 0 0
0.0643996 -0.0133136 0.486 255 255 255
0.107984 -0.107571 0.411 255 255 255
0.0314085 0.0648906 0.545 255 255 255
0.000902566 -0.152236 0.395 255 255 255
-0.0704946 0.134648 0.551 255 255 255
0.0562161 -0.053539 0.458 255 255 255
0.206778 0.206491 0.587 255 255 255
0.164892 0.0414715 0.508 255 255 255
-0.0391571 -0.0232265 0.495 255 255 255
0.0170418 -0.101112 0.429 255 255 255
0.102476 -0.0831541 0.43 255 255 255
-0.0526516 0.0594361 0.552 255 255 255
-0.0249009 -0.127089 0.418 255 255 255
0.146363 0.140976 0.627 255 255 255
-0.000538701 0.0778225 0.555 255 255 255
-0.10976 0.0395301 0.55 0 0 0
0.0515541 -0.0480958 0.463 0 0 0
0.317586 0.119635 0.686 255 255 255
0.0137396 0.116499 0.586 0 0 0
-0.199651 0.0225654 0.551 255 255 255
-0.088433 0.128371 0.551 255 255 255
-0.0813749 0.0789862 0.598 255 255 255
0.0573845 -0.121393 0.408 0 0 0
-0.253596 -0.0413237 0.52 255 255 255
0.226807 0.213256 0.582 255 255 255
0.0651701 0.0402195 0.524 255 255 255
-0.270735 0.153653 0.527 255 255 255
0.0235132 -0.130688 0.408 255 255 255
0.0878534 -0.0557798 0.452 255 255 255
-0.0585252 -0.123684 0.425 255 255 255
0.0682799 0.0584763 0.535 255 255 255
-0.27858 0.0942981 0.551 255 255 255
0.0802894 0.0346343 0.517 255 255 255
-0.186918 -0.0371363 0.509 255 255 255
0.0414626 0.151698 0.561 255 255 255
0.010449 0.099569 0.617 255 255 255
0.0376186 -0.0809754 0.441 0 0 0
-0.0931958 -0.0743501 0.467 255 255 255
-0.0994471 -0.106815 0.444 255 255 255
-0.0553839 -0.148913 0.407 255 255 255
-0.169215 0.0656698 0.592 255 255 255
0.195318 0.21835 0.573 255 255 255
0.190159 -0.0148793 0.461 255 255 255
-0.0710097 -0.0266089 0.498 255 255 255
0.033066 0.158151 0.558 255 255 255
0.130813 -0.114089 0.401 255 255 255
0.0687692 -0.0960195 0.425 255 255 255
-0.134736 0.0259148 0.546 255 255 255
0.016411 -0.0731081 0.45 255 255 255
0.118742 -0.000658117 0.485 255 255 255
-0.175033 0.178871 0.523 255 255 255
-0.178633 -0.0338231 0.509 255 255 255
0.0571872 0.00419511 0.499 255 255 255
0.202498 0.159342 0.627 255 255 255
0.299752 0.117654 0.681 255 255 255
0.0280241 -0.131369 0.406 255 255 255
-0.173914 -0.0597936 0.491 0 0 0
-0.117026 0.198763 0.515 255 255 255
-0.0336773 -0.0930868 0.444 255 255 255
-0.241821 -0.00601642 0.541 0 0 0
-0.0124717 -0.13264 0.412 255 255 255
0.207306 -0.0677469 0.417 255 255 255
-0.147919 -0.101608 0.453 255 255 255
-0.0391898 -0.12981 0.418 255 255 255
0.293345 0.120624 0.679 255 255 255
0.289503 0.210627 0.596 255 255 255
0.152646 -0.101888 0.407 255 255 255
0.021576 0.000135734 0.502 255 255 255
0.0568421 -0.140665 0.395 0 0 0
-0.152278 -0.138533 0.426 255 255 255
-0.0196306 -0.100864 0.437 255 255 255
0.128202 -0.114742 0.401 255 255 255
0.00902647 0.181424 0.533 255 255 255
0.167043 0.168752 0.613 255 255 255
-0.268612 0.146729 0.533 0 0 0
0.0273192 0.0809949 0.552 255 255 255
0.0194379 0.184893 0.533 255 255 255
-0.0695841 -0.110361 0.438 255 255 255
-0.0400273 -0.00727404 0.506 255 255 255
0.35339 0.0705183 0.745 255 255 255
0.098512 0.152289 0.615 255 255 255
-0.18715 -0.0657814 0.488 255 255 255
-0.0324817 0.196169 0.517 255 255 255
-0.0873096 0.15861 0.544 255 255 255
-0.0419005 0.00520783 0.519 255 255 255
-0.221428 0.151073 0.524 0 0 0
-0.0432723 -0.12981 0.418 255 255 255
0.150945 -0.11352 0.399 255 255 255
-0.0711997 -0.00651435 0.511 255 255 255
0.314261 0.108561 0.701 255 255 255
-0.0586838 0.197392 0.518 255 255 255
0.101791 -0.00462338 0.487 255 255 255
-0.177788 -0.0712476 0.482 255 255 255
-0.204889 -0.0784694 0.483 255 255 255
-0.036787 -0.103233 0.438 255 255 255
0.0993129 0.147473 0.62 255 255 255
0.27015 0.0850884 0.705 255 255 255
0.0264779 0.177751 0.535 255 255 255
-0.00114851 -0.0876326 0.442 255 255 255
-0.0443129 -0.135631 0.415 255 255 255
0.148364 -0.143689 0.376 255 255 255
0.0518299 0.0559688 0.536 255 255 255
-0.159941 0.0922598 0.566 255 255 255
-0.171336 0.142453 0.53 255 255 255
-0.132859 -0.094325 0.457 255 255 255
-0.0124112 -0.134665 0.41 255 255 255
-0.260852 -0.053082 0.511 255 255 255
-0.115394 0.0330834 0.547 255 255 255
-0.22513 0.200495 0.513 255 255 255
0.00422172 -0.139613 0.405 255 255 255
0.131392 0.00410263 0.488 255 255 255
-0.136764 0.129219 0.547 255 255 255
-0.215906 0.111824 0.549 255 255 255
0.0339008 0.00586583 0.503 255 255 255
-0.0268064 -0.0447986 0.476 255 255 255
-0.151217 0.0306354 0.551 255 255 255
0.181682 -0.0510841 0.437 255 255 255
0.0964311 -0.104141 0.416 255 255 255
0.14578 -0.0623195 0.436 255 255 255
0.069165 -0.0342909 0.47 255 255 255
0.105307 -0.0596604 0.448 255 255 255
0.177608 -0.0776177 0.419 255 255 255
-0.043427 -0.13901 0.413 255 255 255
-0.00491011 0.170309 0.539 255 255 255
0.109586 -0.0870285 0.425 255 255 255
-0.107357 -0.0469136 0.49 255 255 255
-0.0927106 -0.0338345 0.497 255 255 255
-0.264874 0.168871 0.529 255 255 255
0.0813867 0.078481 0.547 255 255 255
-0.0721449 -0.0983656 0.445 255 255 255
0.229288 0.147483 0.642 255 255 255
-0.0424577 0.142832 0.548 255 255 255
-0.220802 -0.00684581 0.537 255 255 255
-0.128357 -0.0494064 0.491 255 255 255
-0.0902195 0.0219102 0.535 255 255 255
-0.0790481 0.146561 0.542 255 255 255
0.189256 0.0453348 0.496 255 255 255
-0.0274654 -0.0484671 0.474 255 255 255
0.170201 0.0747539 0.527 255 255 255
0.00815885 0.182291 0.533 255 255 255
-0.150919 0.160759 0.525 255 255 255
0.134056 -0.0966688 0.413 255 255 255
-0.216886 0.0518299 0.588 255 255 255
-0.0100504 -0.11553 0.423 255 255 255
-0.0269444 0.0459263 0.541 0 0 0
0.298754 0.13957 0.664 255 255 255
0.050882 -0.00387807 0.493 255 255 255
0.101899 0.102554 0.552 255 255 255
0.0909724 -0.0275239 0.472 255 255 255
-0.1649 0.136353 0.54 255 255 255
-0.246424 -0.0694209 0.497 255 255 255
-0.125603 -0.150216 0.418 255 255 255
0.171602 -0.00449996 0.474 255 255 255
0.160272 -0.129249 0.384 255 255 255
-0.0354847 -0.0714266 0.458 255 255 255
-0.228795 -0.0488284 0.51 255 255 255
0.01013 -0.138611 0.404 255 255 255
-0.0180039 0.170551 0.537 255 255 255
-0.108362 0.0441652 0.552 255 255 255
0.129375 -0.0321339 0.461 255 255 255
0.149462 -0.109795 0.402 255 255 255
-0.0706822 0.0827302 0.59 255 255 255
-0.104682 -0.0244689 0.504 255 255 255
0.0952158 -0.0222411 0.474 255 255 255
0.364393 0.104472 0.712 255 255 255
-0.27042 0.0993162 0.549 255 255 255
-0.295483 0.0489824 0.577 255 255 255
0.241911 0.161121 0.634 255 255 255
-0.246394 -0.0214188 0.53 255 255 255
0.067157 0.0539208 0.533 255 255 255
0.0137171 -0.125569 0.413 255 255 255
0.139843 -0.0675277 0.433 255 255 255
-0.0245271 0.159193 0.546 0 0 0
-0.0603874 -0.059016 0.472 255 255 255
-0.00561122 -0.14737 0.401 255 255 255
-0.0108263 0.188314 0.528 255 255 255
-0.144988 -0.156643 0.417 255 255 255
-0.175384 0.188482 0.519 255 255 255
0.103191 0.214835 0.559 255 255 255
0.221595 0.138102 0.647 255 255 255
-0.056042 0.0466903 0.55 255 255 255
0.00205812 0.195304 0.526 255 255 255
0.0857069 -0.141857 0.386 255 255 255
-0.124507 -0.0996919 0.451 255 255 255
-0.232963 0.00369494 0.545 0 0 0
-0.158729 -0.0526025 0.491 255 255 255
-0.18334 0.198154 0.52 255 255 255
-0.235478 0.171211 0.523 255 255 255
-0.0548433 0.0662004 0.556 255 255 255
-0.165564 -0.0167836 0.52 255 255 255
0.234196 0.147942 0.644 255 255 255
-0.224765 0.0144955 0.551 255 255 255
-0.238675 0.031525 0.567 255 255 255
-0.248861 0.194272 0.512 255 255 255
-0.293339 0.0605527 0.571 255 255 255
-0.0511632 -0.104898 0.439 255 255 255
-0.219025 -0.0724301 0.49 255 255 255
0.251537 0.201602 0.598 255 255 255
-0.0314055 0.157145 0.542 255 255 255
0.193804 -0.0256221 0.452 255 255 255
-0.133273 -0.0190621 0.513 255 255 255
0.302244 0.194007 0.614 255 255 255
0.23384 0.212674 0.583 255 255 255
0.139197 0.0195058 0.496 255 255 255
0.188651 0.0549786 0.503 255 255 255
0.179245 -0.0519138 0.438 255 255 255
0.0539807 0.210098 0.549 255 255 255
-0.0183565 -0.116493 0.424 255 255 255
0.385681 0.045724 0.756 255 255 255
0.0368586 0.123656 0.622 255 255 255
-0.287622 0.0446713 0.582 0 0 0
-0.0784301 -0.086673 0.452 0 0 0
0.0837757 0.0907114 0.551 255 255 255
0.181213 -0.121128 0.386 255 255 255
-0.0755725 0.017393 0.53 255 255 255
-0.263516 0.0865704 0.559 0 0 0
0.0526144 -0.132691 0.402 255 255 255
0.258595 0.177303 0.622 255 255 255
-0.120146 0.189176 0.514 255 255 255
0.0836847 -0.0996742 0.42 255 255 255
-0.10374 -0.0717683 0.47 255 255 255
0.1611 -0.0442515 0.447 255 255 255
0.261809 0.220641 0.584 255 255 255
-0.0543626 0.00350511 0.517 255 255 255
0.100507 -0.0466266 0.456 255 255 255
-0.268348 0.109718 0.543 255 255 255
-0.0908616 -0.00822549 0.514 255 255 255
-0.266952 0.171989 0.528 255 255 255
0.154728 -0.0977293 0.409 255 255 255
-0.0260095 0.111339 0.579 255 255 255
0.188111 0.0386424 0.493 255 255 255
-0.225087 0.0199837 0.554 255 255 255
0.13125 0.0936135 0.547 0 0 0
0.0604908 -0.037953 0.468 255 255 255
-0.0826896 0.0254876 0.537 255 255 255
0.117559 -0.013067 0.477 255 255 255
0.195814 -0.0599227 0.429 255 255 255
-0.252135 0.161306 0.524 255 255 255
-0.250528 -0.0506863 0.512 255 255 255
0.180689 -0.0956911 0.406 255 255 255
0.112331 -0.0331694 0.465 255 255 255
-0.0954389 -0.140683 0.42 255 255 255
0.115764 0.195871 0.581 255 255 255
0.0524755 0.0402963 0.525 255 255 255
0.23632 0.173254 0.622 255 255 255
-0.00583044 0.159202 0.543 0 0 0
0.201348 -0.0369456 0.438 255 255 255
0.0146193 -0.0213097 0.488 255 255 255
0.0718906 -0.102846 0.419 255 255 255
-0.0737405 -0.0463391 0.484 255 255 255
-0.131773 0.115964 0.556 255 255 255
0.137401 -0.0587282 0.441 255 255 255
0.180463 0.0533415 0.503 255 255 255
0.332924 0.0811998 0.732 255 255 255
0.0625614 -0.0255402 0.478 0 0 0
0.0952532 0.0379261 0.516 255 255 255
-0.0749594 -0.0342947 0.492 255 255 255
0.0471132 0.0512224 0.532 255 255 255
0.186328 0.0699701 0.517 255 255 255
-0.0578737 0.154499 0.542 255 255 255
0.189157 -0.125796 0.383 255 255 255
0.100562 -0.0700514 0.44 255 255 255
-0.016715 0.0240178 0.524 255 255 255
-0.0141483 -0.11663 0.422 255 255 255
0.146684 -0.10255 0.407 255 255 255
-0.222036 0.125808 0.54 255 255 255
-0.112482 -0.0401425 0.495 255 255 255
-0.207879 0.144994 0.533 255 255 255
-0.113533 0.157115 0.53 255 255 255
0.00476377 -0.0645774 0.457 255 255 255
-0.197839 0.122764 0.546 255 255 255
-0.262002 0.194343 0.51 255 255 255
0.150496 0.10021 0.549 255 255 255
0.100004 -0.146364 0.383 255 255 255
-0.268155 0.0363337 0.585 255 255 255
0.187535 -0.108892 0.394 255 255 255
-0.237063 0.0905319 0.561 255 255 255
-0.290282 0.0526469 0.576 255 255 255
0.0435046 0.0159067 0.51 255 255 255
-0.0915686 0.142413 0.543 255 255 255
-0.174406 0.0596872 0.59 255 255 255
0.282746 0.169107 0.633 255 255 255
0.0224129 0.0592414 0.542 255 255 255
0.0348593 -0.137581 0.401 0 0 0
-0.161104 0.0178852 0.545 255 255 255
0.117398 -0.116336 0.402 255 255 255
-0.024763 0.00683055 0.514 255 255 255
0.326371 0.0573359 0.747 255 255 255
0.016789 -0.134672 0.406 255 255 255
0.0972683 -0.134667 0.387 255 255 255
0.132284 0.136091 0.628 255 255 255
0.112326 0.00818912 0.495 255 255 255
0.124946 0.147949 0.622 255 255 255
0.110794 -0.102293 0.414 255 255 255
0.142625 -0.124591 0.387 255 255 255
0.0830279 0.0124142 0.503 255 255 255
0.0666522 0.0107771 0.503 255 255 255
0.349858 0.0220407 0.789 255 255 255
-0.0827082 0.186745 0.526 255 255 255
0.0332588 -0.0687143 0.45 255 255 255
-0.121117 0.0148893 0.533 255 255 255
0.0259335 0.0316923 0.524 255 255 255
-0.143281 -0.141333 0.424 255 255 255
-0.24313 -0.0865081 0.484 255 255 255
0.0480732 0.123855 0.623 255 255 255
-0.123369 -0.0784846 0.469 255 255 255
0.136684 -0.0580106 0.441 255 255 255
0.0163297 0.0228557 0.517 255 255 255
0.107561 -0.0206984 0.474 255 255 255
0.147308 0.0443841 0.513 255 255 255
-0.131783 -0.138858 0.427 255 255 255
0.348345 0.127263 0.685 255 255 255
-0.209536 0.193819 0.522 255 255 255
-0.0402856 0.101323 0.581 255 255 255
0.211709 0.219875 0.577 255 255 255
0.325542 0.131286 0.677 255 255 255
-0.0347413 0.170309 0.539 255 255 255
-0.0220609 0.156167 0.551 255 255 255
0.016986 0.131176 0.567 255 255 255
0.225075 0.155419 0.636 255 255 255
-0.111182 0.0018436 0.523 255 255 255
0.220573 0.157527 0.632 255 255 255
-0.17126 0.0351824 0.552 255 255 255
0.181739 0.0516016 0.502 255 255 255
0.176333 0.0565737 0.51 255 255 255
-0.164408 -0.043075 0.501 255 255 255
0.145998 -0.0305006 0.459 255 255 255
0.169492 -0.139882 0.374 255 255 255
-0.208034 0.0900982 0.564 255 255 255
0.00377774 0.0310162 0.527 255 255 255
-0.244053 0.106657 0.55 255 255 255
0.0160387 -0.110873 0.421 255 255 255
-0.156643 -0.061684 0.487 255 255 255
-0.143848 -0.0231909 0.512 0 0 0
0.14409 -0.038948 0.453 255 255 255
0.0216745 -0.106833 0.424 255 255 255
0.184025 -0.123625 0.384 255 255 255
0.316048 0.142812 0.664 255 255 255
0.176134 -0.0672869 0.427 255 255 255
-0.0305997 -0.0128834 0.5 255 255 255
-0.0653427 0.0234746 0.531 255 255 255
0.286568 0.184506 0.619 255 255 255
0.0218736 -0.0593716 0.457 0 0 0
-0.113287 -0.0385315 0.495 255 255 255
-0.0629838 0.100378 0.581 255 255 255
0.0142055 0.0391021 0.532 255 255 255
0.300785 0.156146 0.652 255 255 255
0.115646 -0.124911 0.396 255 255 255
-0.0820344 -0.0163318 0.506 255 255 255
-0.246927 0.0723779 0.569 255 255 255
-0.00920643 -0.080983 0.449 255 255 255
-0.0818021 -0.121923 0.431 255 255 255
0.161939 -0.0210168 0.464 255 255 255
0.0577717 -0.0270393 0.477 0 0 0
0.00864869 0.137149 0.565 0 0 0
-0.112992 -0.104364 0.449 255 255 255
0.0525068 0.196315 0.543 255 255 255
-0.231911 -0.123637 0.45 255 255 255
-0.245311 0.168128 0.524 255 255 255
-0.194816 0.126086 0.545 255 255 255
-0.12047 0.176658 0.519 255 255 255
-0.084321 -0.0588649 0.477 255 255 255
0.29912 0.153198 0.653 255 255 255
0.234287 0.132085 0.659 255 255 255
-0.027825 0.170061 0.541 255 255 255
-0.229836 0.00459024 0.546 255 255 255
0.179634 -0.130376 0.38 0 0 0
-0.0694942 -0.0327599 0.493 255 255 255
-0.129565 0.0813543 0.587 0 0 0
0.0463121 -0.0876605 0.435 255 255 255
0.105962 0.174448 0.595 255 255 255
0.152711 0.0347208 0.506 255 255 255
0.0295698 -0.0047373 0.499 255 255 255
0.122902 0.186748 0.588 255 255 255
-0.147437 -0.02808 0.51 255 255 255
0.159875 -0.0823907 0.419 255 255 255
0.142615 0.14944 0.624 255 255 255
0.0916657 -0.068212 0.442 255 255 255
0.18767 -0.105845 0.397 255 255 255
-0.235596 -0.113646 0.463 255 255 255
-0.134861 0.0814682 0.581 255 255 255
-0.129006 -0.151577 0.418 255 255 255
0.123423 -0.0842621 0.425 255 255 255
-0.0748224 0.172299 0.537 255 255 255
-0.0943588 0.111405 0.565 255 255 255
-0.0653816 0.122484 0.561 255 255 255
0.0147029 -0.111823 0.422 255 255 255
-0.0763731 0.101213 0.575 255 255 255
-0.0879736 0.1932 0.507 255 255 255
-0.0395603 0.0287672 0.533 255 255 255
-0.20597 0.00722922 0.544 255 255 255
-0.0486907 -0.0777932 0.456 255 255 255
0.227741 0.196093 0.602 255 255 255
-0.136614 -0.112849 0.445 255 255 255
0.0843625 0.201301 0.567 255 255 255
0.163963 0.21573 0.571 255 255 255
0.424948 -0.00670205 0.852 255 255 255
0.181754 -0.0824777 0.416 255 255 255
0.196109 0.0494701 0.497 255 255 255
-0.0011641 -0.0793446 0.448 255 255 255
0.0551304 -0.118941 0.411 255 255 255
0.144101 0.0269321 0.499 255 255 255
0.0913555 0.148045 0.614 255 255 255
-0.106314 -0.132219 0.428 255 255 255
-0.253655 0.0537703 0.578 255 255 255
0.193652 -0.115144 0.387 255 255 255
-0.158844 -0.0984725 0.459 255 255 255
-0.195923 0.0696397 0.577 255 255 255
0.400296 0.0111761 0.841 255 255 255
-0.121174 0.0966222 0.57 255 255 255
-0.0421771 0.0833592 0.581 255 255 255
0.260298 0.205495 0.598 255 255 255
0.0610044 0.188348 0.556 255 255 255
0.170229 -0.0572213 0.435 255 255 255
0.118534 0.154291 0.615 255 255 255
0.00293097 0.188671 0.529 255 255 255
-0.0784271 0.183321 0.526 255 255 255
-0.000465904 -0.0342394 0.48 0 0 0
0.081392 0.00337629 0.498 255 255 255
0.0226611 0.160668 0.548 255 255 255
0.0535198 -0.0409117 0.467 255 255 255
0.0406895 -0.029368 0.477 255 255 255
-0.0162685 0.000967834 0.51 255 255 255
0.29414 0.0972925 0.702 255 255 255
0.104115 0.0231928 0.506 255 255 255
-0.176654 0.135726 0.541 255 255 255
0.173971 -0.0883892 0.412 255 255 255
-0.0193107 0.190661 0.525 0 0 0
-0.095391 -0.0605441 0.478 255 255 255
0.155646 -0.0716234 0.428 255 255 255
0.272329 0.162646 0.64 255 255 255
0.176381 -0.0616048 0.431 255 255 255
-0.253962 0.0183119 0.558 255 255 255
-0.116219 -0.13784 0.426 255 255 255
0.0409808 -0.121988 0.41 255 255 255
-0.226947 0.136832 0.535 255 255 255
0.0778429 -0.106002 0.418 255 255 255
0.166523 -0.0468447 0.444 255 255 255
0.191921 -0.135374 0.375 255 255 255
0.116825 0.0122661 0.497 255 255 255
-0.250147 -0.0264432 0.527 255 255 255
0.132482 -0.0852423 0.423 255 255 255
-0.0437607 -0.0493424 0.475 0 0 0
0.0340497 -0.116722 0.415 255 255 255
-0.0156502 0.202059 0.517 255 255 255
-0.0506128 -0.0538666 0.474 255 255 255
0.171397 0.123438 0.553 255 255 255
0.248339 0.225508 0.577 255 255 255
0.195032 -0.0834286 0.414 255 255 255
0.0950974 0.158936 0.606 255 255 255
-0.0791243 -0.0343644 0.493 255 255 255
-0.106027 0.00614571 0.527 255 255 255
0.11832 0.0595422 0.529 255 255 255
0.119214 0.0643292 0.533 255 255 255
0.290954 0.211242 0.595 255 255 255
0.194541 0.0384856 0.491 255 255 255
0.0396621 -0.0368968 0.474 255 255 255
-0.0883124 0.178288 0.534 255 255 255
-0.262654 -0.0316487 0.528 255 255 255
-0.160574 -0.158017 0.41 255 255 255
0.0812356 -0.0200952 0.478 255 255 255
-0.28229 0.057234 0.575 255 255 255
0.0850812 0.161703 0.598 255 255 255
-0.0472016 0.127276 0.562 255 255 255
-0.187497 -0.11267 0.456 255 255 255
-0.225227 0.0777967 0.568 255 255 255
0.106518 0.0532127 0.526 255 255 255
-0.0449535 -0.128001 0.421 255 255 255
-0.22062 -0.0716327 0.49 255 255 255
-0.233762 0.0643387 0.58 0 0 0
-0.235138 0.115187 0.548 255 255 255
0.278913 0.224621 0.582 255 255 255
-0.243525 0.185325 0.522 255 255 255
-0.0379684 -0.0673932 0.461 255 255 255
0.118851 -0.0777365 0.431 255 255 255
0.115374 0.141543 0.625 255 255 255
-0.102455 0.113961 0.564 255 255 255
-0.0251169 -0.0876998 0.446 255 255 255
0.0932602 -0.0772193 0.436 255 255 255
0.157919 0.196545 0.583 255 255 255
0.109303 -0.0331694 0.465 255 255 255
-0.106925 0.173764 0.523 255 255 255
-0.116492 -0.137469 0.427 255 255 255
0.214266 -0.0328483 0.431 255 255 255
-0.0440072 0.119391 0.568 255 255 255
0.0192702 -0.0491658 0.466 255 255 255
