ply
format ascii 1.0
comment Created by Open3D
element vertex 1300
property double x
property double y
property double z
property uchar red
property uchar green
property uchar blue
end_header
-1.33186 -0.858859 2.695 255 255 255
0.412699 0.633725 1.642 255 255 255
-0.287309 0.154378 0.746 0 0 0
0.575889 0.15291 2.672 255 255 255
0.902978 0.265465 2.114 255 255 255
-0.986006 -0.818646 2.582 255 255 255
-0.298553 0.180943 0.712 255 255 255
0.657225 0.342341 2.143 255 255 255
0.828802 0.41875 1.876 255 255 255
0.965492 -0.638173 2.269 255 255 255
-0.198494 0.178042 0.719 255 255 255
0.431149 -0.510141 2.638 255 255 255
0.624922 -0.687991 2.519 255 255 255
0.627926 0.596306 1.719 255 255 255
-0.582916 -0.212574 1.616 255 255 255
-0.083579 -0.0521329 1.403 255 255 255
-0.331528 0.208735 0.689 255 255 255
0.75223 0.410012 1.997 255 255 255
-1.0818 -0.630805 2.695 255 255 255
-0.165184 0.259901 0.665 255 255 255
0.338647 0.450091 2.158 255 255 255
-0.155773 -0.107032 1.375 255 255 255
0.0931246 0.0146937 1.26 255 255 255
-1.15578 -0.319308 2.286 255 255 255
-0.133977 -0.104259 1.429 255 255 255
-0.33803 0.213899 0.684 255 255 255
-0.228111 0.0894181 0.751 255 255 255
-0.301867 0.20318 0.693 255 255 255
-0.325968 -0.118887 1.466 255 255 255
0.961427 -0.0360683 2.509 255 255 255
-0.312917 0.0261192 0.935 255 255 255
0.107357 -0.255288 1.917 255 255 255
0.794943 -0.0873716 2.707 255 255 255
0.00776337 0.0496399 1.083 255 255 255
-0.206238 -0.156959 1.612 255 255 255
-0.0407923 0.124864 0.459 255 255 255
-0.228213 0.206266 0.692 255 255 255
-0.0621611 0.129597 0.468 0 0 0
-0.623199 -0.0512744 1.322 255 255 255
0.36438 -0.884081 2.449 255 255 255
-0.100246 0.0787197 0.804 255 255 255
-1.36142 -0.901905 2.719 255 255 255
-0.0224006 -0.81166 2.459 255 255 255
0.940134 -0.733571 2.128 255 255 255
0.724612 -0.642172 2.582 255 255 255
-0.142964 -0.0715415 1.381 255 255 255
-0.265486 -0.880095 2.449 255 255 255
0.969649 0.222566 2.236 255 255 255
0.613517 -0.0037221 2.743 255 255 255
0.473619 -0.339959 2.684 255 255 255
0.062708 -0.0969507 1.459 255 255 255
0.374033 0.0769609 2.755 255 255 255
-1.23406 -0.568124 2.731 255 255 255
-0.459281 -0.212574 1.616 255 255 255
-0.355343 0.165402 0.741 255 255 255
0.118654 -0.737579 2.479 255 255 255
0.882745 -0.314244 1.842 255 255 255
0.256342 0.059692 2.269 255 255 255
0.962088 -0.676396 2.261 255 255 255
0.95924 -0.140311 2.626 255 255 255
0.996259 -0.787131 2.051 255 255 255
-0.262701 0.227588 0.685 255 255 255
0.485721 -0.759796 2.499 255 255 255
-0.981581 -0.731233 2.615 255 255 255
0.839844 0.361867 2.22 255 255 255
0.473763 0.21448 2.479 255 255 255
-0.856681 -0.857397 2.499 255 255 255
0.92728 0.257894 2.196 255 255 255
-1.23307 -1.01695 2.719 255 255 255
-0.622272 0.0196043 1.185 255 255 255
0.773872 -0.117684 2.695 255 255 255
0.613428 0.12739 2.684 255 255 255
-0.221203 -0.667647 2.489 255 255 255
-0.546531 0.0279381 1.132 255 255 255
0.921168 0.136882 2.615 255 255 255
-0.278711 0.144029 0.749 255 255 255
0.199375 -0.671592 2.43 255 255 255
0.832194 0.470424 1.719 255 255 255
0.686371 0.389887 2.136 255 255 255
0.815886 0.512294 1.691 255 255 255
0.718069 -0.541704 2.604 255 255 255
-0.299065 0.176134 0.716 255 255 255
0.262393 0.465164 2.196 255 255 255
0.0178427 0.187204 0.761 255 255 255
0.680336 0.274149 2.128 255 255 255
0.486148 0.0186781 2.755 255 255 255
-0.00202014 0.13081 0.478 255 255 255
-0.360971 0.0413402 0.871 255 255 255
-0.421902 -0.213626 1.624 255 255 255
0.532396 -0.79726 2.489 255 255 255
0.464928 0.510412 1.899 255 255 255
-0.544185 -0.186451 1.595 255 255 255
0.900566 0.166897 1.966 255 255 255
-0.496702 -0.836257 2.449 255 255 255
-0.212305 -0.0250828 1.201 255 255 255
-0.181657 0.218642 0.678 255 255 255
-0.09008 -0.792418 2.449 255 255 255
0.958037 -0.742506 2.114 255 255 255
0.867305 -0.338439 2.672 255 255 255
0.871884 0.348669 2.228 255 255 255
0.964662 -0.102973 2.121 255 255 255
-0.221831 0.181706 0.715 255 255 255
-0.324994 0.191512 0.704 255 255 255
-0.758804 -0.185377 1.445 255 255 255
0.0203692 0.220164 0.719 255 255 255
0.216609 0.641436 1.655 255 255 255
-0.112571 0.127982 0.755 255 255 255
-0.427715 -0.246761 1.616 255 255 255
0.948005 -0.383454 2.107 255 255 255
-1.04543 -0.89294 2.615 255 255 255
-0.16932 0.190424 0.7 255 255 255
0.606581 0.616616 1.668 255 255 255
-0.097652 -0.205522 1.734 255 255 255
-0.647565 0.00838649 1.237 255 255 255
-0.0553588 0.160136 0.475 255 255 255
-0.0120592 0.112211 0.475 255 255 255
0.426502 0.620527 1.686 255 255 255
0.117601 0.0345556 1.237 255 255 255
-0.202843 0.198932 0.69 255 255 255
0.976447 -0.200266 2.286 255 255 255
-0.184291 0.0911763 0.916 255 255 255
0.33972 0.616421 1.705 255 255 255
0.86834 -0.493192 2.572 255 255 255
-0.0124146 0.10199 0.489 255 255 255
-0.109254 -0.117151 1.505 255 255 255
0.807084 -0.469665 2.604 255 255 255
0.431274 0.55939 1.887 255 255 255
0.84293 -0.040151 2.793 255 255 255
0.492947 -0.0893405 2.768 255 255 255
-0.584414 -0.290857 1.673 255 255 255
0.704636 0.465111 1.929 255 255 255
0.962355 -0.226502 2.449 255 255 255
-0.909632 -0.762057 2.604 255 255 255
-0.181967 0.260683 0.667 255 255 255
0.545751 -0.450993 2.695 255 255 255
-0.641856 -0.267584 1.599 255 255 255
-0.523176 0.0344957 1.106 255 255 255
-0.174996 0.0411137 0.93 255 255 255
-0.216014 0.239644 0.675 255 255 255
0.704076 -0.531226 2.615 255 255 255
-0.650836 -0.9117 2.459 255 255 255
0.946902 -0.162138 2.44 255 255 255
0.887601 0.274471 2.078 0 0 0
-0.91001 -0.60693 2.593 255 255 255
0.904311 0.215464 1.887 255 255 255
-1.31274 -0.543504 2.719 255 255 255
0.173291 -0.292647 2.071 255 255 255
0.918581 -0.589459 2.572 255 255 255
0.45924 0.0814441 2.755 255 255 255
-0.0112147 0.119183 0.472 255 255 255
-0.355532 -0.36176 1.739 255 255 255
0.982228 -0.776429 2.085 255 255 255
0.216123 0.512588 2.03 255 255 255
0.677648 0.504028 1.799 255 255 255
0.161727 -0.843673 2.459 0 0 0
-0.731277 -0.107732 1.384 255 255 255
0.624716 0.461318 2.037 255 255 255
-0.236455 -0.761784 2.479 255 255 255
-0.872526 -0.759821 2.582 255 255 255
0.921116 -0.781573 2.278 255 255 255
-0.986719 -0.950653 2.509 255 255 255
-0.0128054 0.11506 0.474 255 255 255
0.675861 0.406512 2.114 255 255 255
-0.351032 0.0893695 0.794 255 255 255
-0.316709 0.0628625 0.802 255 255 255
0.405425 0.0141948 2.755 255 255 255
0.780178 -0.0128203 2.78 0 0 0
0.0547201 0.201962 0.832 255 255 255
-0.33649 -0.256821 1.7 255 255 255
0.534962 -0.391329 2.707 255 255 255
-0.277925 -0.764857 2.489 255 255 255
0.36628 -0.785109 2.489 255 255 255
-0.508924 -0.0245149 1.273 255 255 255
-0.357324 0.205371 0.689 255 255 255
0.0281771 -0.558658 2.338 255 255 255
0.706421 0.610152 1.629 255 255 255
0.27143 -0.287953 2.303 255 255 255
-0.0297429 0.174125 0.486 255 255 255
-1.29946 -0.547928 2.719 255 255 255
-0.35451 -0.326859 1.734 0 0 0
0.316129 -0.815915 2.509 255 255 255
0.739754 -0.083702 2.731 255 255 255
-0.40791 0.0909616 0.82 255 255 255
-1.32016 -0.712907 2.707 255 255 255
-0.380187 -0.802907 2.469 255 255 255
-0.234409 0.0118599 1.017 255 255 255
-0.33407 -0.0637245 1.27 255 255 255
0.606687 0.61136 1.691 255 255 255
0.912446 0.306238 1.917 255 255 255
-0.040851 0.187394 0.496 255 255 255
0.432594 0.388874 2.189 255 255 255
-0.216974 0.235192 0.678 255 255 255
-0.774054 -0.927461 2.469 255 255 255
-0.676468 -0.102362 1.435 255 255 255
0.0412609 0.106492 0.96 255 255 255
0.986847 0.066569 2.383 255 255 255
-0.471243 -0.174343 1.603 255 255 255
0.543325 0.559605 1.753 255 255 255
0.160421 -0.0913425 1.659 255 255 255
0.712003 -0.356452 2.582 255 255 255
-0.981803 -0.839654 2.582 255 255 255
-0.253615 -0.79321 2.489 255 255 255
-0.645777 -0.148622 1.477 255 255 255
0.546541 -0.124244 2.743 255 255 255
-0.202719 0.246959 0.671 255 255 255
0.936679 -0.149712 2.253 255 255 255
-0.0405686 0.103038 0.465 255 255 255
0.235499 0.320967 2.212 255 255 255
-0.734138 -0.493644 2.43 255 255 255
0.25583 0.509363 2.057 255 255 255
-0.0754719 0.110627 0.485 255 255 255
0.427205 0.269403 2.294 255 255 255
-0.160268 -0.247624 1.837 255 255 255
0.0319645 0.0908507 1.012 255 255 255
0.716846 -0.522715 2.615 255 255 255
0.597497 0.0896231 2.731 255 255 255
-0.0947388 -0.344219 1.842 255 255 255
-0.206982 0.184535 0.708 255 255 255
-0.321221 -0.198251 1.65 255 255 255
0.387159 0.624529 1.682 255 255 255
0.74308 0.16674 2.489 255 255 255
-0.266655 0.256341 0.667 255 255 255
-0.0526178 -0.235666 1.837 255 255 255
-0.124467 -0.885426 2.42 255 255 255
-0.412986 -0.864154 2.449 255 255 255
0.557897 0.191575 2.55 255 255 255
-0.0758525 0.0161748 1.387 255 255 255
-0.482956 -0.191536 1.616 255 255 255
0.316476 0.631053 1.642 255 255 255
0.880809 0.354382 2.196 255 255 255
0.598411 0.343661 2.196 255 255 255
-0.233503 -0.251279 1.758 255 255 255
-0.311863 -0.85514 2.469 255 255 255
-0.867801 -0.74196 2.593 255 255 255
0.0264035 0.252328 0.724 255 255 255
0.0447294 0.158926 0.848 255 255 255
0.708635 -0.1237 2.731 255 255 255
0.940831 0.17602 2.114 255 255 255
0.660588 0.576227 1.769 255 255 255
-0.323348 0.242953 0.672 255 255 255
-0.244525 0.194981 0.7 255 255 255
0.458453 -0.490627 2.672 255 255 255
0.6261 0.61989 1.655 255 255 255
-0.144931 -0.108978 1.4 255 255 255
-0.184738 -0.70005 2.489 255 255 255
-0.15274 -0.38854 1.784 255 255 255
-0.115042 0.25912 0.663 255 255 255
0.00238323 0.0749634 1.043 255 255 255
-0.385565 0.0310687 0.902 255 255 255
-0.185908 0.117255 0.734 255 255 255
-0.122011 0.0244661 0.93 0 0 0
0.237257 0.569241 1.859 255 255 255
0.359325 -0.05806 2.78 255 255 255
-0.039985 0.151052 1.041 255 255 255
0.942268 -0.575566 2.459 255 255 255
0.495399 0.481207 2.037 255 255 255
-0.241939 0.0161135 0.974 255 255 255
0.919288 -0.893039 2.43 255 255 255
-1.28135 -0.790654 2.672 255 255 255
-0.222527 0.0467339 0.952 255 255 255
-0.0759114 0.119013 0.745 255 255 255
0.73717 0.272874 2.173 255 255 255
-0.0218781 0.104146 0.47 255 255 255
-0.147444 0.237159 0.668 255 255 255
-0.315732 0.0720038 0.774 255 255 255
-0.343702 0.222152 0.682 255 255 255
0.105258 -0.828286 2.449 255 255 255
-0.211905 0.161231 0.733 255 255 255
-0.297619 -0.340876 1.748 255 255 255
-0.55744 0.0414892 1.055 255 255 255
0.941324 -0.0806582 2.499 255 255 255
0.659686 0.480935 1.917 0 0 0
-0.493278 -0.229483 1.624 255 255 255
-0.165829 -0.0450917 1.33 255 255 255
-0.220762 -0.22723 1.794 0 0 0
-0.603406 -0.151267 1.528 255 255 255
-1.24842 -1.00807 2.743 255 255 255
0.895138 0.232085 2.004 255 255 255
-0.0268859 0.13453 0.464 255 255 255
0.423623 0.217633 2.469 255 255 255
0.70112 0.308778 2.128 255 255 255
0.597237 0.550318 1.769 255 255 255
-0.714113 -0.19008 1.445 255 255 255
-0.892241 -0.831465 2.519 255 255 255
-0.548709 -0.0384245 1.324 255 255 255
-0.616485 0.0215326 1.185 255 255 255
-0.236971 0.0344123 0.954 255 255 255
0.036871 0.285106 0.745 255 255 255
-0.194496 0.145489 0.744 255 255 255
0.692439 -0.00822167 2.755 255 255 255
-1.10239 -0.678886 2.66 255 255 255
-0.289425 0.161348 0.739 255 255 255
-0.424289 0.150493 0.803 255 255 255
0.423363 0.0904107 2.755 255 255 255
0.789015 -0.138421 2.672 255 255 255
-0.579344 -0.303371 1.682 0 0 0
0.626535 -0.431682 2.684 255 255 255
0.192252 -0.81333 2.44 255 255 255
-0.206646 0.217238 0.684 255 255 255
0.442766 0.29718 2.278 255 255 255
0.821575 0.538336 1.826 255 255 255
0.932206 -0.585241 2.057 255 255 255
-0.582286 -0.198314 1.607 0 0 0
0.00557535 -0.837154 2.44 255 255 255
0.866445 0.0824484 1.865 255 255 255
0.386478 0.622367 1.691 255 255 255
0.647983 -0.224925 2.719 255 255 255
-0.145284 0.156673 0.734 255 255 255
-0.691189 -0.886369 2.489 255 255 255
0.841457 -0.870363 2.411 255 255 255
0.946447 0.013592 2.638 255 255 255
0.348434 0.223841 2.449 255 255 255
-0.253861 -0.125767 1.491 255 255 255
-0.179232 0.0900368 0.746 255 255 255
0.258473 0.622913 1.7 255 255 255
-0.118112 -0.101978 1.463 255 255 255
-0.12233 0.0347207 0.921 255 255 255
-0.456771 0.0831075 0.878 255 255 255
-0.297619 -0.323808 1.748 255 255 255
0.0419407 -0.0725258 1.4 255 255 255
-0.252595 -0.920538 2.44 255 255 255
0.859398 0.0192359 1.917 255 255 255
0.305169 0.431613 2.303 255 255 255
-0.0530476 0.0444605 0.97 0 0 0
-0.230995 0.162423 0.733 255 255 255
0.440403 -0.765877 2.519 255 255 255
0.677383 0.608106 1.682 255 255 255
0.638769 0.409204 2.128 255 255 255
0.873767 0.249285 1.935 255 255 255
-0.28849 0.221867 0.688 255 255 255
0.605465 -0.241553 2.707 255 255 255
0.638128 0.311772 2.173 255 255 255
-0.19452 -0.787651 2.459 255 255 255
-0.0531462 0.0913066 0.483 255 255 255
0.703178 0.150078 2.55 255 255 255
0.233941 0.180514 2.303 255 255 255
0.0198882 -0.514503 2.261 255 255 255
-0.481207 -0.0739491 1.384 0 0 0
0.403104 0.559857 1.899 255 255 255
0.783785 0.594224 1.705 255 255 255
-1.08638 -0.907842 2.561 255 255 255
-0.619265 0.0102314 1.217 255 255 255
-0.232178 -0.0321334 1.173 255 255 255
-0.0219271 -0.142378 1.567 255 255 255
0.345094 0.625969 1.664 255 255 255
-0.31439 -0.744605 2.489 255 255 255
-1.16888 -0.858897 2.615 255 255 255
-0.317466 0.021762 0.944 255 255 255
0.862212 0.200745 2.459 255 255 255
0.596805 0.147283 2.649 255 255 255
-0.341616 0.146605 0.756 255 255 255
-0.294787 0.129895 0.759 255 255 255
-0.195733 0.164063 0.735 255 255 255
0.0260611 0.194961 0.748 255 255 255
-0.158921 0.166573 0.72 255 255 255
0.293098 0.236942 2.42 255 255 255
-1.14051 -0.733371 2.638 255 255 255
-0.33101 -0.0127334 1.145 255 255 255
0.581704 0.615989 1.659 255 255 255
-0.108307 0.116305 0.751 255 255 255
0.00498203 0.222994 0.695 255 255 255
0.530994 0.063511 2.755 255 255 255
-0.0424145 -0.775646 2.459 255 255 255
0.789588 -0.607776 2.561 255 255 255
-0.500259 -0.0380182 1.31 255 255 255
-0.398599 -0.693426 2.509 255 255 255
0.220867 -0.708726 2.449 255 255 255
0.826805 0.45638 1.831 255 255 255
0.248784 -0.858016 2.489 255 255 255
-0.00599704 -0.0434907 1.419 255 255 255
-0.355009 0.176134 0.716 255 255 255
-0.221424 -0.290502 1.753 255 255 255
0.200934 -0.633005 2.449 255 255 255
-0.216279 -0.794057 2.479 255 255 255
-0.205813 0.188075 0.704 255 255 255
0.562386 0.0500611 2.755 255 255 255
-0.331004 -0.34861 1.744 255 255 255
0.0524972 -0.0579313 1.378 255 255 255
-0.0600036 0.114609 0.469 255 255 255
-0.0729788 0.117053 0.479 0 0 0
-0.00193835 -0.392683 1.997 255 255 255
0.0126577 -0.0862548 1.439 255 255 255
0.00950733 0.265971 0.695 255 255 255
-0.769227 -0.827366 2.519 255 255 255
0.857605 0.0579815 1.859 255 255 255
-0.178031 0.155755 0.741 255 255 255
-0.38043 0.134804 0.827 255 255 255
-0.0960692 0.067848 0.848 255 255 255
-0.0459657 0.141176 0.466 255 255 255
0.910469 -0.773828 2.356 255 255 255
-0.0672388 0.114236 0.477 255 255 255
-0.204919 -0.0784316 1.345 255 255 255
-0.101787 0.125578 0.748 255 255 255
-0.559534 -0.113571 1.459 255 255 255
0.959979 0.17297 2.582 255 255 255
-0.185756 -0.852198 2.449 255 255 255
0.954656 -0.504965 2.099 255 255 255
-0.157916 0.203424 0.69 255 255 255
-1.07641 -0.683214 2.66 255 255 255
0.579688 0.475383 1.985 255 255 255
0.96392 -0.215412 2.604 255 255 255
0.913247 -0.70005 2.489 255 255 255
0.83724 0.436938 1.753 255 255 255
0.627943 -0.532926 2.582 255 255 255
0.308843 -0.555369 2.55 255 255 255
0.692243 -0.255898 2.719 255 255 255
0.931247 -0.251473 2.719 255 255 255
-0.315404 0.198669 0.693 255 255 255
0.665343 0.554761 1.774 0 0 0
-0.0882407 0.0580141 0.866 255 255 255
-0.251859 -0.073063 1.327 255 255 255
-0.0937098 -0.180978 1.664 255 255 255
-0.0385679 -0.955587 2.469 255 255 255
-0.36982 0.0499672 0.849 255 255 255
-0.672802 -0.176984 1.473 255 255 255
0.44673 -0.857859 2.42 255 255 255
0.367944 -0.81454 2.42 255 255 255
-0.0404825 0.0887644 0.482 255 255 255
-0.13133 0.220095 0.669 255 255 255
0.0327899 -0.155485 1.624 255 255 255
-0.222164 0.240354 0.677 255 255 255
0.33381 0.171068 2.684 255 255 255
0.0401471 0.130592 0.9 255 255 255
-0.618071 -0.0883502 1.435 255 255 255
0.890351 -0.0126496 2.743 255 255 255
0.873677 -0.143459 1.769 255 255 255
0.00479617 -0.450313 2.099 255 255 255
0.956261 -0.304845 2.572 255 255 255
0.427323 0.382669 2.236 255 255 255
-0.545658 -0.0976911 1.435 255 255 255
-0.524636 0.0461151 1.083 255 255 255
-0.410516 -0.11333 1.487 255 255 255
0.813903 0.124638 2.626 255 255 255
0.936891 -0.723498 2.236 255 255 255
-0.208145 0.234089 0.678 255 255 255
-0.221715 0.234434 0.679 255 255 255
-0.138949 0.0610957 0.912 255 255 255
-0.587415 -0.0620086 1.369 255 255 255
0.500416 0.48654 1.991 255 255 255
-0.0153753 0.102883 0.482 255 255 255
0.136814 -0.55567 2.374 255 255 255
-0.333303 -0.818262 2.479 255 255 255
-0.649219 -0.832997 2.499 255 255 255
0.443463 0.373083 2.244 255 255 255
-0.211088 0.147291 0.747 255 255 255
-0.318441 -0.809411 2.489 255 255 255
-0.0198746 0.0994872 0.477 255 255 255
0.961237 0.185955 2.53 255 255 255
-0.268718 0.172192 0.719 255 255 255
-0.325361 0.130016 0.767 255 255 255
-0.466024 -0.171735 1.603 255 255 255
0.951449 0.316141 1.865 255 255 255
0.983959 -0.217239 2.269 255 255 255
-0.259509 0.00212164 1.118 255 255 255
-0.1522 -0.142708 1.543 255 255 255
-0.111342 0.0886657 0.755 255 255 255
0.880349 -0.355242 1.837 255 255 255
-0.0781205 -0.812345 2.449 255 255 255
-0.812852 -0.751595 2.54 255 255 255
0.648124 0.375983 2.136 255 255 255
0.85966 -0.580276 1.758 255 255 255
-0.336168 0.230779 0.678 255 255 255
0.453877 -0.104229 2.805 255 255 255
0.0101719 -0.0712009 1.419 255 255 255
-0.0900909 -0.337279 1.87 255 255 255
0.692439 0.0141948 2.755 255 255 255
-0.264048 0.083397 0.763 255 255 255
0.2135 -0.426967 2.136 255 255 255
0.0427051 0.0193726 1.171 255 255 255
-0.354212 0.221366 0.683 255 255 255
-0.168161 -0.312242 1.763 255 255 255
0.94618 -0.346561 2.051 255 255 255
0.468865 -0.272389 2.707 255 255 255
-0.00892858 0.120975 0.473 255 255 255
0.0252249 0.281782 0.724 255 255 255
-0.507784 -0.0202437 1.265 255 255 255
0.521662 0.344913 2.204 255 255 255
0.25717 -0.448555 2.244 255 255 255
-0.260851 0.223455 0.686 255 255 255
-0.574813 -0.024149 1.254 255 255 255
0.679705 0.521605 1.789 0 0 0
-0.159772 0.245833 0.665 255 255 255
-0.668771 -0.211543 1.48 255 255 255
-0.88404 -0.880656 2.519 255 255 255
-0.620877 -0.174749 1.516 255 255 255
-0.497632 -0.136226 1.555 255 255 255
0.050255 -0.939025 2.489 255 255 255
-1.08127 -0.655859 2.672 255 255 255
0.803854 -0.926874 2.489 255 255 255
-0.0301041 0.13711 1.051 255 255 255
0.305088 -0.86016 2.519 255 255 255
-0.275078 0.250578 0.669 255 255 255
-0.429719 0.141362 0.826 255 255 255
0.386728 0.393269 2.32 255 255 255
-0.211772 0.24514 0.672 255 255 255
0.744584 0.473409 1.887 255 255 255
0.942329 -0.75262 2.173 255 255 255
0.962842 0.158983 2.212 255 255 255
-0.147831 0.0280842 0.95 255 255 255
-0.0732835 0.115194 0.481 0 0 0
0.162029 -0.129333 1.734 255 255 255
0.851696 0.371448 2.017 255 255 255
0.110477 -0.252168 1.917 255 255 255
0.644359 0.619622 1.633 255 255 255
-0.63616 -0.131797 1.477 255 255 255
0.603621 -0.605268 2.604 255 255 255
-0.374176 -0.214671 1.612 255 255 255
0.718718 0.146558 2.561 255 255 255
0.882193 -0.0798548 1.763 255 255 255
-0.238546 -0.281944 1.753 255 255 255
0.716535 -0.896714 2.44 255 255 255
-0.0041544 0.107443 0.983 255 255 255
0.93594 -0.581078 1.953 255 255 255
-0.579523 -0.277624 1.659 255 255 255
-0.807066 -0.736971 2.561 255 255 255
0.936922 -0.636265 2.509 255 255 255
-0.129389 -0.147854 1.571 255 255 255
-0.224866 0.176191 0.721 255 255 255
-0.668771 -0.206726 1.48 255 255 255
-0.142743 0.0515408 0.927 255 255 255
-0.273364 -0.052532 1.203 255 255 255
-0.235501 -0.72255 2.469 255 255 255
-0.109224 0.0862179 0.766 255 255 255
-0.214506 0.155965 0.742 255 255 255
-0.102267 -0.270331 1.87 255 255 255
-0.140639 0.135256 0.741 255 255 255
0.685767 0.4478 2.051 255 255 255
-0.218894 0.223917 0.684 255 255 255
0.289994 0.469834 2.136 255 255 255
0.409756 0.171769 2.695 255 255 255
0.0385256 -0.0310435 1.286 255 255 255
0.508212 -0.530976 2.593 255 255 255
0.859235 -0.229042 1.763 255 255 255
0.932969 -0.282179 2.044 255 255 255
-0.388981 0.157689 0.762 255 255 255
-0.00525924 -0.318943 2.024 255 255 255
0.421217 -0.12823 2.831 255 255 255
0.0878513 -0.315442 2.044 255 255 255
0.956902 -0.658839 2.329 255 255 255
-0.304123 0.20318 0.693 255 255 255
0.752681 0.595967 1.71 255 255 255
-0.478394 -0.145668 1.575 255 255 255
0.868291 -0.616747 1.724 255 255 255
0.0397977 -0.0201637 1.26 255 255 255
-0.0710068 -0.721442 2.479 255 255 255
0.319269 0.174651 2.672 255 255 255
-0.376751 0.163749 0.75 255 255 255
-0.0197079 0.104811 0.473 255 255 255
-0.32794 -0.85514 2.469 255 255 255
0.00538341 -0.570627 2.356 255 255 255
0.635305 0.41613 2.128 255 255 255
0.0351228 -0.116606 1.498 255 255 255
0.802859 0.542025 1.664 255 255 255
0.679168 0.488966 1.876 0 0 0
-0.380739 -0.78013 2.499 255 255 255
0.0236307 -0.0183001 1.273 255 255 255
-0.385626 -0.220463 1.616 255 255 255
-0.320869 0.193841 0.7 255 255 255
0.790162 -0.787651 2.459 255 255 255
0.0429067 0.119554 0.928 255 255 255
-0.150676 -0.276861 1.794 255 255 255
-0.309032 0.08449 0.773 255 255 255
-0.162884 0.146467 0.749 255 255 255
0.953576 -0.0168888 2.707 255 255 255
0.550723 0.535093 1.815 0 0 0
0.901093 -0.218554 2.695 255 255 255
-0.66551 -0.653941 2.53 255 255 255
0.721102 -0.43335 2.615 255 255 255
0.71383 -0.541704 2.604 255 255 255
-0.468464 -0.0857644 1.393 255 255 255
0.28128 -0.507365 2.42 255 255 255
-0.50689 -0.677193 2.54 255 255 255
-0.687625 -0.0859491 1.396 0 0 0
-1.28799 -0.722904 2.695 255 255 255
0.996186 -0.791097 2.044 255 255 255
0.29543 0.519195 2.03 255 255 255
-0.108403 0.232874 0.662 255 255 255
0.604179 0.26242 2.204 255 255 255
0.880122 -0.49511 2.582 255 255 255
0.0240005 0.045049 1.1 255 255 255
-0.994344 -0.654524 2.649 255 255 255
-1.02884 -0.663146 2.649 0 0 0
-0.011983 0.133009 0.472 255 255 255
0.847951 -0.536927 2.561 255 255 255
0.987092 -0.341889 2.365 255 255 255
-0.175972 -0.217254 1.784 255 255 255
-0.729416 -0.787334 2.509 255 255 255
0.95936 -0.505119 2.204 255 255 255
-0.639772 -0.0782835 1.381 255 255 255
-0.683997 -0.153617 1.456 255 255 255
0.842605 0.580349 1.673 255 255 255
0.933145 0.108486 2.649 255 255 255
-0.0455712 0.112899 0.462 255 255 255
-0.201373 0.210867 0.685 255 255 255
0.648413 0.590788 1.744 255 255 255
-0.211903 0.226924 0.683 255 255 255
0.0736659 -0.727627 2.459 255 255 255
-0.132909 0.242951 0.666 0 0 0
-0.221358 0.0588171 0.947 255 255 255
-0.2575 0.120488 0.762 0 0 0
0.823824 0.447441 1.831 255 255 255
0.526771 0.409462 2.166 255 255 255
0.36048 -0.556294 2.593 255 255 255
-0.595693 -0.127591 1.484 255 255 255
0.288686 -0.716686 2.519 255 255 255
-1.30894 -0.636966 2.684 255 255 255
0.787032 0.11037 2.695 255 255 255
0.356971 -0.472946 2.509 255 255 255
0.96392 -0.401864 2.604 255 255 255
0.0296354 -0.755638 2.459 255 255 255
0.180734 -0.244046 2.004 255 255 255
0.210527 0.571473 1.837 255 255 255
-0.185056 0.128712 0.745 255 255 255
-0.401138 -0.578295 2.356 255 255 255
-0.0976926 -0.884802 2.44 255 255 255
-0.53236 -0.167016 1.583 255 255 255
0.0298728 0.199675 0.752 255 255 255
-0.0922391 0.251188 0.662 255 255 255
-0.174777 0.217218 0.677 255 255 255
0.646099 0.476182 1.923 255 255 255
0.897942 -0.615595 1.893 255 255 255
-0.270551 0.242579 0.674 255 255 255
0.81475 -0.416328 2.615 255 255 255
-0.0982173 -0.0379136 1.384 255 255 255
-0.0136018 0.0325185 1.1 0 0 0
0.574107 -0.331223 2.684 255 255 255
0.902777 0.053957 2.051 255 255 255
0.220488 0.495979 2.071 255 255 255
-0.145055 -0.491734 2.044 255 255 255
-0.360772 0.184796 0.709 255 255 255
0.443844 -0.200128 2.743 255 255 255
0.810219 0.554185 1.668 255 255 255
-0.161132 -0.0718653 1.345 255 255 255
0.837158 -0.527717 1.673 255 255 255
-0.043307 0.127852 0.769 255 255 255
-0.44718 -0.31215 1.7 255 255 255
0.888423 0.263189 1.899 255 255 255
0.868348 0.363525 1.923 255 255 255
-0.0498412 0.16057 0.474 255 255 255
-0.241524 0.0175532 0.966 255 255 255
0.0205108 0.213447 0.724 255 255 255
-1.36137 -0.602024 2.684 255 255 255
-0.585847 -0.777008 2.489 255 255 255
-0.0119247 -0.420438 2.037 255 255 255
0.907186 0.176102 1.893 255 255 255
-0.299283 0.242953 0.672 255 255 255
0.121237 -0.0152245 1.369 255 255 255
-0.352299 -0.223645 1.62 255 255 255
0.743745 0.395473 2.092 255 255 255
0.273401 -0.916931 2.42 255 255 255
-0.195697 -0.0709035 1.327 255 255 255
-0.25873 -0.242018 1.774 255 255 255
-0.370695 -0.0296192 1.227 255 255 255
-1.00709 -0.906527 2.593 255 255 255
0.0429481 -0.122942 1.516 255 255 255
0.541854 0.507187 1.887 255 255 255
-0.333385 0.261074 0.668 255 255 255
-0.317236 0.23478 0.68 255 255 255
-0.0348288 -0.70005 2.489 255 255 255
-0.0595287 -0.0108161 1.375 255 255 255
-0.183131 -0.264366 1.769 255 255 255
0.0388981 0.142139 0.872 255 255 255
0.0165523 0.0121416 1.21 255 255 255
0.022552 0.262785 0.714 255 255 255
-1.01984 -0.524754 2.604 255 255 255
0.86013 -0.433045 1.686 255 255 255
0.563299 -0.455379 2.695 255 255 255
0.113271 0.309634 1.152 255 255 255
-0.356192 0.193841 0.7 255 255 255
0.182251 -0.228811 1.985 255 255 255
0.926314 -0.305463 2.044 255 255 255
-0.312983 0.159278 0.735 255 255 255
-0.380816 0.171731 0.732 255 255 255
0.644482 -0.505693 2.615 255 255 255
0.0357171 -0.162058 1.637 255 255 255
0.970711 -0.347331 2.43 255 255 255
0.332134 0.571078 1.865 255 255 255
-0.574367 -0.054719 1.354 255 255 255
0.840086 0.404894 1.668 255 255 255
0.0551693 0.130545 0.931 255 255 255
-0.624326 -0.674527 2.53 255 255 255
-0.624194 -0.222263 1.555 255 255 255
0.64489 0.434033 2.114 255 255 255
0.419573 -0.577393 2.593 255 255 255
-0.00575453 0.113842 0.983 255 255 255
0.976738 0.230453 2.278 255 255 255
0.354004 0.62797 1.655 255 255 255
-0.310746 0.00505448 0.981 255 255 255
0.50902 0.616421 1.705 255 255 255
0.369273 0.394795 2.329 255 255 255
-0.149395 0.243316 0.667 255 255 255
0.800641 0.556724 1.799 0 0 0
0.826515 -0.179083 2.695 255 255 255
-0.0311462 -0.17677 1.65 255 255 255
0.931575 -0.709572 2.078 255 255 255
-0.343538 -0.188906 1.616 255 255 255
-0.168431 0.252326 0.665 255 255 255
0.649381 0.510055 1.81 255 255 255
0.497598 -0.316698 2.672 255 255 255
0.010896 -0.120792 1.52 255 255 255
-0.0469675 0.102015 0.834 255 255 255
-0.239516 0.0780992 0.772 255 255 255
-0.329412 0.225927 0.68 255 255 255
-0.159139 -0.762729 2.469 255 255 255
0.856392 -0.357898 1.734 255 255 255
-0.688575 -0.783251 2.509 255 255 255
-0.00641554 -0.654246 2.469 255 255 255
-0.0802432 0.0526794 0.871 255 255 255
-0.121501 -0.170049 1.637 255 255 255
0.968212 0.232719 2.338 255 255 255
0.676793 0.530339 1.789 255 255 255
0.891457 0.00930003 1.805 255 255 255
0.411468 0.380932 2.269 255 255 255
-0.0751629 0.106848 0.762 0 0 0
0.929285 -0.751649 2.244 255 255 255
-0.936428 -0.845847 2.55 255 255 255
0.709029 0.619732 1.599 255 255 255
-0.0255874 -0.581044 2.383 255 255 255
0.682606 0.608473 1.668 255 255 255
0.0619445 0.242896 0.857 255 255 255
0.707812 -0.681101 2.479 255 255 255
0.103157 -0.227315 1.842 255 255 255
-0.316157 -0.014686 1.152 255 255 255
0.0680386 0.128764 0.963 255 255 255
-0.638421 -0.217566 1.505 255 255 255
-0.311319 0.0232982 0.944 255 255 255
0.270049 0.588257 1.815 255 255 255
-0.340372 0.221042 0.682 255 255 255
-0.177278 0.132882 0.748 255 255 255
-0.0140029 -0.587131 2.392 255 255 255
-0.362847 -0.221009 1.62 255 255 255
0.342667 0.597225 1.763 255 255 255
-0.302286 0.14486 0.747 255 255 255
-1.29424 -1.05283 2.755 255 255 255
-0.541297 -0.161455 1.579 255 255 255
-0.190655 -0.0663337 1.322 255 255 255
-0.222267 0.171033 0.724 255 255 255
-0.355101 0.0429049 0.874 255 255 255
0.829097 -0.611177 1.62 255 255 255
-0.0143951 -0.799655 2.459 255 255 255
0.707037 -0.512094 2.626 255 255 255
-0.322295 0.16391 0.729 255 255 255
0.45457 0.42902 2.158 255 255 255
0.873828 -0.0318226 1.805 255 255 255
0.577995 0.389568 2.173 0 0 0
0.941501 -0.47106 2.085 255 255 255
-0.141276 -0.1028 1.409 255 255 255
0.911105 0.233269 1.882 255 255 255
0.401954 0.618229 1.71 255 255 255
-0.366167 0.202053 0.693 255 255 255
-1.03576 -0.942144 2.519 255 255 255
-0.774342 -0.803666 2.509 255 255 255
0.486148 0.0904107 2.755 255 255 255
-0.266549 0.190366 0.704 255 255 255
0.0342607 0.284781 0.741 255 255 255
0.696918 -0.83505 2.469 255 255 255
-0.0105285 0.254644 0.674 255 255 255
-0.283998 -0.170555 1.668 255 255 255
0.62904 0.531821 1.794 255 255 255
0.749776 -0.00826047 2.768 0 0 0
-0.00935562 0.0788272 1.027 255 255 255
0.620556 -0.742639 2.469 255 255 255
0.390827 0.462882 2.136 255 255 255
0.81273 -0.92315 2.479 255 255 255
-1.34991 -1.05329 2.768 255 255 255
0.425339 -0.822296 2.479 255 255 255
-0.360155 -0.298641 1.734 255 255 255
-0.335308 0.191512 0.704 255 255 255
0.573304 -0.608557 2.582 255 255 255
0.251645 0.629355 1.673 255 255 255
-0.00674466 0.140533 0.482 255 255 255
-0.165823 -0.87611 2.449 255 255 255
-0.140011 0.0236931 0.96 255 255 255
-0.110038 0.0858803 0.763 255 255 255
0.710667 0.174841 2.489 255 255 255
0.289278 0.62327 1.686 255 255 255
0.623199 0.531821 1.794 255 255 255
0.823595 0.498424 1.779 0 0 0
-0.39048 0.121451 0.837 255 255 255
-0.173012 0.115429 0.73 255 255 255
0.701114 -0.418815 2.604 255 255 255
0.0853486 0.0317796 1.208 255 255 255
0.463725 -0.00373838 2.755 255 255 255
0.853724 -0.0997325 2.684 255 255 255
0.958368 -0.326135 2.449 255 255 255
0.594871 -0.162979 2.719 255 255 255
-0.105805 -0.296656 1.826 255 255 255
0.619034 -0.915081 2.479 255 255 255
0.875 0.349912 1.917 255 255 255
-0.348426 -0.150028 1.567 0 0 0
0.664288 0.394052 2.121 255 255 255
-0.0312607 0.173767 0.485 255 255 255
-0.252954 -0.239131 1.774 255 255 255
0.475273 -0.649824 2.53 255 255 255
-0.413498 -0.399667 1.769 255 255 255
0.88399 -0.115644 1.784 255 255 255
-1.10779 -0.426224 2.572 255 255 255
0.578577 0.622598 1.62 255 255 255
0.339044 0.310878 2.383 255 255 255
0.89367 0.299084 2.158 255 255 255
-0.29906 0.223917 0.684 255 255 255
0.981848 0.053757 2.509 255 255 255
0.21688 -0.848213 2.449 255 255 255
0.234415 0.262591 2.236 255 255 255
0.039966 0.160566 0.835 255 255 255
-0.147233 0.219988 0.672 255 255 255
-1.06246 -0.803576 2.615 255 255 255
0.916038 -0.507895 1.905 255 255 255
0.468209 0.0545444 2.755 255 255 255
0.843958 0.38286 1.991 255 255 255
-0.852923 -0.58277 2.561 255 255 255
0.932788 -0.401963 2.151 255 255 255
-0.464542 -0.25991 1.616 255 255 255
-0.216005 0.101766 0.743 255 255 255
0.643557 -0.0258131 2.719 255 255 255
-0.233564 0.0971902 0.745 255 255 255
-0.193504 0.0247029 0.939 255 255 255
0.656572 -0.893997 2.499 255 255 255
-0.357589 0.190637 0.705 255 255 255
-0.356958 0.216125 0.684 255 255 255
-1.38138 -0.795002 2.672 0 0 0
-0.155218 0.203954 0.688 255 255 255
0.930435 -0.42776 2.212 255 255 255
-0.205274 0.0774357 0.93 255 255 255
0.823647 0.455804 1.646 255 255 255
-0.184278 0.0593384 0.931 255 255 255
-0.29597 0.255256 0.667 255 255 255
-0.84515 -0.930924 2.489 255 255 255
0.976447 -0.628074 2.286 255 255 255
-0.241922 0.224701 0.683 255 255 255
0.907273 -0.292418 2.649 255 255 255
-1.35101 -0.563131 2.707 255 255 255
-0.562122 -0.172603 1.587 255 255 255
-0.55151 -0.0858352 1.432 255 255 255
0.47302 0.530344 1.882 255 255 255
0.862462 -0.117204 2.684 255 255 255
0.77444 0.441759 1.923 0 0 0
0.632684 0.510379 1.865 255 255 255
0.942004 -0.503164 1.959 255 255 255
-0.374618 0.140039 0.803 255 255 255
-0.346853 -0.27728 1.724 255 255 255
-0.00205395 0.140117 0.486 255 255 255
0.0336701 0.0610039 1.066 255 255 255
0.221233 0.490892 2.078 255 255 255
-0.184407 0.215968 0.68 255 255 255
-0.387303 -0.0276675 1.229 255 255 255
-0.0629736 0.15401 0.48 255 255 255
0.912654 -0.463139 2.615 255 255 255
-0.663953 -0.0729874 1.366 255 255 255
0.11492 -0.0461227 1.429 255 255 255
-0.159166 0.243316 0.667 255 255 255
0.794328 0.426942 1.941 255 255 255
0.71784 0.600781 1.7 255 255 255
-0.25711 0.23547 0.682 255 255 255
0.0164828 0.241577 0.703 255 255 255
0.972018 -0.615728 2.338 255 255 255
-0.642114 -0.798671 2.519 255 255 255
0.640552 -0.553935 2.582 255 255 255
-1.13006 -0.59572 2.695 255 255 255
0.592074 -0.0893405 2.768 255 255 255
-0.0900909 -0.349451 1.87 255 255 255
0.709801 0.597361 1.714 255 255 255
-0.0628761 0.0607957 0.886 255 255 255
0.210374 -0.316239 2.071 255 255 255
-0.332115 -0.158296 1.599 0 0 0
0.359282 0.392516 2.338 255 255 255
-1.00712 -0.731233 2.615 255 255 255
0.230744 0.594356 1.763 255 255 255
-0.152312 0.133561 0.745 255 255 255
-0.198269 0.118214 0.74 255 255 255
-0.20372 -0.295363 1.748 255 255 255
-0.358363 -0.319311 1.739 0 0 0
0.69167 0.178173 2.479 255 255 255
-0.436043 -0.337258 1.744 255 255 255
0.98544 0.141779 2.55 255 255 255
0.495039 0.423561 2.166 255 255 255
0.659075 -0.664793 2.54 255 255 255
0.984208 -0.228634 2.236 255 255 255
0.950119 -0.204244 2.469 255 255 255
0.922767 -0.468079 2.572 255 255 255
-1.25394 -0.800089 2.66 255 255 255
-0.0130755 0.106461 0.484 255 255 255
0.910267 -0.535501 1.893 255 255 255
0.791757 0.406846 1.966 255 255 255
-1.1169 -0.643962 2.695 255 255 255
-0.130601 -0.0630957 1.393 255 255 255
-0.166207 0.0756383 0.891 255 255 255
-0.160854 0.254491 0.665 255 255 255
0.569814 0.368676 2.196 255 255 255
0.427848 0.0993773 2.755 255 255 255
-0.272191 0.0674038 0.794 255 255 255
-0.0290157 0.155231 1.013 255 255 255
-1.2272 -0.822645 2.649 255 255 255
-0.237616 0.18159 0.71 255 255 255
0.393684 0.471875 2.114 255 255 255
-0.725826 -0.939515 2.469 255 255 255
-0.535567 -0.225723 1.616 255 255 255
0.870617 0.343751 1.935 255 255 255
0.077017 0.0163721 1.232 255 255 255
-0.704 -0.533372 2.449 255 255 255
0.524055 -0.424037 2.719 255 255 255
-0.0781205 -0.824301 2.449 255 255 255
-0.0666017 0.144034 0.478 255 255 255
0.423794 -0.564734 2.593 255 255 255
0.194458 0.585999 1.799 255 255 255
-0.1684 0.0175363 1.06 255 255 255
-0.170638 0.0426729 0.931 255 255 255
-0.26752 0.156596 0.745 255 255 255
-0.283286 0.156596 0.745 255 255 255
0.0810813 0.175296 0.969 255 255 255
0.462091 -0.37979 2.719 255 255 255
-0.69022 -0.690996 2.53 255 255 255
0.735798 0.201532 2.374 255 255 255
0.663391 0.213314 2.42 255 255 255
0.870495 0.336482 1.985 255 255 255
0.256189 0.556319 1.887 255 255 255
0.807888 0.472187 1.87 255 255 255
-0.349426 0.15378 0.749 255 255 255
0.811151 0.151143 2.499 255 255 255
0.852023 0.0325711 2.793 255 255 255
-0.314576 -0.0166757 1.16 255 255 255
-0.173393 0.130273 0.747 255 255 255
-0.0213783 -0.375303 1.991 255 255 255
0.652749 -0.440417 2.684 255 255 255
-0.930501 -0.743999 2.615 255 255 255
0.440465 -0.315038 2.695 255 255 255
0.303497 -0.635859 2.54 255 255 255
-0.184422 0.228998 0.676 255 255 255
0.9338 -0.0716531 2.22 255 255 255
-0.18289 -0.0139456 1.254 255 255 255
0.659734 -0.217029 2.731 255 255 255
0.442426 -0.378113 2.707 255 255 255
-0.319172 0.162947 0.73 255 255 255
-0.128572 0.255957 0.666 255 255 255
0.953259 0.192578 2.509 255 255 255
0.603613 -0.484095 2.66 255 255 255
-0.294071 0.0190658 0.963 255 255 255
0.0587403 0.228731 0.851 255 255 255
-0.268532 0.235886 0.68 255 255 255
0.140516 -0.19509 1.821 255 255 255
0.87572 -0.187695 1.779 255 255 255
0.155982 -0.455947 2.158 255 255 255
-0.264372 -0.146407 1.583 255 255 255
0.0498983 0.142336 0.891 255 255 255
0.221541 0.622464 1.714 255 255 255
0.0204331 0.0924976 1.012 255 255 255
0.359616 -0.78013 2.499 255 255 255
0.322322 0.184465 2.626 255 255 255
-0.0867623 0.110781 0.755 255 255 255
-0.0680707 0.127632 0.472 255 255 255
0.984393 -0.230611 2.22 255 255 255
0.165186 -0.520611 2.338 255 255 255
-0.511024 -0.656526 2.54 0 0 0
-0.241567 -0.884081 2.449 255 255 255
0.924213 0.326169 1.853 255 255 255
-0.634344 -0.139666 1.484 255 255 255
0.855528 -0.374323 2.649 255 255 255
-0.243693 0.21291 0.688 255 255 255
-0.812852 -0.582125 2.54 255 255 255
-0.308293 -0.308877 1.744 255 255 255
-0.612311 -0.904007 2.449 255 255 255
0.0167769 0.0484523 1.096 255 255 255
0.60357 0.235797 2.449 255 255 255
0.928049 0.13778 1.917 255 255 255
0.177078 -0.340881 2.037 255 255 255
0.897653 -0.5348 1.848 255 255 255
-0.388257 -0.223093 1.616 255 255 255
0.93254 -0.472462 2.383 255 255 255
-0.356935 0.197548 0.697 255 255 255
0.869225 -0.693203 2.479 255 255 255
0.897472 -0.745647 2.479 255 255 255
0.941247 -0.207992 2.672 255 255 255
-0.0783369 0.12265 0.745 255 255 255
-0.655445 -0.0976911 1.435 255 255 255
0.669945 0.305315 2.128 255 255 255
0.943886 -0.558315 2.402 255 255 255
0.553589 0.487174 1.917 255 255 255
-0.101931 0.0478734 0.887 255 255 255
0.175468 -0.391091 2.057 255 255 255
-0.7207 -0.103004 1.381 255 255 255
0.0894442 0.371727 1.01 255 255 255
0.529906 0.445502 2.136 255 255 255
0.626989 -0.283796 2.649 255 255 255
0.0936627 0.0807032 1.098 255 255 255
-1.34827 -0.689379 2.684 255 255 255
0.312305 0.495853 2.099 255 255 255
-1.37632 -0.750337 2.731 255 255 255
0.873865 0.306326 1.978 255 255 255
0.039989 0.179042 0.808 255 255 255
0.893473 -0.190054 1.774 255 255 255
0.756218 -0.567129 2.604 255 255 255
-0.670579 -0.21453 1.484 255 255 255
0.0355804 -0.0827468 1.419 255 255 255
-0.00749682 0.133979 1.002 255 255 255
-0.0555709 -0.424566 2.057 255 255 255
0.216083 -0.650532 2.44 255 255 255
0.941324 -0.641862 2.499 255 255 255
0.418779 0.58729 1.794 255 255 255
0.678965 -0.0656354 2.719 255 255 255
-0.981436 -0.627475 2.626 255 255 255
0.645841 -0.821562 2.489 255 255 255
-0.342049 -0.122761 1.484 255 255 255
-0.219214 0.21867 0.685 255 255 255
0.97346 0.0703682 2.519 255 255 255
-0.223444 -0.810943 2.469 255 255 255
0.893437 -0.656896 2.479 255 255 255
0.526149 -0.272389 2.707 255 255 255
-0.150391 -0.255055 1.826 255 255 255
-0.366973 0.155012 0.755 255 255 255
0.876748 0.354208 1.842 255 255 255
-0.855584 -0.691872 2.66 255 255 255
0.85966 -0.342826 1.758 255 255 255
-0.532078 0.0559888 1.007 255 255 255
-0.622479 -0.165803 1.502 255 255 255
-0.367267 0.0747778 0.79 255 255 255
0.0290386 0.228596 0.731 255 255 255
0.0637943 -0.0269206 1.289 255 255 255
-0.331959 -0.879247 2.469 255 255 255
0.950393 -0.102743 2.649 0 0 0
0.908333 -0.636265 2.509 255 255 255
0.621447 0.25351 2.189 255 255 255
-0.347937 0.0834588 0.787 255 255 255
0.860215 -0.16591 1.826 255 255 255
-0.00741992 0.119168 0.475 255 255 255
-1.1225 -0.460813 2.626 255 255 255
0.0264035 0.240546 0.724 255 255 255
0.109163 -0.069304 1.477 255 255 255
0.778349 0.131511 2.593 255 255 255
-1.38798 -0.574477 2.719 255 255 255
0.0615013 0.30763 0.891 255 255 255
-0.195065 0.0925486 0.737 0 0 0
-0.726025 -0.706127 2.54 255 255 255
-0.241399 -0.290502 1.753 255 255 255
0.888395 0.0416614 2.793 255 255 255
0.287904 0.535833 1.935 255 255 255
0.474819 0.552868 1.865 255 255 255
-0.39766 -0.427781 1.815 255 255 255
-0.291808 0.15838 0.742 255 255 255
0.86268 -0.0238392 1.87 255 255 255
0.316101 0.509363 2.057 255 255 255
-0.632243 -0.609093 2.449 255 255 255
-0.0326445 0.131124 0.46 255 255 255
-0.287874 -0.271305 1.758 255 255 255
-1.09001 -0.93714 2.55 255 255 255
-0.454805 -0.00776123 1.244 255 255 255
0.334039 0.555008 1.893 255 255 255
0.872731 -0.841815 2.489 255 255 255
-0.197715 -0.919949 2.449 255 255 255
-0.168356 0.239691 0.669 255 255 255
-0.340283 0.154171 0.745 255 255 255
0.882553 -0.214088 1.758 255 255 255
0.93196 -0.549057 2.54 255 255 255
-0.156377 -0.728403 2.489 255 255 255
-0.480824 -0.154136 1.583 255 255 255
-0.042716 0.157588 0.472 255 255 255
-0.794559 -0.736971 2.561 255 255 255
-0.506736 -0.927707 2.459 255 255 255
0.0818344 0.372682 0.978 255 255 255
0.943685 -0.488748 2.261 255 255 255
0.907478 0.0502973 2.768 255 255 255
0.960509 -0.307709 2.561 255 255 255
0.424743 0.550586 1.899 255 255 255
0.0884529 0.0498623 1.171 255 255 255
-0.328593 0.0960714 0.796 255 255 255
-0.113948 0.106172 0.74 255 255 255
-0.511742 -0.165271 1.591 255 255 255
-0.171603 -0.0422173 1.308 255 255 255
0.829686 -0.482505 2.582 255 255 255
0.0416717 0.157802 0.842 255 255 255
-0.00668869 0.133922 0.478 255 255 255
0.767485 -0.176253 2.719 255 255 255
0.340325 0.343193 2.392 255 255 255
-0.120051 0.123144 0.748 255 255 255
-0.115239 -0.583239 2.392 0 0 0
-0.0566095 0.0544402 0.925 255 255 255
-0.217426 -0.114508 1.412 255 255 255
0.130099 -0.142215 1.686 255 255 255
0.115113 -0.0338678 1.403 255 255 255
0.942931 -0.598913 2.44 255 255 255
-1.32229 -1.03542 2.805 255 255 255
-0.631396 -0.771002 2.509 255 255 255
0.833518 0.377739 2.166 255 255 255
0.0266223 0.222344 0.73 255 255 255
0.24452 -0.431814 2.196 255 255 255
-0.052882 0.10697 0.781 255 255 255
-0.293391 -0.904007 2.449 255 255 255
0.582653 0.266007 2.204 255 255 255
0.250171 0.625679 1.7 255 255 255
-0.176404 -0.936538 2.43 255 255 255
-0.44254 -0.182169 1.603 255 255 255
-1.06911 -0.954493 2.53 255 255 255
-0.223224 0.193309 0.694 255 255 255
0.716648 0.531821 1.794 255 255 255
0.957459 -0.525746 2.294 255 255 255
0.420517 0.312009 2.278 255 255 255
0.442412 0.499458 1.978 255 255 255
0.719789 0.214518 2.347 255 255 255
-0.483617 -0.139828 1.567 255 255 255
-0.0730511 -0.439045 2.078 255 255 255
0.772911 -0.232743 2.707 255 255 255
-0.580607 -0.651098 2.519 255 255 255
-0.155125 0.0399409 0.938 255 255 255
0.896895 0.180242 1.972 255 255 255
0.710107 -0.955718 2.459 255 255 255
0.144803 -0.23969 1.917 255 255 255
-0.298421 0.238545 0.675 255 255 255
-0.524388 -0.26763 1.664 255 255 255
0.601664 0.614485 1.677 255 255 255
-0.327948 0.252378 0.668 255 255 255
-0.0230838 0.03932 1.043 255 255 255
-0.323856 0.215955 0.687 255 255 255
0.541364 -0.468536 2.695 255 255 255
-0.0346616 0.144519 0.467 255 255 255
0.903505 -0.368476 2.638 255 255 255
-0.237809 -0.0690549 1.333 255 255 255
0.94737 -0.453092 2.582 255 255 255
-0.286004 -0.217577 1.696 255 255 255
0.902323 0.0419795 1.821 255 255 255
-0.397129 -0.250008 1.62 255 255 255
-0.3242 0.259598 0.667 255 255 255
0.930123 -0.0351214 2.755 255 255 255
-0.193285 0.0873739 0.744 255 255 255
-0.398661 -0.803657 2.459 255 255 255
0.0992051 0.0808502 1.1 255 255 255
-0.217781 0.222804 0.684 255 255 255
-0.0464589 0.154955 0.471 255 255 255
0.836267 -0.683848 2.489 255 255 255
0.0707274 -0.389261 2.03 255 255 255
-0.0925871 -0.308068 1.859 255 255 255
-0.849825 -0.963491 2.479 255 255 255
0.0434586 0.0483638 1.094 255 255 255
0.0440584 -0.16603 1.65 255 255 255
-0.0912251 -0.0988484 1.452 255 255 255
-1.34827 -0.602024 2.684 255 255 255
0.336561 -0.846501 2.479 255 255 255
0.0744154 -0.578295 2.356 255 255 255
0.512469 -0.639684 2.572 255 255 255
-0.316991 -0.189273 1.642 255 255 255
-0.74994 -0.943533 2.469 255 255 255
0.81475 -0.454628 2.615 255 255 255
-0.14365 0.108251 0.714 255 255 255
0.823595 0.495529 1.779 0 0 0
-0.0539324 0.0905206 0.483 255 255 255
0.281052 0.487244 2.121 255 255 255
0.865152 -0.0117417 1.882 255 255 255
-0.522546 -0.313651 1.739 255 255 255
0.976928 -0.326879 2.236 255 255 255
-0.3002 -0.239411 1.714 255 255 255
-0.0124146 0.101194 0.489 255 255 255
-0.345863 0.242957 0.669 255 255 255
-0.320313 0.181451 0.714 255 255 255
0.375399 0.298884 2.32 255 255 255
0.117204 0.0507565 1.192 255 255 255
0.918991 -0.7877 2.329 255 255 255
-0.619977 -0.270862 1.603 255 255 255
-0.166322 -0.340172 1.774 255 255 255
-0.1147 -0.535304 2.303 255 255 255
0.660017 0.137458 2.626 255 255 255
-0.075015 -0.285508 1.953 255 255 255
0.880944 -0.19121 1.87 255 255 255
-0.313324 -0.888066 2.449 255 255 255
0.743502 -0.550179 2.604 255 255 255
0.923573 -0.789476 2.312 255 255 255
-0.115845 0.0649007 0.883 255 255 255
-0.0111562 0.0628403 1.039 255 255 255
0.563416 -0.91345 2.519 255 255 255
-0.458738 -0.0611933 1.351 255 255 255
-0.219818 -0.329456 1.763 255 255 255
-0.0761041 0.111974 0.484 255 255 255
-0.279501 -0.229586 1.724 0 0 0
0.87326 -0.757749 2.479 255 255 255
0.453877 0.146827 2.805 255 255 255
0.937555 -0.140681 2.347 255 255 255
-0.568239 -0.258747 1.642 255 255 255
-0.0900839 0.255497 0.662 0 0 0
-0.24161 0.238854 0.679 255 255 255
-0.175677 -0.0395677 1.291 0 0 0
0.607817 0.623037 1.642 255 255 255
0.94566 -0.683848 2.489 255 255 255
0.640717 -0.0609406 2.707 255 255 255
0.660598 -0.711581 2.53 255 255 255
-0.354543 0.0925328 0.799 255 255 255
0.237059 0.591476 1.789 255 255 255
0.855164 0.384356 1.887 255 255 255
0.946362 -0.115305 2.158 255 255 255
0.938436 -0.0910004 2.449 255 255 255
0.896521 0.304067 1.923 255 255 255
-0.580699 0.0228869 1.156 255 255 255
0.462399 -0.36328 2.695 255 255 255
0.933145 -0.283796 2.649 255 255 255
-0.543703 -0.704388 2.519 255 255 255
0.0438555 -0.39851 2.01 255 255 255
0.314657 -0.674527 2.53 255 255 255
-0.313915 0.23478 0.68 255 255 255
0.100637 0.333291 1.077 255 255 255
0.282627 0.494314 2.107 255 255 255
-0.809652 -0.567482 2.53 255 255 255
-0.289499 -0.0071311 1.143 255 255 255
-0.201989 0.16189 0.736 255 255 255
0.961237 -0.233993 2.53 255 255 255
0.559463 -0.264747 2.719 255 255 255
-0.253307 0.148308 0.746 255 255 255
-0.0431275 0.120644 0.46 255 255 255
0.965768 -0.359969 2.261 255 255 255
0.0210405 -0.602702 2.392 255 255 255
-0.527183 -0.784196 2.499 255 255 255
-0.305742 0.0582889 0.811 255 255 255
0.526509 -0.138237 2.755 255 255 255
-0.408192 0.113278 0.837 255 255 255
-0.262993 0.178877 0.713 255 255 255
-0.499286 -0.018027 1.254 255 255 255
0.8564 -0.169368 1.769 255 255 255
-1.41521 -0.876401 2.695 255 255 255
0.29639 0.033887 2.55 255 255 255
0.0758939 0.209484 0.925 255 255 255
-0.0384493 0.125839 0.772 255 255 255
0.775054 0.552257 1.794 0 0 0
-0.749638 -0.708907 2.55 255 255 255
-0.00789126 -0.00841008 1.348 255 255 255
0.495117 0.0366112 2.755 255 255 255
-0.147343 0.167743 0.715 255 255 255
0.415585 -0.694425 2.469 255 255 255
0.664291 -0.383893 2.626 255 255 255
-0.0100881 0.102616 0.492 255 255 255
-1.20025 -0.643962 2.695 255 255 255
-0.0460224 0.130092 0.459 255 255 255
-0.0375831 -0.333183 1.991 255 255 255
-0.149931 -0.138107 1.52 0 0 0
0.503582 0.486789 1.953 255 255 255
-1.11261 -0.876989 2.593 255 255 255
0.936296 0.0563773 2.143 255 255 255
-0.926244 -0.701445 2.615 255 255 255
-0.870296 -0.704395 2.626 255 255 255
-0.136868 0.111893 0.715 255 255 255
-0.0137488 0.161821 0.48 255 255 255
0.535335 -0.933139 2.411 255 255 255
-0.529582 -0.122374 1.509 255 255 255
0.00286807 0.192244 0.733 255 255 255
-0.174579 0.0685163 0.912 255 255 255
-0.2822 0.241124 0.673 255 255 255
-0.421883 0.00883579 1.051 255 255 255
0.518112 0.395999 2.189 255 255 255
0.645841 -0.789159 2.489 255 255 255
0.102898 -0.149556 1.646 255 255 255
-0.04163 0.115404 0.46 255 255 255
0.930154 -0.733674 2.338 255 255 255
-0.196084 0.207826 0.686 255 255 255
0.10286 -0.0148242 1.333 255 255 255
0.921603 -0.816213 2.261 255 255 255
0.568309 0.209597 2.469 255 255 255
0.294189 -0.0925223 2.604 255 255 255
-1.19571 -0.43041 2.572 255 255 255
-0.3768 -0.217294 1.612 0 0 0
0.55663 -0.49283 2.684 255 255 255
-0.567789 -0.184778 1.603 255 255 255
0.552654 -0.813462 2.489 255 255 255
0.589377 0.371063 2.189 255 255 255
-0.530287 -0.237411 1.624 255 255 255
0.387451 -0.915408 2.469 255 255 255
0.10765 0.342055 1.077 255 255 255
-0.0371552 0.0878403 0.928 255 255 255
-0.554164 -0.0960204 1.445 255 255 255
0.353904 0.420369 2.303 255 255 255
0.356126 -0.853921 2.42 255 255 255
-0.624201 0.0215326 1.185 255 255 255
0.310368 0.556767 1.899 255 255 255
-0.649895 -0.143133 1.47 255 255 255
-0.371599 -0.377855 1.748 255 255 255
0.920154 -0.503525 2.519 255 255 255
0.225879 0.555903 1.865 255 255 255
0.116644 -0.358468 2.024 255 255 255
0.440179 -0.0859701 2.805 255 255 255
-0.279706 -0.00526184 1.141 255 255 255
0.526149 -0.444191 2.707 255 255 255
0.833406 0.430824 1.763 255 255 255
0.623184 0.393902 2.158 255 255 255
0.126487 -0.269031 1.972 255 255 255
-0.443644 -0.263692 1.607 255 255 255
-0.0783243 -0.496117 2.228 255 255 255
-0.357694 0.156635 0.751 255 255 255
0.48854 0.5358 1.848 255 255 255
-0.243427 0.123967 0.753 255 255 255
0.493249 -0.325394 2.672 255 255 255
0.175642 -0.758589 2.43 255 255 255
0.9338 -0.418469 2.22 255 255 255
-0.451852 -0.359509 1.784 255 255 255
-0.998649 -0.885428 2.593 255 255 255
0.935147 -0.120083 2.181 255 255 255
0.878788 0.351426 1.859 255 255 255
0.740361 -0.421265 2.593 255 255 255
-0.605894 -0.158727 1.528 255 255 255
0.0615013 0.166985 0.891 255 255 255
0.765242 -0.899336 2.469 255 255 255
0.927998 0.00946121 2.684 255 255 255
-0.317256 0.243315 0.673 255 255 255
-0.0095013 0.232224 0.679 255 255 255
0.303548 0.593165 1.821 255 255 255
0.98607 0.0982764 2.499 255 255 255
-1.30992 -0.635191 2.695 255 255 255
0.470065 0.348412 2.181 255 255 255
