ply
format ascii 1.0
comment Created by Open3D
element vertex 1290
property double x
property double y
property double z
property uchar red
property uchar green
property uchar blue
end_header
-0.183135 -0.169999 0.51 255 255 255
-0.23331 -0.0347575 0.55 255 255 255
0.12052 -0.258499 0.768 255 255 255
-0.286532 0.137008 0.576 255 255 255
-0.23339 0.0544027 0.606 255 255 255
-0.161602 0.218474 0.559 255 255 255
-0.196786 0.158999 0.588 255 255 255
0.0381937 0.171099 0.682 255 255 255
-0.279644 0.15251 0.564 255 255 255
-0.228692 0.0834985 0.711 255 255 255
0.386299 -0.134594 0.767 255 255 255
0.200405 -0.13536 0.896 255 255 255
-0.101357 -0.0184205 0.882 255 255 255
0.0446781 -0.264309 0.874 255 255 255
-0.186831 -0.109828 0.545 255 255 255
-0.0837398 0.206526 0.601 255 255 255
0.211238 0.128438 0.804 255 255 255
0.385541 -0.0432795 0.81 255 255 255
-0.0344536 0.192911 0.63 255 255 255
0.169943 0.139236 0.718 255 255 255
-0.023774 0.0150819 0.83 255 255 255
0.177962 0.0238873 0.908 0 0 0
0.123164 0.118645 0.65 255 255 255
0.244743 0.200103 0.698 0 0 0
0.258945 -0.185469 0.858 255 255 255
0.2179 -0.0927741 1.059 255 255 255
0.351538 -0.137725 0.823 255 255 255
0.253841 -0.277403 0.884 255 255 255
0.366268 -0.0163882 0.851 255 255 255
-0.0593089 -0.348462 0.944 255 255 255
0.156355 0.0498495 0.847 255 255 255
-0.224544 0.149431 0.588 255 255 255
-0.194617 -0.01251 0.599 255 255 255
0.400936 0.132721 0.857 255 255 255
-0.18055 0.0533905 0.654 255 255 255
-0.151202 0.0193929 0.656 255 255 255
-0.141573 0.128753 0.687 255 255 255
0.263288 -0.0978065 0.972 255 255 255
0.0246292 0.217091 0.62 255 255 255
0.405085 0.17253 0.875 255 255 255
-0.0949234 0.197706 0.61 255 255 255
-0.164391 0.1571 0.599 255 255 255
0.388544 0.147305 0.886 255 255 255
-0.153139 -0.138781 0.558 255 255 255
0.00846768 0.215733 0.619 255 255 255
0.336595 -0.0819739 0.871 255 255 255
0.0224854 0.0464545 0.677 255 255 255
-0.13473 -0.164818 0.557 255 255 255
-0.105264 -0.34856 0.916 255 255 255
-0.284854 0.122509 0.592 255 255 255
-0.276193 0.0552663 0.574 255 255 255
-0.0745637 -0.220956 0.839 255 255 255
-0.147999 0.0119202 0.656 255 255 255
0.0458301 0.0754315 0.68 255 255 255
0.194404 0.22641 0.662 255 255 255
-0.188283 -0.151552 0.515 255 255 255
0.288794 -0.0204254 0.978 255 255 255
-0.0494165 0.213993 0.6 255 255 255
-0.250462 0.0621296 0.595 255 255 255
0.441906 0.333298 0.886 255 255 255
0.258969 -0.26807 0.877 255 255 255
0.24521 0.0154533 1.036 255 255 255
0.356379 -0.232745 0.778 255 255 255
0.122408 0.17437 0.669 255 255 255
0.140527 -0.263354 0.723 255 255 255
0.307562 -0.129817 0.898 255 255 255
0.265353 0.0807983 0.884 255 255 255
-0.261352 -0.0140429 0.545 255 255 255
-0.283611 0.0615896 0.572 255 255 255
0.315275 -0.136665 0.895 255 255 255
0.411014 0.142535 0.849 255 255 255
-0.217769 0.126648 0.612 255 255 255
-0.0516692 0.183475 0.64 255 255 255
0.14202 0.21102 0.617 255 255 255
0.395279 0.134114 0.866 255 255 255
0.0585045 0.0527512 0.673 255 255 255
-0.196797 0.0453518 0.631 255 255 255
-0.166341 -0.0553999 0.599 255 255 255
-0.110267 -0.130487 0.586 255 255 255
0.230295 -0.153339 0.882 255 255 255
0.196425 0.136399 0.797 255 255 255
-0.151113 0.216756 0.564 255 255 255
0.0179281 0.134 0.715 255 255 255
0.00396706 0.131857 0.716 255 255 255
0.194795 0.0953122 0.823 255 255 255
0.160649 0.207593 0.631 255 255 255
0.238438 0.0714322 0.875 255 255 255
0.340896 0.00760836 0.905 255 255 255
-0.223712 0.170752 0.576 255 255 255
-0.0367548 -0.140177 0.918 255 255 255
-0.17145 -0.0715758 0.58 255 255 255
0.266382 -0.335803 0.864 255 255 255
-0.0753864 -0.261399 0.833 255 255 255
0.411224 0.31752 0.924 255 255 255
-0.215883 0.20929 0.54 255 255 255
0.32787 -0.2647 0.798 255 255 255
-0.160693 -0.124475 0.559 255 255 255
-0.128392 -0.164176 0.561 255 255 255
0.178868 -0.275531 0.721 0 0 0
-0.162634 0.141418 0.607 255 255 255
0.193978 -0.225349 0.861 255 255 255
-0.158435 0.0374836 0.655 255 255 255
-0.181159 0.06514 0.739 255 255 255
0.431589 0.256786 0.871 255 255 255
-0.257667 -0.0701307 0.508 255 255 255
0.35107 0.110493 0.928 255 255 255
0.117221 0.229661 0.624 0 0 0
-0.144514 0.189216 0.578 255 255 255
0.238692 0.160114 0.707 255 255 255
-0.135928 -0.130182 0.932 255 255 255
0.0164102 -0.215771 0.969 255 255 255
-0.216682 0.203009 0.542 255 255 255
0.287749 -0.112794 0.914 255 255 255
-0.279483 0.0609769 0.575 255 255 255
0.182611 0.123738 0.799 255 255 255
-0.137412 0.0473232 0.724 255 255 255
-0.131094 -0.169867 0.909 255 255 255
-0.118478 -0.291526 0.892 255 255 255
0.366523 -0.12523 0.803 255 255 255
-0.201571 -0.111711 0.537 255 255 255
-0.226746 -0.172074 0.481 255 255 255
0.430369 0.29736 0.895 255 255 255
-0.280455 0.0809073 0.577 255 255 255
0.359342 -0.0496247 0.851 255 255 255
0.190515 0.133425 0.758 255 255 255
0.245805 0.00371187 1.053 255 255 255
0.216597 0.0262868 0.941 255 255 255
0.0772754 0.0625181 0.684 255 255 255
0.0978235 -0.207411 0.905 255 255 255
0.240886 0.177944 0.687 255 255 255
-0.157023 0.115716 0.696 255 255 255
-0.250337 -0.00796407 0.554 255 255 255
0.0950901 0.060292 0.684 255 255 255
0.2347 0.0509292 0.916 255 255 255
0.246702 0.0756174 0.874 255 255 255
0.0893382 0.140302 0.7 255 255 255
-0.018027 -0.248398 0.955 0 0 0
0.0660524 -0.0708112 0.856 255 255 255
-0.0773559 0.0371727 0.811 255 255 255
0.0256772 0.0506359 0.674 255 255 255
0.343482 -0.130377 0.836 255 255 255
0.0858245 0.167664 0.664 255 255 255
0.20611 0.22419 0.665 255 255 255
0.387475 0.0572772 0.855 255 255 255
-0.0368057 -0.105629 0.739 255 255 255
-0.166517 0.182 0.576 255 255 255
0.0932621 -0.268117 0.85 255 255 255
-0.123522 -0.156981 0.568 255 255 255
0.078011 0.0210188 0.711 0 0 0
-0.15218 -0.0727022 0.597 255 255 255
-0.116728 -0.171785 0.562 255 255 255
-0.059007 -0.273972 0.851 255 255 255
0.182053 -0.24214 0.871 255 255 255
0.381287 -0.064767 0.815 255 255 255
-0.13412 -0.0139385 0.871 255 255 255
0.261036 0.171214 0.696 255 255 255
-0.162878 -0.147077 0.545 255 255 255
-0.279483 0.070334 0.575 255 255 255
0.11737 -0.0894699 0.875 255 255 255
0.190061 0.130892 0.803 255 255 255
0.205456 0.238236 0.656 255 255 255
0.0240211 -0.232029 0.958 255 255 255
0.230157 0.230924 0.672 255 255 255
0.43757 0.260948 0.866 255 255 255
0.0697141 -0.27905 0.773 255 255 255
-0.239792 -0.117473 0.495 255 255 255
0.0747999 0.0350966 0.692 255 255 255
0.331878 -0.293814 0.789 255 255 255
-0.0244075 0.118666 0.728 255 255 255
-0.0899516 0.0518986 0.794 255 255 255
-0.156524 0.0445489 0.665 255 255 255
-0.243999 0.00481723 0.573 255 255 255
0.314546 0.0961065 0.95 255 255 255
-0.00857219 -0.361136 0.941 255 255 255
-0.132471 -0.183988 0.544 255 255 255
-0.192596 -0.0416579 0.584 255 255 255
0.205143 0.241071 0.655 255 255 255
-0.268449 -0.00162643 0.545 255 255 255
-0.223269 -0.0670098 0.543 255 255 255
0.32834 -0.0805928 0.887 255 255 255
-0.101147 -0.204586 0.547 255 255 255
0.26211 -0.105818 0.918 255 255 255
-0.161431 0.200732 0.568 255 255 255
-0.0184803 0.0110963 0.835 255 255 255
0.379729 0.130443 0.889 255 255 255
-0.267376 0.118487 0.596 255 255 255
-0.257019 0.152677 0.575 255 255 255
-0.0606614 0.2079 0.605 255 255 255
0.236936 -0.17304 0.88 255 255 255
-0.165802 -0.113656 0.564 255 255 255
0.258644 -0.17549 0.857 255 255 255
-0.0769266 -0.217185 0.835 0 0 0
0.00654627 0.200474 0.628 255 255 255
0.00221414 -0.223655 0.969 255 255 255
-0.0811983 -0.213619 0.837 255 255 255
0.296291 -0.261779 0.861 255 255 255
-0.0919878 0.151281 0.668 255 255 255
0.255786 0.23325 0.682 255 255 255
-0.260982 0.075494 0.586 255 255 255
-0.0390785 0.200583 0.622 255 255 255
0.32111 -0.170756 0.883 255 255 255
0.108093 0.207264 0.63 255 255 255
-0.260052 0.0974287 0.664 255 255 255
-0.214271 -0.119705 0.515 255 255 255
-0.0585534 0.176006 0.647 255 255 255
-0.272438 -0.0180367 0.532 255 255 255
0.0450213 0.0534463 0.668 255 255 255
0.190869 -0.270039 0.722 255 255 255
0.0584651 0.110222 0.727 255 255 255
-0.0582642 0.0666398 0.785 255 255 255
0.136383 -0.259721 0.726 255 255 255
0.0187835 0.212399 0.627 255 255 255
-0.131176 -0.0199831 0.652 255 255 255
0.225433 -0.055016 1.062 255 255 255
0.0291967 0.223516 0.61 255 255 255
0.374135 -0.0855654 0.811 255 255 255
0.0494447 0.0459056 0.669 255 255 255
-0.0321104 0.0224038 0.802 255 255 255
-0.168036 0.17887 0.578 255 255 255
-0.222936 -0.108985 0.508 255 255 255
0.364873 0.377613 1.017 255 255 255
-0.0386086 0.216561 0.599 255 255 255
0.370431 0.0814381 0.891 255 255 255
0.175977 -0.175119 0.869 255 255 255
0.0129625 0.173601 0.642 255 255 255
0.364726 0.097122 0.902 255 255 255
0.245835 -0.179112 0.861 255 255 255
-0.152988 0.201792 0.571 255 255 255
-0.206969 -0.0802579 0.549 255 255 255
-0.139831 -0.103534 0.59 255 255 255
-0.147308 -0.06128 0.609 255 255 255
-0.0919884 0.111349 0.719 255 255 255
0.043008 -0.227443 0.869 255 255 255
-0.118265 0.0744117 0.76 255 255 255
0.182796 0.226457 0.659 255 255 255
-0.154179 -0.318546 0.951 255 255 255
0.195838 -0.147598 0.882 255 255 255
-0.28766 0.126556 0.584 255 255 255
-0.233033 0.0450765 0.6 255 255 255
-0.201312 -0.100218 0.541 255 255 255
0.0442357 -0.0177612 0.612 255 255 255
0.0397622 0.0383992 0.671 255 255 255
-0.12885 -0.161097 0.563 255 255 255
-0.0850344 0.142244 0.682 255 255 255
-0.166689 -0.0336409 0.611 255 255 255
-0.117908 0.145628 0.667 255 255 255
-0.184012 0.175134 0.575 255 255 255
0.178216 0.160807 0.7 255 255 255
0.119739 -0.268342 0.74 255 255 255
-0.22265 0.0645825 0.609 255 255 255
-0.131008 -0.177639 0.549 255 255 255
-0.0858283 0.00162444 0.856 255 255 255
-0.207336 0.0664351 0.69 255 255 255
0.180713 -0.271257 0.719 0 0 0
0.197792 -0.107015 1.081 255 255 255
0.27766 -0.103614 0.925 255 255 255
-0.125434 -0.181304 0.552 255 255 255
-0.0864158 -0.320298 0.938 255 255 255
0.203079 -0.213394 0.858 255 255 255
-0.20377 0.000163042 0.603 255 255 255
0.301721 0.13969 0.801 0 0 0
0.247263 -0.174515 0.866 255 255 255
-0.0039938 -0.0489549 0.945 255 255 255
-0.274803 0.142384 0.575 255 255 255
-0.242683 -0.143596 0.48 255 255 255
0.246255 0.154641 0.719 255 255 255
-0.277156 0.0685817 0.576 255 255 255
0.385303 -0.13512 0.77 255 255 255
0.100365 0.225763 0.633 255 255 255
0.372386 -0.223356 0.759 255 255 255
0.360489 0.184758 0.81 255 255 255
0.381794 -0.111067 0.786 255 255 255
0.172893 0.233942 0.65 255 255 255
0.340342 -0.0539952 0.877 255 255 255
0.178509 0.191148 0.663 255 255 255
-0.095995 0.139819 0.681 255 255 255
0.334007 -0.271389 0.791 255 255 255
0.343772 -0.188507 0.811 255 255 255
-0.239558 -0.137347 0.48 255 255 255
-0.219612 -0.0959532 0.532 255 255 255
0.318851 0.0566766 0.963 255 255 255
-0.099944 0.214133 0.587 255 255 255
-0.145196 0.153198 0.653 255 255 255
-0.120935 -0.0974661 0.606 255 255 255
-0.188932 -0.18501 0.499 255 255 255
0.0545845 -0.211653 0.851 255 255 255
0.393435 -0.0243352 0.794 255 255 255
0.0280703 -0.112582 0.937 255 255 255
-0.18336 -0.039272 0.591 255 255 255
0.423784 0.334554 0.909 255 255 255
0.378687 -0.147729 0.777 255 255 255
-0.181035 -0.0973581 0.56 255 255 255
0.263295 0.22348 0.693 255 255 255
-0.191541 0.115725 0.634 255 255 255
-0.276284 0.17647 0.55 255 255 255
0.369358 -0.167744 0.776 255 255 255
-0.204834 -0.0940549 0.541 255 255 255
-0.169127 -0.137185 0.548 255 255 255
-0.216741 0.0863579 0.706 255 255 255
0.0523761 -0.0218159 0.614 255 255 255
-0.280496 0.174298 0.546 255 255 255
0.338323 -0.00270375 0.906 255 255 255
0.311013 -0.148435 0.887 255 255 255
-0.153594 0.216372 0.563 255 255 255
0.374173 0.130592 0.9 255 255 255
-0.178911 -0.142703 0.532 255 255 255
-0.144247 -0.328343 0.957 255 255 255
-0.104065 0.065706 0.774 255 255 255
-0.109247 -0.203974 0.543 255 255 255
0.216609 0.233578 0.664 255 255 255
0.325827 -0.0510175 0.9 255 255 255
0.239225 -0.113302 0.997 255 255 255
-0.235752 0.126601 0.607 255 255 255
0.178927 0.137243 0.726 255 255 255
0.0545939 0.20743 0.64 255 255 255
-0.190871 0.133619 0.612 255 255 255
-0.176011 -0.12068 0.55 255 255 255
0.0783634 -0.268987 0.784 255 255 255
0.00961306 0.207628 0.628 255 255 255
0.0441669 -0.0855331 0.864 255 255 255
0.403345 0.0386348 0.814 255 255 255
-0.24805 0.137714 0.587 255 255 255
0.374399 0.365707 1.007 255 255 255
-0.114218 -0.0847857 0.607 255 255 255
0.0986736 -0.229553 0.861 255 255 255
0.337869 -0.249506 0.791 255 255 255
0.223556 0.139409 0.792 255 255 255
-0.145346 -0.138192 0.563 255 255 255
-0.101322 0.155441 0.658 255 255 255
-0.273485 0.195558 0.529 255 255 255
-0.143964 0.033575 0.662 255 255 255
-0.0584126 0.0309498 0.787 255 255 255
-0.210308 -0.171205 0.492 255 255 255
0.135874 -0.175355 0.955 255 255 255
0.113242 -0.0286567 0.935 255 255 255
-0.219548 0.120654 0.617 255 255 255
-0.109818 -0.081234 0.61 0 0 0
-0.120542 -0.0890292 0.609 255 255 255
0.201686 -0.205044 0.864 255 255 255
0.133909 0.0266061 0.9 255 255 255
0.170746 0.0666248 0.85 255 255 255
0.208343 0.113298 0.808 255 255 255
-0.0538844 -0.0106575 0.836 255 255 255
-0.11368 -0.349795 0.9 255 255 255
0.259343 0.114063 0.795 255 255 255
-0.00565501 -0.255975 0.966 255 255 255
0.028285 0.162696 0.684 255 255 255
0.12384 0.110899 0.648 255 255 255
-0.130401 -0.137171 0.578 255 255 255
-0.230134 0.160998 0.578 255 255 255
-0.166388 -0.312028 0.95 255 255 255
-0.277698 0.178971 0.544 255 255 255
0.293804 -0.0543053 0.958 255 255 255
0.0488305 -0.29996 0.802 255 255 255
-0.165579 0.182 0.576 255 255 255
0.215616 0.195638 0.671 255 255 255
0.362242 -0.179314 0.788 255 255 255
-0.104057 -0.145636 0.578 255 255 255
-0.1037 -0.234635 0.854 255 255 255
0.103335 0.15782 0.687 255 255 255
-0.0694635 0.148685 0.671 255 255 255
0.331596 0.018551 0.937 255 255 255
0.0622501 0.0619697 0.678 255 255 255
0.0584651 0.111405 0.727 255 255 255
-0.0289613 0.0971373 0.754 255 255 255
-0.243838 0.128153 0.605 255 255 255
0.272952 -0.156375 0.867 255 255 255
0.231091 0.136659 0.814 255 255 255
-0.155026 -0.144357 0.555 255 255 255
-0.134597 0.143887 0.669 255 255 255
0.386296 -0.0197944 0.82 255 255 255
0.226501 -0.284596 0.884 255 255 255
0.374363 -0.224295 0.758 255 255 255
-0.152872 -0.0193701 0.632 255 255 255
0.0895729 0.092662 0.693 255 255 255
0.238495 -0.0458945 1.051 255 255 255
-0.139271 -0.0857607 0.6 255 255 255
0.227889 0.222069 0.675 255 255 255
-0.214016 0.142735 0.596 255 255 255
0.338141 -0.18326 0.823 255 255 255
0.37745 -0.0265956 0.824 255 255 255
-0.144617 0.144109 0.665 255 255 255
0.264981 -0.279806 0.878 255 255 255
0.378322 -0.178123 0.761 255 255 255
-0.117001 0.0986619 0.729 255 255 255
-0.228835 0.0485658 0.607 255 255 255
-0.244437 -0.0507278 0.539 255 255 255
0.405486 0.132863 0.849 255 255 255
0.0382584 0.225245 0.612 255 255 255
0.417406 0.285425 0.908 255 255 255
0.17305 0.164837 0.693 255 255 255
-0.0469424 0.0168834 0.788 255 255 255
0.160823 -0.0269559 0.984 255 255 255
-0.139498 -0.0461103 0.632 255 255 255
0.138546 -0.0198824 0.952 0 0 0
0.25656 0.018916 1.041 255 255 255
-0.23673 0.0172939 0.585 255 255 255
-0.246445 0.0555378 0.597 255 255 255
0.139735 -0.27588 0.725 255 255 255
0.377291 0.0266359 0.854 255 255 255
0.169614 -0.144569 0.927 255 255 255
0.385412 0.0847902 0.866 255 255 255
0.358294 -0.133569 0.814 255 255 255
0.364048 -0.101317 0.821 255 255 255
0.350386 -0.119064 0.833 255 255 255
0.231251 0.233111 0.672 255 255 255
-0.234334 -0.0630551 0.532 255 255 255
-0.200243 -0.18373 0.487 0 0 0
0.291158 0.0375858 0.997 255 255 255
-0.289485 0.0943167 0.65 255 255 255
-0.158458 0.208496 0.564 255 255 255
0.0970474 0.0810323 0.69 0 0 0
0.0452319 0.227236 0.612 255 255 255
-0.237744 -0.0803159 0.515 255 255 255
-0.193213 0.0774141 0.73 255 255 255
0.322569 -0.130255 0.891 255 255 255
0.293147 -0.209693 0.86 255 255 255
-0.26348 0.0083084 0.557 255 255 255
0.0453624 -0.279668 0.86 255 255 255
-0.0456617 0.193629 0.629 255 255 255
-0.20901 0.206794 0.545 255 255 255
0.266788 0.137566 0.747 255 255 255
0.395366 0.0404995 0.825 255 255 255
0.374121 0.0795393 0.886 255 255 255
0.188474 0.23675 0.649 255 255 255
-0.235777 0.147716 0.585 255 255 255
0.240203 -0.093495 1.029 255 255 255
0.100119 0.206781 0.638 255 255 255
0.215665 0.13578 0.801 255 255 255
0.243152 -0.144104 0.887 255 255 255
-0.158411 -0.193832 0.516 255 255 255
0.326226 -0.300844 0.794 255 255 255
0.112689 -0.233756 0.861 255 255 255
0.357986 -0.285467 0.747 255 255 255
0.330775 0.0353993 0.939 255 255 255
-0.286404 0.0653129 0.572 255 255 255
0.346165 0.0847285 0.927 255 255 255
0.169139 0.0810701 0.842 255 255 255
0.0474492 0.205988 0.642 255 255 255
-0.125095 0.175011 0.632 255 255 255
0.310362 -0.17245 0.877 255 255 255
-0.163352 0.142171 0.606 255 255 255
0.436187 0.315233 0.892 255 255 255
0.329156 0.0932104 0.952 255 255 255
-0.0225309 -0.0133464 0.834 255 255 255
0.140037 -0.181553 0.931 255 255 255
-0.155638 -0.0794144 0.96 255 255 255
-0.205478 0.0120968 0.611 255 255 255
0.353385 -0.0730813 0.85 255 255 255
-0.056696 0.02563 0.781 255 255 255
-0.130546 -0.320627 0.948 255 255 255
0.338685 -0.227325 0.799 255 255 255
-0.136979 0.0219874 0.67 255 255 255
0.200567 0.197025 0.661 255 255 255
-0.0543356 -0.264537 0.843 0 0 0
-0.0355546 0.108287 0.738 255 255 255
0.0494468 -0.110072 0.858 255 255 255
-0.0244737 -0.357413 0.964 255 255 255
-0.157 0.1241 0.686 255 255 255
0.129546 0.214339 0.615 255 255 255
0.0637508 -0.284288 0.777 255 255 255
0.427442 0.217793 0.857 255 255 255
-0.253119 0.121462 0.606 255 255 255
-0.200141 0.0212177 0.616 255 255 255
0.346318 -0.129909 0.833 255 255 255
0.223017 0.119279 0.804 255 255 255
0.0331972 0.119373 0.718 255 255 255
0.35416 -0.195196 0.79 255 255 255
-0.252466 -0.102558 0.493 255 255 255
-0.215527 -0.106503 0.516 255 255 255
0.0955662 -0.226549 0.871 255 255 255
0.147196 0.170675 0.635 255 255 255
0.0150445 0.228639 0.6 255 255 255
-0.150036 -0.06019 0.608 255 255 255
0.237529 -0.127641 0.893 255 255 255
0.368981 0.0669386 0.891 255 255 255
0.436187 0.220067 0.855 255 255 255
-0.0455722 0.205997 0.614 255 255 255
0.202129 0.142145 0.733 255 255 255
-0.0717419 0.167817 0.652 255 255 255
-0.194985 -0.10589 0.543 255 255 255
0.277951 0.0268338 1.02 255 255 255
-0.132553 -0.177315 0.548 255 255 255
-0.140315 -0.108924 0.588 255 255 255
-0.113842 -0.105182 0.605 255 255 255
-0.0356738 -0.208552 0.891 0 0 0
0.112772 0.156264 0.69 255 255 255
0.365668 0.0419098 0.883 255 255 255
0.130228 -0.265707 0.813 255 255 255
-0.0801263 0.0682251 0.774 255 255 255
-0.106515 -0.156881 0.571 255 255 255
-0.256799 0.138673 0.583 255 255 255
-0.043086 0.147658 0.652 255 255 255
0.0826285 0.236741 0.616 255 255 255
-0.176748 -0.135299 0.544 255 255 255
0.0147104 -0.162382 0.961 255 255 255
-0.13926 -0.34477 0.934 255 255 255
-0.150989 0.198182 0.574 255 255 255
0.348321 0.0461023 0.909 255 255 255
-0.190557 -0.181761 0.499 255 255 255
0.306469 -0.219611 0.866 255 255 255
-0.205656 -0.0227283 0.586 255 255 255
-0.226947 0.202999 0.535 255 255 255
-0.215014 -0.103234 0.525 255 255 255
0.335152 -0.244144 0.803 255 255 255
0.342326 -0.177936 0.817 255 255 255
-0.205538 -0.118207 0.527 0 0 0
0.0230168 0.00920929 0.693 0 0 0
0.0651229 0.0826745 0.685 255 255 255
-0.0191169 0.0982339 0.753 255 255 255
-0.0660191 0.20432 0.609 255 255 255
-0.0578926 -0.232127 0.855 255 255 255
-0.187094 -0.10207 0.551 255 255 255
-0.101392 -0.189658 0.858 255 255 255
0.365096 0.410762 1.051 255 255 255
-0.128528 0.19056 0.6 255 255 255
0.400075 0.0665679 0.832 255 255 255
0.0238313 0.0224468 0.684 255 255 255
0.142756 -0.261767 0.809 255 255 255
-0.12685 0.0381413 0.686 255 255 255
0.23865 0.175708 0.687 255 255 255
-0.148702 -0.111388 0.576 255 255 255
0.311695 0.0570886 0.97 255 255 255
-0.121584 -0.121776 0.59 255 255 255
-0.303873 0.105034 0.638 255 255 255
0.397653 -0.0497348 0.787 255 255 255
-0.17606 0.0218377 0.634 255 255 255
-0.0168036 0.190461 0.622 255 255 255
-0.158284 0.0202733 0.65 255 255 255
0.357653 -0.0700667 0.847 255 255 255
-0.203768 -0.132533 0.516 0 0 0
0.171126 0.134323 0.723 255 255 255
0.265559 0.182606 0.705 255 255 255
-0.128637 0.0176787 0.672 255 255 255
0.0163355 -0.329133 0.88 255 255 255
0.43391 0.230075 0.856 255 255 255
-0.213031 0.176394 0.57 255 255 255
-0.217468 -0.174361 0.483 255 255 255
0.361534 -0.0722215 0.84 255 255 255
0.325767 -0.0337396 0.908 255 255 255
-0.230122 0.037923 0.595 255 255 255
-0.176058 -0.188504 0.504 255 255 255
-0.243402 -0.0620725 0.531 255 255 255
-0.23085 0.0712236 0.615 255 255 255
0.40092 0.288692 0.928 255 255 255
0.146923 -0.16377 0.908 255 255 255
0.357484 0.189516 0.786 255 255 255
0.269748 -0.306459 0.889 255 255 255
0.394894 0.0721578 0.85 255 255 255
0.0446417 -0.316419 0.821 255 255 255
0.258839 0.0673997 0.917 255 255 255
0.0671306 -0.0815722 0.852 255 255 255
0.36411 0.209917 0.781 255 255 255
0.359414 -0.28447 0.735 255 255 255
-0.132382 -0.174699 0.551 255 255 255
-0.26477 -0.0259254 0.534 255 255 255
-0.22821 0.106284 0.627 255 255 255
0.36079 -0.268701 0.758 255 255 255
-0.137621 -0.0673367 0.61 255 255 255
0.0148023 -0.25624 0.967 255 255 255
0.0325667 -0.102936 0.893 255 255 255
-0.199774 0.167218 0.58 255 255 255
-0.191163 0.194331 0.555 255 255 255
0.0690467 0.17437 0.669 255 255 255
0.0810143 -0.0505578 0.867 255 255 255
-0.0119201 -0.238189 0.964 255 255 255
0.26459 0.0839586 0.872 255 255 255
0.376143 -0.0174598 0.836 255 255 255
0.397909 0.265043 0.904 255 255 255
0.381356 0.337319 0.991 255 255 255
-0.196911 0.177936 0.569 255 255 255
-0.0259653 0.135492 0.676 255 255 255
0.211085 -0.0628036 1.077 255 255 255
-0.239983 0.0896237 0.687 255 255 255
-0.243502 -0.0774995 0.513 255 255 255
-0.21948 0.050125 0.614 255 255 255
0.236201 -0.182819 0.872 255 255 255
-0.0855588 -0.0406295 0.897 255 255 255
-0.168972 -0.125284 1.002 255 255 255
-0.101283 0.0667925 0.772 255 255 255
0.381275 0.35973 0.995 255 255 255
0.35651 -0.172488 0.804 255 255 255
0.0747473 -0.28534 0.773 255 255 255
0.360935 -0.0561503 0.845 255 255 255
-0.214863 -0.139855 0.486 255 255 255
-0.0611941 -0.0989457 0.743 255 255 255
0.133196 0.23751 0.618 255 255 255
-0.262721 -0.0803999 0.505 255 255 255
-0.174373 0.0294723 0.643 255 255 255
-0.00988802 0.168077 0.633 255 255 255
0.302762 -0.0505996 0.947 255 255 255
-0.265232 0.102474 0.635 255 255 255
0.0817601 -0.0669436 0.86 255 255 255
-0.172744 -0.12359 0.551 255 255 255
-0.15802 -0.140093 0.556 255 255 255
-0.132749 -0.0734704 0.964 255 255 255
0.251783 -0.313299 0.892 255 255 255
-0.280419 0.0619126 0.575 255 255 255
0.0591488 -0.000858945 0.633 0 0 0
-0.156374 -0.176333 0.529 255 255 255
0.308575 -0.231758 0.864 255 255 255
-0.21408 -0.0438247 0.563 255 255 255
0.070182 0.0510867 0.68 255 255 255
0.0285848 -0.28252 0.905 255 255 255
0.274548 -0.0653869 0.984 255 255 255
0.0640552 0.236808 0.611 255 255 255
0.137308 -0.20411 0.866 255 255 255
-0.289337 0.150941 0.565 255 255 255
0.155293 -0.208362 0.872 255 255 255
0.0452185 -0.18117 0.978 255 255 255
0.228354 0.138452 0.809 255 255 255
0.0115697 -0.179398 0.96 255 255 255
0.328638 0.0655304 0.955 255 255 255
-0.285236 0.131579 0.581 255 255 255
0.134501 0.144329 0.692 255 255 255
-0.28014 0.150022 0.565 255 255 255
0.119558 -0.253077 0.86 255 255 255
-0.108405 0.121628 0.704 255 255 255
-0.253914 -0.0956854 0.499 255 255 255
0.411971 0.365104 0.95 255 255 255
0.171733 -0.175119 0.869 255 255 255
0.228847 -0.0831243 1.046 255 255 255
-0.0221126 0.0303599 0.772 255 255 255
0.256105 0.166027 0.698 255 255 255
-0.215531 0.0563943 0.617 255 255 255
-0.195167 0.20638 0.551 255 255 255
0.410978 0.0692714 0.816 255 255 255
-0.0308814 0.160813 0.641 255 255 255
-0.168742 -0.0960557 0.574 255 255 255
-0.120029 0.0233877 0.679 255 255 255
0.330944 -0.128522 0.86 255 255 255
0.232123 -0.263058 0.889 255 255 255
0.296998 -0.129672 0.897 255 255 255
0.142894 -0.0182947 0.95 255 255 255
-0.0524971 -0.139819 0.906 255 255 255
0.289112 0.167743 0.715 255 255 255
-0.102337 -0.01104 0.866 255 255 255
-0.2028 -0.0903158 0.545 255 255 255
-0.137755 0.158352 0.648 255 255 255
-0.0315899 0.0271765 0.789 255 255 255
-0.200197 -0.0802318 0.555 255 255 255
0.110993 0.217171 0.629 255 255 255
0.000389703 0.228867 0.593 255 255 255
0.224968 -0.0396849 1.068 255 255 255
-0.118702 0.210427 0.59 255 255 255
-0.117731 -0.00523893 0.666 255 255 255
-0.142248 -0.165733 0.551 255 255 255
0.102966 0.231869 0.63 255 255 255
0.386671 0.349348 0.984 255 255 255
-0.0401254 -0.25086 0.862 255 255 255
0.259997 0.0377743 1.002 255 255 255
0.126802 0.168245 0.675 255 255 255
0.0442357 -0.0356878 0.612 255 255 255
-0.261696 0.0247124 0.559 255 255 255
0.0524644 -0.00391181 0.627 255 255 255
0.417359 0.109101 0.826 255 255 255
-0.262761 -0.0199539 0.537 255 255 255
0.236025 -0.197327 0.861 255 255 255
0.113606 -0.192077 0.938 0 0 0
0.182472 -0.00600809 0.963 255 255 255
-0.0398003 -0.286681 0.886 255 255 255
-0.188521 -0.14168 0.525 255 255 255
-0.202368 0.190157 0.556 255 255 255
0.135845 0.0390801 0.884 255 255 255
0.107408 0.211008 0.632 255 255 255
-0.0251839 0.189534 0.629 255 255 255
0.0938421 0.105205 0.717 255 255 255
0.299094 -0.211338 0.861 255 255 255
-0.253486 -0.00794969 0.553 255 255 255
0.245246 0.167093 0.693 255 255 255
-0.208546 -0.0588723 0.558 0 0 0
-0.184499 -0.00582906 0.614 255 255 255
-0.142305 0.160563 0.64 255 255 255
0.421679 0.177492 0.851 255 255 255
0.252099 -0.301779 0.888 255 255 255
-0.198272 -0.18649 0.488 255 255 255
0.0383342 0.135568 0.705 255 255 255
-0.148829 -0.355297 0.918 255 255 255
-0.13833 -0.0333279 0.938 255 255 255
-0.15731 0.00963596 0.646 255 255 255
0.255704 -0.03805 1.024 255 255 255
0.110333 -0.27414 0.843 255 255 255
0.169622 0.120228 0.793 255 255 255
-0.11752 -0.0572418 0.63 255 255 255
-0.26289 0.075494 0.586 255 255 255
-0.25576 0.16963 0.566 255 255 255
-0.219468 0.0175896 0.595 255 255 255
0.10174 0.135953 0.707 255 255 255
-0.238654 -0.123715 0.491 255 255 255
-0.0624761 0.167523 0.655 255 255 255
0.0999214 0.161507 0.679 255 255 255
0.386021 0.00426616 0.828 255 255 255
0.406068 0.175994 0.871 255 255 255
0.200945 -0.256903 0.873 255 255 255
-0.272829 0.123264 0.591 255 255 255
0.16826 -0.2498 0.873 255 255 255
-0.173356 -0.181852 0.513 255 255 255
0.307918 -0.303058 0.821 255 255 255
-0.0820055 0.0739452 0.768 255 255 255
-0.0299884 0.0599271 0.749 255 255 255
-0.18417 -0.111601 0.545 255 255 255
-0.284334 0.0391268 0.557 255 255 255
0.416853 0.112997 0.825 255 255 255
0.263774 -0.334001 0.874 255 255 255
0.190526 -0.147933 0.884 255 255 255
-0.250467 0.0235483 0.575 255 255 255
-0.0226194 -0.171706 0.952 255 255 255
-0.246281 -0.0910834 0.505 255 255 255
-0.167959 0.205013 0.562 255 255 255
0.146913 0.19138 0.625 255 255 255
0.140902 -0.18005 0.947 255 255 255
0.325832 -0.227684 0.819 255 255 255
-0.0396206 -0.0557384 0.882 255 255 255
0.0553542 -0.119139 0.863 255 255 255
-0.0988579 0.170467 0.642 255 255 255
0.352374 -0.242257 0.772 255 255 255
-0.185289 -0.153526 0.516 255 255 255
-0.300658 0.104322 0.64 255 255 255
0.302563 -0.282748 0.832 255 255 255
-0.0858094 0.210273 0.595 255 255 255
-0.0101684 -0.0490585 0.947 255 255 255
-0.119675 -0.0484721 0.636 255 255 255
-0.0851737 0.21779 0.584 255 255 255
-0.00628476 -0.00113983 0.84 255 255 255
-0.157222 0.142875 0.609 255 255 255
-0.164192 0.00224193 0.636 255 255 255
-0.0510331 -0.066873 0.736 255 255 255
0.219461 -0.190542 0.862 255 255 255
-0.108166 -0.141374 0.879 255 255 255
-0.0415286 -0.245249 0.862 255 255 255
-0.0687038 -0.272587 0.851 0 0 0
-0.131231 0.00449494 0.663 255 255 255
0.325933 -0.019235 0.921 255 255 255
-0.204603 -0.0438231 0.575 255 255 255
0.367777 -0.174506 0.778 255 255 255
0.0813607 0.239969 0.614 255 255 255
0.0620806 0.198891 0.653 255 255 255
-0.225662 -0.0464772 0.551 255 255 255
0.270777 -0.00469461 1.018 255 255 255
-0.137115 -0.166932 0.552 255 255 255
0.258529 -0.0604802 1.009 255 255 255
0.348646 0.134412 0.906 255 255 255
-0.163008 0.077688 0.744 255 255 255
0.158108 -0.164522 0.896 255 255 255
0.262828 -0.314353 0.895 255 255 255
0.0692334 -0.00804414 0.631 255 255 255
-0.211103 0.162499 0.58 255 255 255
0.258674 0.163102 0.705 255 255 255
0.398286 0.35103 0.958 255 255 255
-0.18802 -0.161501 0.512 255 255 255
0.337508 -0.206678 0.815 255 255 255
0.152479 0.101036 0.826 255 255 255
0.235256 0.0588925 0.901 255 255 255
-0.0228287 -0.0776034 0.797 255 255 255
0.0237268 0.0722178 0.681 255 255 255
0.349897 -0.0790767 0.855 255 255 255
0.1689 0.178433 0.672 255 255 255
-0.238987 -0.147332 0.482 255 255 255
-0.12527 0.0686767 0.765 255 255 255
-0.231613 -0.0460555 0.546 255 255 255
-0.0723959 -0.0961359 0.759 255 255 255
0.179495 -0.0156988 0.981 0 0 0
0.397164 -0.0658779 0.781 255 255 255
0.385435 -0.0979016 0.783 255 255 255
0.0835214 0.140102 0.699 255 255 255
-0.176245 0.0664622 0.754 255 255 255
-0.225915 0.105075 0.632 255 255 255
-0.170611 -0.0923194 0.574 255 255 255
0.0516731 0.00165481 0.872 255 255 255
0.0494447 0.0469943 0.669 255 255 255
-0.0538108 0.114638 0.725 255 255 255
-0.186405 0.129691 0.617 255 255 255
0.268042 -0.275687 0.874 255 255 255
-0.192673 -0.0202065 0.596 255 255 255
0.109634 -0.262881 0.745 255 255 255
-0.2276 -0.020146 0.567 255 255 255
-0.198014 0.0977897 0.645 255 255 255
-0.132596 -0.112555 0.592 255 255 255
0.317747 -0.190017 0.866 255 255 255
0.318715 -0.202931 0.861 255 255 255
-0.0473829 -0.182862 0.893 255 255 255
-0.229692 -0.100678 0.512 255 255 255
0.355204 -0.290596 0.754 255 255 255
-0.17521 -0.172839 0.516 255 255 255
0.302248 0.180023 0.727 255 255 255
0.0552925 0.107406 0.732 255 255 255
0.370136 -0.220518 0.762 255 255 255
-0.178756 -0.179725 0.507 255 255 255
0.395811 -0.0165199 0.791 255 255 255
-0.0664727 0.121338 0.709 255 255 255
-0.289198 0.0839295 0.572 255 255 255
0.29227 0.220984 0.703 255 255 255
0.0817291 0.0736491 0.684 255 255 255
0.389422 0.382474 0.991 255 255 255
0.221677 0.151131 0.719 255 255 255
-0.0445588 0.0490131 0.769 255 255 255
0.294461 -0.269557 0.868 255 255 255
0.12893 0.0684933 0.839 255 255 255
0.293282 0.213086 0.711 255 255 255
0.161381 -0.173433 0.882 255 255 255
-0.0267282 0.223829 0.595 255 255 255
0.293497 -0.0763925 0.942 255 255 255
0.400476 -0.0278917 0.785 255 255 255
0.301396 0.066187 0.988 255 255 255
-0.295377 0.0876545 0.566 255 255 255
0.163058 -0.198931 0.868 255 255 255
-0.287751 0.0881242 0.594 255 255 255
0.361546 -0.262187 0.757 255 255 255
-0.249727 0.144117 0.582 255 255 255
0.238904 0.0363041 0.963 0 0 0
0.395346 0.0761279 0.848 255 255 255
-0.217086 -0.057341 0.552 255 255 255
-0.138894 0.140575 0.674 255 255 255
0.342248 -0.177255 0.82 255 255 255
-0.152051 -0.100451 0.967 255 255 255
-0.126618 0.0548618 0.781 255 255 255
0.153425 0.139819 0.681 255 255 255
0.385779 -0.118494 0.776 255 255 255
0.00192852 0.00160167 0.844 255 255 255
0.293829 -0.198958 0.862 255 255 255
0.350662 -0.256999 0.771 255 255 255
-0.132484 -0.161771 0.559 255 255 255
0.197153 0.224933 0.664 255 255 255
0.13267 0.204602 0.625 255 255 255
-0.146827 -0.1142 0.576 255 255 255
0.0622336 -0.0572135 0.861 255 255 255
-0.251116 0.166532 0.568 255 255 255
0.284006 -0.20457 0.862 255 255 255
0.187927 -0.132131 1.085 255 255 255
-0.151255 -0.157914 0.972 255 255 255
-0.0495018 -0.287277 0.879 0 0 0
-0.252626 0.129996 0.591 255 255 255
0.376994 0.0125894 0.844 255 255 255
-0.189424 -0.0762956 0.566 255 255 255
-0.267032 0.11418 0.604 255 255 255
-0.27388 0.14194 0.577 255 255 255
0.356001 -0.185253 0.797 255 255 255
-0.225066 -0.163666 0.491 255 255 255
-0.205629 -0.00372464 0.597 255 255 255
0.291964 -0.0694574 0.952 255 255 255
-0.14964 0.190436 0.576 255 255 255
0.320234 -0.0164843 0.935 255 255 255
-0.245615 -0.102581 0.497 0 0 0
0.0238456 -0.135931 0.951 255 255 255
-0.267377 -0.0233184 0.534 255 255 255
0.376697 -0.0813042 0.808 255 255 255
0.14838 -0.0982412 0.917 0 0 0
-0.130765 0.117688 0.701 255 255 255
-0.147518 -0.0537897 0.614 255 255 255
0.209491 0.228565 0.662 255 255 255
-0.0388004 0.190009 0.634 255 255 255
-0.00712968 0.144973 0.664 255 255 255
0.160342 0.0807813 0.839 255 255 255
0.0486102 -0.245544 0.868 255 255 255
-0.121701 -0.012787 0.664 255 255 255
0.0181307 0.154877 0.679 255 255 255
0.39538 0.364898 0.97 255 255 255
0.0572691 0.025178 0.698 255 255 255
-0.0798696 0.223849 0.58 255 255 255
-0.139784 -0.0309746 0.638 255 255 255
0.171674 0.167978 0.692 255 255 255
-0.238893 0.0528877 0.6 255 255 255
0.269434 0.128351 0.772 255 255 255
-0.11808 -0.150903 0.573 255 255 255
0.239312 0.0473702 0.934 255 255 255
-0.116211 0.022767 0.815 255 255 255
0.061547 0.0243866 0.708 255 255 255
-0.166543 -0.196274 0.505 255 255 255
0.203631 0.232184 0.657 255 255 255
0.336678 -0.160307 0.836 255 255 255
-0.139781 0.177274 0.598 255 255 255
-0.235777 0.014438 0.585 255 255 255
0.342329 -0.0658489 0.864 255 255 255
0.255147 0.0887565 0.85 255 255 255
-0.248861 -0.0690165 0.512 0 0 0
0.0333778 -0.166552 0.958 255 255 255
0.287143 0.206724 0.713 255 255 255
0.0438082 0.200093 0.65 255 255 255
-0.174356 0.0980676 0.716 255 255 255
-0.203966 0.0877694 0.69 255 255 255
-0.143822 0.195197 0.579 255 255 255
-0.201158 -0.0018025 0.604 255 255 255
0.12473 0.202892 0.626 255 255 255
0.0710052 0.0286266 0.699 255 255 255
0.0516086 0.196303 0.655 255 255 255
-0.139314 -0.0594748 0.966 255 255 255
-0.191241 0.136161 0.61 255 255 255
0.304958 -0.244602 0.85 255 255 255
-0.298219 0.100044 0.646 255 255 255
0.337922 -0.0114862 0.901 255 255 255
0.0904741 -0.0784122 0.863 255 255 255
-0.145958 -0.327127 0.958 255 255 255
-0.110572 0.127042 0.696 255 255 255
-0.169553 0.063031 0.757 255 255 255
0.240358 0.135316 0.748 255 255 255
0.239405 0.163989 0.699 255 255 255
0.26468 -0.273779 0.877 255 255 255
-0.00971619 0.199571 0.622 255 255 255
-0.0246104 -0.0725462 0.813 0 0 0
0.324456 -0.305488 0.796 255 255 255
0.222611 -0.137239 0.88 255 255 255
0.216283 0.239699 0.663 255 255 255
-0.27659 -0.0102065 0.53 255 255 255
-0.18552 -0.0732528 0.571 255 255 255
0.245285 0.0775643 0.864 255 255 255
-0.204821 0.0301905 0.615 255 255 255
-0.050971 0.13469 0.672 255 255 255
0.126484 -0.0894547 0.889 255 255 255
0.22215 0.019244 0.972 255 255 255
0.0849603 -0.251518 0.85 255 255 255
0.369262 -0.113001 0.809 255 255 255
-0.3065 0.117493 0.591 255 255 255
0.0946636 0.0831573 0.689 255 255 255
-0.0859536 0.209657 0.596 255 255 255
0.241601 -0.223714 0.871 255 255 255
-0.148632 0.0924759 0.727 255 255 255
-0.103747 -0.01104 0.866 255 255 255
0.146496 -0.248055 0.862 255 255 255
-0.014214 0.0945577 0.753 255 255 255
-0.137388 0.142345 0.672 255 255 255
-0.212718 0.19437 0.55 255 255 255
0.0242883 0.168169 0.666 255 255 255
0.245975 -0.256688 0.892 255 255 255
0.302211 -0.0230533 0.955 255 255 255
0.251611 0.185671 0.695 255 255 255
0.256074 -0.108377 0.902 255 255 255
0.126852 -0.234027 0.862 255 255 255
0.120479 -0.0258601 0.944 255 255 255
-0.214639 -0.181522 0.475 255 255 255
-0.0198881 0.146652 0.657 255 255 255
-0.244505 0.16305 0.572 255 255 255
0.211506 -0.21755 0.847 255 255 255
-0.0251775 -0.032662 0.879 255 255 255
0.314148 0.0535424 0.963 255 255 255
-0.228939 0.0020692 0.587 255 255 255
0.0821906 -0.27492 0.772 255 255 255
0.0597771 0.0540064 0.675 255 255 255
0.250331 0.116164 0.783 255 255 255
0.317325 -0.0689737 0.905 255 255 255
0.189142 -0.210958 0.871 255 255 255
0.0757322 0.235117 0.617 255 255 255
0.362355 0.0215953 0.875 255 255 255
0.047525 -0.307791 0.802 255 255 255
-0.224026 -0.133802 0.487 255 255 255
0.0657326 0.219542 0.627 255 255 255
0.431121 0.346047 0.912 255 255 255
0.0100682 0.102005 0.736 255 255 255
0.139832 0.163483 0.669 255 255 255
-0.102818 -0.171166 0.566 255 255 255
-0.0809016 0.125065 0.704 255 255 255
0.0352356 -0.110905 0.887 255 255 255
0.12534 -0.208123 0.871 255 255 255
-0.22822 0.198009 0.538 255 255 255
-0.27564 0.0455254 0.569 255 255 255
-0.0222868 -0.134073 0.938 255 255 255
0.297692 -0.200129 0.861 255 255 255
0.329892 0.140155 0.843 255 255 255
-0.0480362 0.220924 0.595 255 255 255
-0.153188 -0.171772 0.539 255 255 255
0.0886681 0.0459557 0.686 255 255 255
0.3735 0.356581 1.009 255 255 255
-0.00723495 -0.242077 0.967 255 255 255
-0.0462056 -0.0612275 0.755 255 255 255
-0.083415 0.218163 0.585 255 255 255
-0.170682 -0.189088 0.51 255 255 255
0.216388 -0.258374 0.878 255 255 255
0.0589819 0.198132 0.654 255 255 255
-0.0112627 0.0400873 0.721 255 255 255
-0.125179 -0.105911 0.598 255 255 255
0.268231 -0.29035 0.884 255 255 255
-0.0806704 0.208135 0.6 255 255 255
0.189359 -0.201267 0.872 255 255 255
0.284945 -0.315669 0.844 255 255 255
-0.254337 0.0288583 0.569 255 255 255
0.00603419 0.0537702 0.686 255 255 255
-0.0172629 0.160312 0.639 255 255 255
-0.167308 0.0137124 0.64 255 255 255
-0.161602 0.214835 0.559 255 255 255
-0.282125 0.173659 0.544 255 255 255
-0.255438 -0.025338 0.54 255 255 255
0.345362 0.0372268 0.909 255 255 255
0.260303 -0.0214905 1.029 255 255 255
-0.207439 0.133736 0.608 255 255 255
0.280827 0.217552 0.703 255 255 255
-0.278583 0.178971 0.544 255 255 255
0.274673 -0.302322 0.877 255 255 255
0.119305 0.214726 0.619 0 0 0
0.0673765 -0.216174 1.137 255 255 255
-0.135006 -0.0178062 0.65 255 255 255
-0.133763 -0.201839 0.535 255 255 255
0.368659 -0.263739 0.744 255 255 255
-0.181484 -0.0814727 0.57 255 255 255
0.425835 0.195495 0.851 255 255 255
0.114468 -0.171229 0.958 255 255 255
0.148075 -0.254266 0.714 0 0 0
0.264047 -0.0438858 1.005 255 255 255
-0.30164 0.129018 0.578 255 255 255
0.214479 0.17023 0.692 255 255 255
-0.236584 0.024995 0.587 255 255 255
-0.121457 -0.199269 0.882 255 255 255
-0.25126 -0.0432242 0.533 255 255 255
-0.00061344 0.169869 0.632 255 255 255
0.436697 0.244005 0.856 255 255 255
0.0889995 0.155106 0.68 255 255 255
-0.00390082 -0.294147 0.923 255 255 255
0.389501 0.127949 0.872 255 255 255
-0.247002 0.0632039 0.596 255 255 255
-0.0657784 -0.0384553 0.849 255 255 255
-0.211271 -0.0506999 0.558 255 255 255
0.0981273 -0.175803 0.966 255 255 255
-0.202283 -0.0887045 0.546 255 255 255
-0.104463 -0.188489 0.56 255 255 255
0.203891 0.10646 0.806 255 255 255
-0.112303 -0.271402 0.856 0 0 0
-0.18384 0.208551 0.552 255 255 255
-0.168273 -0.126066 0.554 255 255 255
-0.254334 0.183296 0.549 255 255 255
0.296923 -0.0433924 0.958 255 255 255
0.375836 -0.206479 0.756 255 255 255
-0.0856466 0.0826319 0.756 255 255 255
0.324993 0.0937979 0.958 255 255 255
0.333054 -0.200301 0.827 255 255 255
-0.17945 0.119343 0.678 255 255 255
-0.0272684 -0.0570636 0.952 255 255 255
0.376442 -0.0701581 0.816 255 255 255
0.218226 0.144531 0.727 255 255 255
0.223526 0.147673 0.725 255 255 255
-0.158188 0.187579 0.573 255 255 255
-0.154511 0.219121 0.563 255 255 255
0.11113 -0.0629149 0.882 255 255 255
0.437481 0.298104 0.88 255 255 255
0.260991 -0.334481 0.879 255 255 255
0.367129 -0.0782093 0.831 255 255 255
-0.131134 -0.0940398 0.603 255 255 255
-0.108321 -0.121983 0.591 255 255 255
-0.102275 0.2064 0.595 255 255 255
0.17937 0.106413 0.826 255 255 255
-0.223927 -0.0821512 0.516 255 255 255
-0.0403489 0.197799 0.626 255 255 255
-0.239561 -0.0598162 0.534 255 255 255
-0.06495 0.125243 0.705 255 255 255
0.192107 -0.136293 0.912 255 255 255
-0.179768 0.0937984 0.719 255 255 255
0.137996 -0.14443 0.898 255 255 255
-0.138438 -0.153221 0.561 255 255 255
-0.272883 -0.00423205 0.538 255 255 255
0.301833 0.173868 0.726 0 0 0
0.159113 0.0622546 0.847 255 255 255
-0.142139 -0.120761 0.576 255 255 255
0.17255 0.0425122 0.866 255 255 255
0.32519 -0.286551 0.801 255 255 255
0.0520085 0.0648946 0.674 255 255 255
-0.229558 -0.0727537 0.527 255 255 255
-0.258067 0.16933 0.565 255 255 255
-0.149198 0.0944506 0.724 255 255 255
-0.0735861 -0.119697 0.828 255 255 255
0.361959 -0.162385 0.793 255 255 255
-0.111502 0.199363 0.603 255 255 255
0.178412 -0.167593 0.874 255 255 255
-0.0199819 0.223235 0.596 255 255 255
0.0579341 -0.0159755 0.62 255 255 255
0.012681 -0.0857358 0.927 255 255 255
0.0530501 0.214771 0.634 255 255 255
0.29731 -0.285453 0.844 255 255 255
0.101175 0.10199 0.68 255 255 255
0.323456 -0.209533 0.837 255 255 255
0.340133 -0.0965572 0.862 255 255 255
0.412211 0.36241 0.947 255 255 255
0.011205 0.106215 0.732 0 0 0
0.374842 -0.2317 0.754 255 255 255
0.324744 -0.239511 0.823 255 255 255
-0.171809 -0.0295181 0.608 255 255 255
-0.161892 0.211574 0.56 255 255 255
-0.0289642 -0.259815 0.908 255 255 255
-0.14693 0.156885 0.642 255 255 255
0.261039 0.222352 0.693 255 255 255
0.0572339 0.0803276 0.684 255 255 255
0.138683 0.164705 0.674 255 255 255
-0.196485 0.041179 0.63 255 255 255
-0.187655 0.0971089 0.709 255 255 255
-0.259352 -0.0235368 0.539 255 255 255
-0.208873 0.154908 0.587 255 255 255
-0.228782 0.111689 0.623 255 255 255
-0.173021 0.0511187 0.666 255 255 255
-0.0122293 0.129415 0.709 255 255 255
0.343789 0.0119734 0.901 255 255 255
0.296914 -0.294684 0.839 255 255 255
0.029029 -0.203156 0.969 255 255 255
0.120459 0.133613 0.689 255 255 255
-0.00923543 0.148396 0.66 255 255 255
0.223411 0.0688882 0.861 0 0 0
0.350361 -0.0461113 0.863 255 255 255
-0.295017 0.112153 0.609 255 255 255
0.0189932 0.201358 0.634 255 255 255
0.102891 -0.0864241 0.873 255 255 255
0.131505 0.179543 0.66 255 255 255
-0.132622 -0.172322 0.552 255 255 255
0.36985 -0.0789872 0.825 255 255 255
0.318031 0.00638648 0.942 255 255 255
-0.102364 -0.246703 0.843 255 255 255
0.0591544 -0.108549 0.857 255 255 255
0.232665 -0.11651 0.983 255 255 255
0.221695 0.183576 0.683 255 255 255
-0.207972 -0.0859722 0.54 255 255 255
0.366529 0.379268 1.017 255 255 255
0.302456 -0.290821 0.828 255 255 255
-0.110641 -0.104153 0.833 255 255 255
0.176035 0.212528 0.646 255 255 255
0.142452 -0.234299 0.863 255 255 255
-0.114479 -0.00632273 0.666 255 255 255
-0.208677 0.007032 0.603 255 255 255
-0.212604 -0.127589 0.513 255 255 255
0.0159201 0.0620611 0.679 255 255 255
-0.268187 0.133929 0.583 255 255 255
-0.178367 -0.173504 0.513 255 255 255
0.273106 0.230911 0.695 255 255 255
-0.297533 0.104322 0.64 255 255 255
-0.193918 0.183389 0.563 255 255 255
0.19873 0.183079 0.673 255 255 255
0.0326248 0.233521 0.6 255 255 255
-0.240417 -0.0961349 0.51 255 255 255
0.386299 -0.140835 0.767 255 255 255
0.375222 -0.0306555 0.825 255 255 255
-0.104597 0.221399 0.581 255 255 255
0.124045 -0.236833 0.862 255 255 255
0.0442628 0.0341329 0.673 255 255 255
-0.0916509 -0.115634 0.809 255 255 255
0.279801 0.203813 0.715 255 255 255
0.283611 0.00352152 0.999 255 255 255
0.161831 -0.179362 0.869 255 255 255
-0.099202 0.20702 0.594 255 255 255
-0.167791 -0.179461 0.995 255 255 255
-0.0971743 0.189237 0.618 255 255 255
-0.2385 -0.00170402 0.571 255 255 255
0.0456047 0.0950688 0.711 255 255 255
-0.156101 -0.173543 0.531 255 255 255
0.434735 0.319588 0.892 255 255 255
0.102066 -0.226658 0.866 255 255 255
-0.279762 0.102034 0.652 255 255 255
-0.244927 -0.0160779 0.554 255 255 255
-0.0957258 0.0192031 0.833 255 255 255
0.0955435 0.121368 0.73 255 255 255
0.0795022 0.0625181 0.684 255 255 255
-0.207741 -0.0839533 0.544 0 0 0
0.0931524 -0.263656 0.849 255 255 255
0.366264 -0.0994937 0.817 255 255 255
0.360321 0.0897828 0.902 255 255 255
-0.116936 -0.171175 0.563 255 255 255
-0.277201 0.0816084 0.582 255 255 255
-0.133011 -0.168944 0.912 255 255 255
0.209874 -0.112047 1.062 255 255 255
0.389471 -0.136018 0.761 255 255 255
0.442707 0.327804 0.879 255 255 255
-0.187521 -0.0558176 0.583 255 255 255
-0.128297 -0.140689 0.577 255 255 255
0.293954 -0.0219269 0.974 255 255 255
0.376598 0.0557692 0.875 255 255 255
0.376568 -0.218493 0.755 255 255 255
0.416187 0.340443 0.925 255 255 255
0.352876 0.035315 0.898 255 255 255
0.282275 -0.0645895 0.972 255 255 255
-0.177737 -0.0980535 0.564 255 255 255
0.378056 -0.0905732 0.797 255 255 255
-0.268213 0.0663406 0.581 255 255 255
-0.153152 -0.131293 0.974 255 255 255
0.0109754 0.0830363 0.717 255 255 255
0.359649 0.0958663 0.904 255 255 255
0.0179746 0.229616 0.6 255 255 255
-0.211967 -0.157431 0.494 255 255 255
0.361941 0.0116146 0.874 255 255 255
0.373434 -0.104063 0.801 255 255 255
0.178709 0.0586686 0.855 255 255 255
0.0867502 -0.234635 0.854 255 255 255
-0.145898 -0.179333 0.538 255 255 255
-0.112564 -0.0389712 0.927 255 255 255
-0.138604 0.0647722 0.763 255 255 255
-0.139314 -0.0610468 0.966 255 255 255
-0.278854 0.050067 0.568 255 255 255
-0.186787 0.0103398 0.625 255 255 255
0.181882 -0.152004 0.891 255 255 255
0.0408741 -0.157597 0.951 255 255 255
-0.128528 -0.0747725 0.614 255 255 255
-0.0866492 0.0658758 0.776 0 0 0
0.143858 -0.268864 0.722 255 255 255
0.237083 -0.101967 1.03 255 255 255
0.0352722 0.159632 0.69 255 255 255
0.319278 0.126845 0.855 255 255 255
0.262017 0.142921 0.737 255 255 255
0.37913 0.0640187 0.871 255 255 255
-0.142264 0.219604 0.569 255 255 255
-0.267472 0.179556 0.554 255 255 255
-0.133387 -0.120202 0.587 255 255 255
-0.0719078 0.106966 0.729 0 0 0
0.169009 -0.273597 0.719 255 255 255
-0.223878 -0.0344781 0.56 255 255 255
-0.0596937 -0.0522962 0.787 255 255 255
0.111287 -0.240762 0.861 255 255 255
0.0809339 -0.295021 0.772 255 255 255
-0.0435294 -0.223062 0.874 255 255 255
-0.233717 0.0202188 0.587 255 255 255
0.41402 0.187984 0.861 255 255 255
-0.0870643 -0.0631052 0.828 255 255 255
0.276697 0.205563 0.713 255 255 255
0.0704917 0.039086 0.683 255 255 255
-0.117148 -0.150903 0.573 255 255 255
0.0270921 0.0268205 0.682 255 255 255
-0.0681027 -0.16283 0.879 255 255 255
0.0838332 0.0679841 0.683 255 255 255
0.188746 0.108309 0.82 255 255 255
0.326859 0.123815 0.883 255 255 255
0.215438 0.0473198 0.904 255 255 255
0.285078 -0.170705 0.861 255 255 255
0.0995905 -0.102998 0.869 255 255 255
0.0488342 -0.00544035 0.872 255 255 255
0.383942 -0.182862 0.755 255 255 255
-0.137875 0.212569 0.57 255 255 255
-0.0755536 -0.0223141 0.866 255 255 255
-0.162484 -0.104644 0.575 255 255 255
0.289962 0.201723 0.72 255 255 255
0.370661 -0.208259 0.758 255 255 255
0.34029 -0.218322 0.809 255 255 255
0.0771886 0.208323 0.646 255 255 255
0.342638 0.100998 0.938 255 255 255
-0.273655 -0.0205951 0.531 255 255 255
-0.219235 -0.0868035 0.529 255 255 255
0.0611464 0.0674864 0.678 255 255 255
-0.241835 -0.0308939 0.545 255 255 255
-0.0224531 -0.0489549 0.945 0 0 0
-0.168661 0.111001 0.702 255 255 255
0.437067 0.233707 0.854 255 255 255
-0.120657 0.181209 0.625 255 255 255
0.338261 -0.230937 0.798 255 255 255
0.254617 0.124098 0.769 255 255 255
-0.11421 -0.0802465 0.916 255 255 255
0.431786 0.281877 0.883 255 255 255
-0.139217 -0.080435 0.604 255 255 255
-0.176651 0.211246 0.552 255 255 255
-0.180713 0.117573 0.687 255 255 255
-0.0107003 0.135066 0.685 255 255 255
0.39564 0.00689376 0.82 255 255 255
-0.0636662 0.200328 0.615 255 255 255
0.336156 -0.284297 0.784 255 255 255
0.395632 -0.0660466 0.783 255 255 255
0.296287 -0.27754 0.845 255 255 255
0.0832569 -0.214352 0.891 255 255 255
-0.00987239 0.169869 0.632 255 255 255
-0.27922 0.147263 0.565 255 255 255
0.0614534 0.221893 0.625 255 255 255
0.33007 0.0124518 0.937 255 255 255
0.130178 0.210356 0.618 255 255 255
0.12484 0.0133949 0.898 255 255 255
0.149965 0.194431 0.625 255 255 255
0.147384 0.0715635 0.843 255 255 255
0.409487 0.0710319 0.821 255 255 255
-0.308433 0.111075 0.614 255 255 255
0.384287 -0.125583 0.773 255 255 255
-0.0201484 -0.0246103 0.848 255 255 255
-0.301118 0.130673 0.577 255 255 255
-0.17185 -0.175358 0.516 255 255 255
0.193193 0.185257 0.669 255 255 255
-0.167168 -0.151626 0.536 255 255 255
0.135332 0.217987 0.614 255 255 255
0.0692783 0.0745436 0.682 255 255 255
-0.0874326 -0.168629 0.872 255 255 255
0.235721 0.152301 0.719 255 255 255
0.0493776 0.228978 0.614 255 255 255
0.154245 0.0605888 0.843 255 255 255
0.369778 0.1013 0.9 255 255 255
0.349143 -0.0613456 0.86 255 255 255
0.371643 -0.0575761 0.826 255 255 255
-0.0783664 -0.0823318 0.757 255 255 255
-0.253035 0.0920303 0.68 255 255 255
-0.104048 0.189935 0.617 255 255 255
-0.169145 -0.0129486 0.62 255 255 255
-0.250145 0.164335 0.57 255 255 255
0.233463 0.0494925 0.917 255 255 255
-0.214223 -0.106687 0.521 255 255 255
-0.000931807 -0.0606676 0.96 0 0 0
-0.162711 -0.0396067 0.611 255 255 255
0.395356 0.0978552 0.857 255 255 255
-0.283163 0.0303574 0.546 255 255 255
0.347249 0.185679 0.786 255 255 255
-0.10679 0.0381602 0.804 255 255 255
0.00361541 -0.286948 0.924 255 255 255
-0.00871751 0.132126 0.705 255 255 255
0.209395 -0.202931 0.861 255 255 255
0.113212 -0.274465 0.844 255 255 255
-0.19846 -0.0220348 0.593 255 255 255
0.187762 0.00181801 0.958 255 255 255
0.11312 -0.263739 0.744 255 255 255
