ply
format ascii 1.0
comment Created by Open3D
element vertex 1327
property double x
property double y
property double z
property uchar red
property uchar green
property uchar blue
end_header
-0.399065 -0.421753 1.247 180 163 149
-0.328636 -0.121114 1.265 121 99 89
0.179458 0.193836 0.529 102 157 204
0.13458 0.236437 0.634 75 88 73
0.177139 0.160339 0.535 30 57 70
-0.562775 -0.122224 1.449 138 119 102
-0.293414 0.384078 1.31 119 101 81
-0.0111347 0.0981577 1.037 92 73 58
0.203654 0.18834 0.514 196 198 189
-0.24062 0.225351 1.257 133 109 93
0.191876 0.0415425 0.53 19 32 29
0.116464 0.257903 1.002 123 106 88
0.249101 0.0001333 0.493 28 31 34
0.182208 0.155977 0.532 16 57 81
-0.430173 -0.277583 1.324 124 106 97
-0.731391 0.133805 1.607 124 107 89
-0.117137 -0.40215 1.114 145 128 114
-0.448001 -0.0420502 1.372 102 75 67
0.283114 -0.165564 0.815 95 89 76
0.245254 -0.240384 0.826 105 94 85
-0.00101334 -0.042191 1.044 109 91 80
-0.514843 0.48908 1.509 115 101 82
0.0469721 0.259035 1.053 125 106 91
0.222946 -0.0302064 0.518 250 255 254
0.354632 -0.258708 0.74 153 139 133
0.137716 0.141978 0.957 107 85 75
-0.800538 0.390045 1.71 110 96 79
-0.0474497 0.148331 1.096 106 85 68
0.0610628 -0.256913 0.952 181 155 142
-0.832241 -0.0707413 1.62 96 77 62
-0.742366 0.574904 1.673 108 95 73
0.0660324 0.126077 1.004 111 85 72
0.222864 -0.00486072 0.512 23 26 29
0.238597 0.0115957 0.503 19 25 27
0.0619511 -0.0594013 0.991 170 146 134
0.22304 0.147474 0.503 181 184 187
-0.83238 -0.386312 1.595 134 122 104
0.0965003 -0.270584 0.935 116 97 91
0.00243579 0.191109 1.066 125 106 91
0.0694 -0.316055 0.939 162 135 127
-0.285945 0.184509 1.286 129 108 91
0.22614 0.175535 0.499 173 157 134
-0.275243 0.0957133 1.247 109 85 69
-0.14496 0.197769 1.178 135 110 92
0.238828 -0.0866373 0.861 163 141 131
-0.783749 -0.571941 1.516 152 144 130
-0.78662 0.565357 1.71 105 93 75
0.0384017 0.205914 1.053 133 111 101
0.289042 -0.203381 0.802 144 126 115
-0.336103 0.209827 1.327 129 111 91
-0.275685 0.0755415 1.249 106 83 62
0.23904 -0.191602 0.842 102 88 80
-0.554692 0.302978 1.524 119 103 82
0.229968 0.17735 0.495 177 154 133
-0.722722 -0.49822 1.502 164 147 133
0.176278 -0.143465 0.892 97 86 77
-0.491404 -0.118736 1.381 149 135 118
0.167058 0.20978 0.539 26 56 61
-0.679195 0.41313 1.595 111 99 79
0.0415518 0.207949 1.046 134 109 100
-0.567881 -0.341262 1.409 135 122 109
-0.212357 -0.290743 1.169 129 111 100
0.29595 -0.222586 0.796 103 95 83
-0.199718 -0.167662 1.173 121 103 92
-0.712847 -0.449654 1.528 148 133 121
-0.221321 0.332437 1.252 123 104 87
-0.596159 -0.539569 1.4 167 152 140
-0.772375 0.377456 1.691 111 99 79
-0.325303 0.287568 1.327 129 109 89
-0.173205 0.182086 1.201 135 111 97
-0.240745 -0.181253 1.187 132 112 102
-0.715473 -0.460404 1.539 144 129 117
-0.030276 -0.125281 1.057 110 91 85
0.194843 0.139779 0.884 87 73 54
0.171482 -0.0748647 0.905 95 82 71
-0.00278552 0.0264573 1.072 143 117 104
0.244692 0.121088 0.489 202 209 215
-0.702409 0.541222 1.637 112 98 81
-0.195463 -0.371998 1.116 170 145 138
-0.121343 -0.202505 1.154 125 107 98
-0.169888 0.0156545 1.178 131 103 100
0.202963 0.0401428 0.523 15 22 44
0.100629 0.131955 0.975 113 92 77
0.136706 0.296581 0.995 123 106 90
0.0108514 -0.0471519 1.041 108 90 81
-0.321194 0.221441 1.319 132 106 91
0.0632639 0.132022 1.012 99 79 59
0.0287548 -0.120302 1.015 111 92 86
-0.156354 -0.210977 1.149 134 115 102
-0.738694 -0.218878 1.567 135 117 106
-0.312553 -0.143165 1.242 165 145 135
-0.169118 -0.315571 1.122 178 158 136
-0.780899 -0.154336 1.612 132 112 102
0.127363 -0.159654 0.927 105 90 80
0.131485 0.00337347 0.957 109 90 77
-0.133299 -0.295231 1.128 158 131 123
0.087974 0.22754 1.012 126 107 92
-0.852277 0.00044857 1.659 101 80 63
0.0601661 0.260219 1.044 125 108 92
-0.302014 0.0143672 1.232 198 172 157
0.11995 -0.088048 0.952 99 84 74
0.158578 0.164474 0.54 12 18 16
0.156518 0.211829 0.542 17 34 35
-0.378354 -0.473486 1.239 155 140 130
-0.640468 -0.222223 1.487 137 118 103
-0.551575 0.386597 1.502 119 101 79
-0.749601 0.565363 1.677 112 95 77
-0.409363 -0.238519 1.299 131 113 104
0.00070186 0.167136 1.068 108 84 68
-0.315572 0.0309491 1.254 96 72 56
0.17398 0.0803918 0.536 16 22 22
-0.454511 -0.0171464 1.345 195 175 155
-0.0336944 -0.357895 1.005 127 111 104
-0.543625 0.0520153 1.442 101 85 64
-0.026421 0.275358 1.112 126 107 92
0.284365 -0.121199 0.811 91 82 75
0.0183588 -0.258851 0.989 153 131 121
0.177159 0.0319299 0.927 163 142 125
0.249753 -0.0602224 0.488 45 39 43
0.17561 -0.0466937 0.533 77 66 59
-0.798175 0.594148 1.729 106 94 76
-0.348969 0.465983 1.369 122 99 80
-0.613361 -0.132064 1.48 136 116 106
-0.797361 -0.37188 1.567 150 131 118
0.000718947 0.315408 1.094 126 108 88
0.234604 0.0852277 0.498 16 21 28
-0.516321 -0.109445 1.406 137 118 105
0.242872 -0.00149214 0.5 20 31 31
0.104159 0.310922 0.86 102 88 73
0.159752 0.187668 0.541 20 29 22
0.167624 0.0929488 0.538 21 21 15
-0.31123 -0.399332 1.198 167 145 135
0.17398 0.0830085 0.536 13 24 24
0.0812238 0.143266 1.01 104 83 68
-0.0494135 0.157823 1.1 106 83 64
-0.494829 -0.454259 1.324 159 142 128
0.044371 0.377453 1.073 121 104 90
0.142857 -0.27394 0.901 114 96 85
0.148489 -0.147586 0.927 97 86 77
-0.931299 0.391308 1.779 104 86 77
0.0439834 -0.285343 0.986 117 102 90
-0.606818 0.299222 1.543 119 102 84
-0.416967 -0.0710638 1.33 126 109 95
-0.704083 -0.243777 1.547 131 113 102
0.144432 0.197198 0.543 28 20 17
0.113852 -0.0563308 0.966 148 124 110
-0.689434 0.105243 1.571 124 107 93
-0.569577 0.283138 1.524 122 103 86
0.0866727 -0.213276 0.944 108 93 83
-0.0270155 -0.346351 1 178 157 144
0.00408494 -0.120342 1.044 106 91 81
-0.650168 0.325932 1.575 118 101 85
-0.0642017 -0.00510965 1.108 142 115 107
-0.0464107 -0.086935 1.072 166 141 123
-0.478851 0.364276 1.452 120 101 84
0.191235 -0.271085 0.855 110 95 85
0.000715661 0.290929 1.089 124 107 91
-0.315476 -0.327788 1.222 139 117 109
-0.635619 -0.529536 1.422 152 134 123
0.237306 0.017291 0.502 14 22 23
-0.151205 -0.107933 1.167 175 149 136
0.160432 0.0432688 0.944 130 110 100
0.202337 0.030126 0.918 155 134 117
0.339084 -0.107543 0.779 80 68 68
0.195449 0.0319343 0.528 21 45 59
-0.007422 -0.312908 0.992 122 101 96
0.161493 0.0929488 0.538 28 25 20
0.16969 0.116804 0.539 18 26 25
0.237426 -0.0866373 0.861 166 144 134
-0.436551 0.308155 1.422 124 106 86
0.0487251 -0.0278873 1.018 105 88 72
-0.48346 -0.139264 1.384 122 105 91
-0.108238 0.44213 1.196 121 100 83
0.207806 0.109301 0.516 249 255 254
0.120202 -0.0804706 0.954 100 86 78
-0.310459 0.208562 1.319 134 111 90
0.306803 -0.212851 0.784 129 121 109
-0.0714346 0.200137 1.137 135 111 97
0.299242 -0.209602 0.791 174 165 146
0.0807135 0.354337 1.046 124 105 88
-0.200169 -0.075013 1.187 121 104 90
0.343328 -0.102604 0.78 45 36 41
0.222367 -0.256898 0.836 108 93 83
-0.0481318 -0.282407 1.034 184 158 145
-0.402015 -0.287026 1.289 153 132 119
0.255797 -0.22156 0.821 170 149 132
0.176916 0.227513 0.95 113 99 80
0.185665 -0.222944 0.868 144 124 116
-0.619109 -0.449367 1.432 140 122 113
0.150945 0.165659 0.541 23 22 22
-0.364558 -0.37305 1.247 132 112 102
-0.360174 0.0298997 1.297 109 92 67
0.139994 0.328016 1.007 123 107 86
0.104551 0.295353 1.013 123 106 92
0.19286 -0.189144 0.875 105 90 80
-0.556578 -0.510498 1.359 158 138 128
0.0574026 0.147062 1.025 106 82 66
-0.199335 0.283296 1.242 127 103 87
0.266849 -0.268637 0.802 136 118 107
0.236414 0.158823 0.495 201 203 209
0.139711 0.127083 0.939 93 72 57
-0.501552 -0.235086 1.378 125 106 100
-0.794811 -0.315779 1.567 156 142 125
-0.169075 -0.405308 1.098 135 120 108
0.154528 0.168101 0.955 100 83 67
0.182365 0.0584763 0.535 18 29 29
-0.876703 0.375774 1.774 109 95 80
-0.148795 -0.210551 1.178 143 124 109
-0.232197 0.0713902 1.213 104 83 66
-0.336863 0.266574 1.33 130 107 88
-0.750156 -0.0405828 1.575 96 75 60
-0.905705 0.393527 1.763 100 88 70
-0.562095 -0.329095 1.406 166 151 141
-0.0803441 -0.394604 1.037 131 112 97
-0.897899 0.590891 1.805 102 90 70
-0.404312 -0.472183 1.257 139 121 112
0.00561262 -0.199193 1.013 147 122 115
0.247695 0.00657806 0.495 28 21 32
0.291863 -0.211722 0.799 173 159 142
-0.967421 0.641055 1.848 95 66 41
0.253363 -0.195444 0.835 100 90 78
0.085453 0.0866477 0.983 193 168 148
0.213272 0.0629948 0.515 18 21 20
-0.727725 0.660087 1.696 106 93 71
0.130864 0.247532 0.636 60 27 28
-0.651254 -0.388407 1.484 135 120 108
0.171271 0.000144115 0.533 35 29 31
0.237649 0.0221483 0.501 17 27 30
-0.806128 0.677698 1.734 126 118 106
-0.626725 0.30408 1.555 117 103 86
0.162094 0.186443 0.54 24 35 31
0.19373 0.0705996 0.528 27 60 75
-0.344687 -0.385226 1.234 132 115 101
0.0144046 0.181924 1.053 107 84 65
0.224304 0.0878949 0.504 18 25 31
0.200037 -0.301669 0.851 175 158 142
-0.477992 -0.101587 1.362 132 112 102
0.00571789 0.0758522 1.032 196 168 151
-0.398055 -0.31492 1.283 129 112 98
0.212828 0.00604075 0.518 18 25 29
-0.265315 -0.409222 1.176 154 136 125
0.221303 -0.294933 0.832 175 158 140
0.184459 0.11075 0.531 57 93 103
-0.0954265 0.433108 1.182 117 101 80
-0.10263 -0.148352 1.114 119 98 95
0.000696603 0.124484 1.06 102 83 68
0.14595 -0.288946 0.893 113 92 87
0.201518 0.185882 0.935 96 82 67
-0.156465 -0.120452 1.178 149 128 113
-0.800415 -0.337865 1.563 144 125 108
-0.450331 0.293393 1.429 123 104 87
0.244141 -0.168469 0.836 102 89 78
-0.150298 0.0248538 1.16 126 105 90
0.313301 -0.163882 0.794 91 87 80
0.22178 0.165153 0.502 203 197 201
0.309047 -0.229535 0.78 107 88 84
0.169934 0.167929 0.537 25 45 42
0.094056 -0.246288 0.941 153 132 119
-0.0517472 -0.265174 1.039 122 101 96
0.187404 -0.0621894 0.532 41 38 35
-0.517253 -0.285658 1.384 125 108 92
0.191876 0.0510299 0.53 18 31 28
-0.371452 0.338984 1.378 125 104 89
-0.378393 0.433739 1.387 115 101 82
-0.157877 -0.296782 1.12 152 130 120
-0.897899 0.643763 1.805 100 91 74
-0.167589 -0.354545 1.124 131 113 102
0.026889 -0.129187 1.007 161 136 129
-0.634422 -0.478331 1.435 168 148 140
0.177345 -0.0206727 0.533 36 34 24
-0.15913 -0.308435 1.116 186 163 144
0.138754 0.196151 0.545 64 25 23
0.236414 0.13224 0.495 181 191 194
-0.785475 -0.405562 1.579 141 129 111
0.178982 -0.199852 0.891 105 89 82
0.312703 -0.195487 0.786 132 118 110
0.0798161 0.186553 1.013 103 84 67
-0.632687 0.28563 1.551 122 105 87
0.218212 0.146997 0.507 177 185 184
-0.317106 -0.198055 1.244 131 108 105
-0.115854 -0.0515002 1.137 122 101 86
-0.667937 -0.564336 1.452 168 155 144
0.163548 0.200131 0.539 19 50 50
0.201466 -0.0316487 0.528 32 35 36
0.248448 0.116631 0.487 250 255 254
-0.841578 -0.0128456 1.633 97 78 61
-0.139567 -0.15704 1.165 143 118 109
-0.112145 0.171501 1.156 133 110 91
-0.139154 0.303436 1.194 125 103 95
0.0906689 0.375386 1.043 122 105 91
-0.223102 -0.0677966 1.196 147 123 111
0.295881 -0.130276 0.81 94 87 79
0.216606 0.0949366 0.511 17 29 35
0.149708 0.0375173 0.954 131 112 97
0.142538 0.154598 0.958 101 80 63
-0.364184 0.080259 1.327 107 84 63
-0.319133 -0.0980802 1.26 121 104 90
0.164717 0.0915649 0.951 108 90 70
-0.724352 0.136081 1.603 123 107 86
-0.253351 -0.401603 1.165 173 154 137
-0.321925 0.24776 1.322 131 111 89
-0.0362795 -0.213005 1.032 178 152 141
0.196905 -0.0173318 0.9 101 85 78
-0.764584 0.288176 1.668 117 100 82
-0.513543 0.276809 1.477 125 104 87
-0.816247 -0.186919 1.599 131 114 96
-0.370668 -0.00380495 1.275 196 176 156
0.0958673 -0.0901752 0.975 103 88 78
0.0402682 0.316782 1.057 124 105 92
-0.0156053 -0.303736 0.999 122 104 95
-0.359323 0.393828 1.366 124 104 84
0.115902 -0.0265724 0.97 102 87 77
0.0545465 -0.213714 0.974 110 95 85
-0.0305275 0.393826 1.13 125 104 87
-0.371876 -0.0745989 1.316 124 104 94
-0.270366 -0.394816 1.173 174 152 142
0.193314 0.219089 0.947 101 84 68
-0.482998 -0.365709 1.339 143 123 113
0.212846 0.0144144 0.516 22 25 28
0.231859 -0.255362 0.831 100 89 82
0.0746946 -0.295944 0.948 112 97 85
0.0484379 0.0118016 1.012 135 111 99
-0.696812 -0.549565 1.463 158 140 129
0.0309163 -0.0400266 1.032 106 91 81
0.148578 0.187133 0.542 23 20 17
0.173431 0.0884066 0.537 16 22 20
0.0859345 0.294421 1.027 120 106 91
-0.189706 -0.086238 1.182 120 100 92
-0.223058 -0.00759278 1.217 164 138 125
-0.450109 -0.377838 1.313 159 145 130
0.292646 -0.125313 0.812 90 83 73
-0.785149 -0.307343 1.563 158 139 124
-0.422354 -0.459685 1.262 138 120 109
-0.462077 -0.466606 1.281 138 123 111
0.161215 0.146899 0.54 14 21 15
0.119147 -0.0480694 0.958 170 146 132
-0.0293308 -0.29634 1.024 120 105 95
-0.473592 0.202701 1.429 128 107 90
0.176477 0.0348388 0.533 18 18 18
0.0459015 0.0622355 1.029 99 68 70
-0.312553 -0.163377 1.242 118 100 89
0.119769 -0.00757521 0.963 101 86 74
-0.514764 0.570294 1.516 109 95 78
-0.0254944 0.0439432 1.073 160 135 117
-0.00818515 0.274462 1.094 127 107 97
0.0574804 -0.282291 0.97 117 98 92
0.185672 -0.0578607 0.532 44 39 35
-0.531868 -0.312007 1.381 139 117 107
-0.519469 -0.307741 1.372 135 117 106
-0.42436 0.130151 1.375 134 111 90
-0.142269 -0.361617 1.112 165 136 126
0.33825 -0.114028 0.78 89 82 76
0.392078 -0.146588 0.771 128 119 110
0.346759 -0.19197 0.757 142 129 116
0.120542 -0.260537 0.921 114 99 89
-0.175072 -0.399612 1.102 135 120 108
0.241414 0.0551316 0.497 15 21 21
-0.178442 0.220863 1.21 133 109 93
0.357934 -0.190702 0.752 142 129 116
0.184685 -0.00272166 0.912 96 81 71
-0.177865 -0.291717 1.143 129 111 102
0.318377 -0.128186 0.797 99 88 81
-0.0265161 0.330832 1.116 125 107 87
-0.133814 0.0540974 1.102 176 143 128
0.151594 -0.279913 0.892 112 94 83
0.0524993 0.0537582 1.027 167 141 126
0.0741854 0.357401 1.05 125 107 87
-0.5553 -0.362669 1.412 129 115 100
0.321744 -0.190187 0.78 109 93 86
0.243295 0.0760395 0.491 15 20 25
-0.78241 -0.106254 1.599 157 137 117
0.0875845 0.129022 0.989 112 93 78
-0.180849 0.488059 1.254 117 96 79
0.176927 0.123362 0.537 20 39 41
0.157226 -0.241901 0.891 174 150 134
-0.137057 -0.0647491 1.176 142 118 106
0.139116 -0.124514 0.935 107 89 80
-0.0198769 -0.116239 1.053 110 91 85
0.237988 0.0343091 0.5 20 20 20
0.246638 0.174556 0.485 246 254 251
0.183311 -0.110819 0.898 106 91 81
0.165688 -0.256681 0.882 108 93 81
0.175488 -0.171723 0.888 164 143 128
-0.309281 -0.303629 1.237 123 109 94
-0.328244 0.39476 1.339 120 101 84
-0.503657 -0.0403399 1.39 186 168 146
-0.505015 0.136209 1.439 128 107 90
-0.109225 0.231607 1.165 131 107 93
-0.442771 -0.00833521 1.336 170 147 128
0.0599118 -0.158262 0.984 102 88 80
0.224553 -0.0284676 0.882 162 138 122
-0.331921 0.456471 1.354 119 101 81
-0.512387 0.582394 1.509 109 100 79
-0.781544 0.558155 1.705 107 93 76
-0.821343 0.133856 1.673 117 103 86
0.181066 -0.161426 0.887 145 125 117
-0.0958394 -0.346105 1.059 151 126 117
0.0141858 -0.0300953 1.037 107 91 84
0.0685429 0.0151699 1.017 133 108 99
0.152989 0.186251 0.542 11 17 17
0.169375 0.12972 0.538 17 30 29
-0.190847 -0.296402 1.154 131 113 104
0.233685 -0.0227833 0.503 249 255 254
0.0922733 0.225966 1.005 126 107 94
-0.641815 0.00779554 1.513 95 82 60
0.150745 -0.320204 0.887 117 101 94
-0.764274 -0.231418 1.583 140 122 113
-0.233688 -0.245506 1.171 142 120 110
0.231784 -0.0196255 0.506 35 77 103
-0.224035 -0.101305 1.201 122 102 92
-0.358615 -0.0144461 1.299 184 162 138
0.24043 -0.0136971 0.5 29 35 48
0.0799962 -0.112388 0.975 112 91 88
-0.601002 -0.537305 1.406 160 151 134
-0.424667 -0.0968171 1.327 169 148 135
-0.365516 0.0930051 1.324 109 87 61
-0.307245 0.321406 1.333 126 106 86
-0.19184 -0.205446 1.16 123 105 94
0.131052 0.206274 0.989 102 84 62
0.237512 0.0577895 0.499 13 21 22
-0.331783 0.209827 1.327 127 108 91
0.21531 0.196113 0.506 200 200 194
-0.33189 0.0808658 1.302 102 84 64
0.168649 -0.0148827 0.93 97 84 73
-0.274865 -0.212707 1.201 126 107 94
-0.12987 0.359039 1.198 125 104 89
0.0659009 -0.00788199 1.002 137 113 101
-0.0550329 0.0594915 1.07 195 169 154
0.150174 0.0663538 0.967 165 141 125
-0.364236 -0.437193 1.239 136 122 114
0.16466 0.114022 0.908 198 178 156
0.180838 0.172848 0.528 69 130 170
-0.872032 0.471171 1.753 102 93 76
-0.585876 -0.140407 1.442 144 130 111
0.0727259 -0.0797985 0.984 107 89 78
0.163362 -0.110697 0.909 136 115 100
-0.699845 -0.364711 1.516 166 145 132
-0.308531 -0.300885 1.234 126 112 97
0.155697 0.224873 0.972 117 98 81
-0.180821 -0.135835 1.162 123 103 95
-0.28634 -0.191043 1.225 127 107 99
0.35041 -0.281356 0.749 102 92 90
0.378524 -0.169123 0.754 128 115 104
-0.38762 -0.155837 1.297 177 153 141
-0.557576 0.38492 1.505 118 100 78
-0.574356 0.603767 1.571 105 98 79
0.122374 0.230657 0.997 125 106 93
0.0519279 -0.312116 0.955 139 117 109
0.0405666 -0.231214 0.981 108 95 84
-0.741555 0.39731 1.659 109 97 77
-0.147292 0.324056 1.213 125 104 87
0.16437 0.22787 0.958 121 104 86
0.129064 0.158765 0.974 105 84 69
0.168355 0.259672 0.972 125 108 94
-0.577143 0.517837 1.551 116 100 77
0.162811 0.210721 0.958 95 81 64
-0.318094 0.375637 1.333 129 105 89
0.295207 -0.231071 0.794 103 94 87
0.243176 -0.291658 0.819 174 155 142
0.274106 -0.257498 0.808 103 94 85
-0.348472 0.228129 1.333 131 108 87
0.360392 -0.261257 0.737 178 166 150
-0.45094 0.103751 1.381 133 113 91
-0.558891 -0.0581541 1.439 177 160 133
-0.155536 0.124181 1.171 109 86 65
-0.395092 -0.0641824 1.322 128 110 99
-0.490519 -0.409013 1.324 137 118 103
-0.442519 0.0890251 1.362 110 88 64
0.0541711 0.0504157 1.027 166 140 125
0.000699232 0.135343 1.064 106 81 72
0.132235 0.0795143 0.974 130 106 92
0.262971 -0.145825 0.831 150 130 122
0.227134 0.0836277 0.503 15 22 28
-0.0984703 -0.0880513 1.108 131 103 100
0.238424 -0.289698 0.821 179 161 150
-0.621735 -0.0644969 1.477 185 163 139
0.23124 0.168022 0.496 241 242 255
0.112796 -0.127249 0.944 105 90 80
0.245693 0.098412 0.491 18 30 36
-0.0927905 0.336276 1.173 125 106 91
-0.011983 0.399843 1.116 122 105 89
0.234386 0.0319318 0.501 18 23 28
0.188516 -0.0115882 0.909 101 86 76
0.0118108 -0.341018 0.98 182 161 144
0.0863267 0.211071 1.012 127 106 91
-0.185801 0.132449 1.194 109 85 71
0.260825 -0.2333 0.82 103 94 87
-0.253812 -0.071259 1.222 148 127 112
0.368483 -0.274527 0.734 106 100 87
0.35677 -0.245352 0.747 101 94 84
0.210473 -0.220738 0.854 145 125 115
-0.00100169 0.0993638 1.032 96 72 58
-0.388636 0.0261734 1.322 113 93 71
0.0174263 -0.0717262 1.029 169 145 133
-0.399362 -0.260765 1.294 123 107 102
-0.0429207 -0.079957 1.072 172 147 138
0.245143 -0.016884 0.498 31 69 92
-0.797754 0.378914 1.71 109 97 79
-0.354408 -0.251293 1.247 121 105 98
0.0450094 -0.0982457 1.009 103 88 78
-0.0147067 -0.119438 1.051 110 92 81
0.235132 0.168149 0.494 229 233 247
0.381305 -0.104638 0.767 119 111 99
-0.761448 -0.327699 1.551 138 120 109
0.139884 0.193936 0.63 114 98 93
-0.144985 0.27429 1.194 127 107 85
-0.675693 0.440187 1.599 112 99 86
0.190879 0.123254 0.879 169 145 129
-0.834763 0.445024 1.729 105 91 72
-0.13838 -0.0911523 1.171 143 117 106
0.202112 0.0622712 0.523 18 25 29
0.224152 0.173446 0.5 176 162 156
-0.0838516 -0.256734 1.06 121 104 90
0.188105 -0.114562 0.893 102 87 77
0.178343 0.124004 0.536 21 40 44
0.208169 -0.00746092 0.519 19 34 47
-0.482412 -0.159188 1.381 121 103 94
0.212492 -0.299136 0.84 169 155 138
0.220364 0.0576287 0.512 12 25 24
0.157699 -0.178834 0.902 134 113 100
0.19419 -0.0158848 0.901 101 86 76
-0.725283 -0.365111 1.528 159 144 132
-0.318374 -0.103983 1.257 121 103 92
-0.125571 0.291206 1.176 126 107 92
0.150235 -0.298981 0.884 150 128 118
0.276142 -0.217022 0.814 176 157 142
-0.592075 -0.399433 1.412 170 148 138
0.2518 0.013744 0.492 22 21 28
0.239137 0.0553534 0.499 15 21 19
0.223765 -0.0351279 0.516 73 151 185
-0.512071 -0.475805 1.324 140 122 113
0.211615 0.153146 0.511 184 192 189
-0.779121 -0.479138 1.551 147 129 118
0.18305 -0.317948 0.869 113 97 90
-0.0709005 0.0432589 1.1 171 147 124
-0.0499113 -0.272838 1.036 150 130 120
0.114604 0.232978 1 125 106 93
0.0495344 -0.302499 0.969 118 99 93
-0.258373 -0.38355 1.162 161 141 131
0.159148 0.103942 0.536 25 26 20
-0.132844 -0.155826 1.156 142 117 110
-0.615944 0.00528051 1.498 97 79 68
0.285837 -0.244448 0.804 102 94 82
0.121084 -0.0435283 0.961 152 132 124
0.0562952 -0.324395 0.95 170 146 134
-0.493652 -0.172672 1.381 134 112 104
0.174201 -0.0485193 0.534 121 105 100
0.236084 0.136543 0.496 238 255 255
-0.544945 -0.279354 1.409 126 109 95
0.131589 0.057736 0.981 138 117 100
0.0579635 0.37499 1.066 124 107 89
-0.409138 0.180823 1.369 131 110 93
-0.341695 -0.052173 1.291 125 108 92
-0.614819 0.564585 1.583 109 100 81
-0.246174 -0.357732 1.158 131 113 102
0.202963 0.0120567 0.523 26 54 60
0.229849 0.153104 0.5 183 186 185
0.00613897 0.418614 1.108 118 101 85
-0.414605 -0.337369 1.289 127 112 100
-0.488202 -0.102333 1.372 130 110 100
-0.805836 -0.249369 1.599 151 137 120
-0.427838 -0.456906 1.26 140 122 111
-0.385671 0.205737 1.357 131 111 91
-0.707286 -0.0397583 1.543 106 86 64
-0.0433741 -0.191146 1.041 113 93 85
-0.34205 -0.283958 1.239 164 140 124
0.234576 -0.125191 0.866 99 84 72
0.101248 -0.135931 0.951 102 89 78
-0.844844 0.553894 1.744 106 93 80
-0.818224 -0.518454 1.563 148 136 120
-0.753051 -0.450386 1.539 156 141 129
-0.563179 -0.321544 1.403 149 130 124
-0.782312 -0.0974623 1.583 176 158 138
0.212587 -0.272897 0.835 111 97 89
0.124089 0.304237 0.834 35 27 24
0.236833 -0.0275845 0.501 250 255 254
-0.481364 -0.238479 1.359 149 131 122
0.217386 -0.0625671 0.507 42 40 32
-0.327932 -0.251698 1.239 123 103 95
-0.0455823 0.169424 1.094 108 88 68
0.176598 0.0806355 0.932 164 142 118
-0.802633 -0.0334785 1.603 93 77 56
-0.133062 -0.298372 1.126 162 135 127
-0.716454 0.0385753 1.563 106 89 62
-0.219861 -0.109967 1.189 127 106 103
-0.114404 0.0225899 1.141 175 148 124
-0.322434 0.304053 1.333 123 104 89
-0.321871 0.162743 1.313 135 110 92
-0.275525 -0.241134 1.187 123 105 96
-0.508911 -0.472564 1.327 144 126 115
-0.0744093 0.000304454 1.126 143 117 106
-0.415874 0.196318 1.384 131 108 87
-0.719941 0.127935 1.599 123 106 90
-0.176866 -0.397818 1.102 133 118 106
-0.559096 0.537764 1.543 114 98 75
-0.142991 0.102426 1.162 107 84 65
0.21089 -0.0258582 0.891 160 143 129
0.152803 0.171688 0.62 103 96 88
0.0875845 -0.012608 0.989 103 85 76
0.0937562 -0.256187 0.938 181 157 143
-0.599203 -0.350757 1.429 133 120 109
0.142825 0.163045 0.547 97 87 75
-0.860618 0.511109 1.753 107 90 76
-0.633573 0.279858 1.547 119 102 84
-0.301713 -0.181128 1.239 118 100 91
0.145584 0.147101 0.544 75 71 62
0.146363 0.189952 0.627 129 111 102
0.0203322 0.095318 1.007 99 75 63
0.247194 0.178553 0.483 209 209 209
0.236084 0.151072 0.496 194 192 208
-0.493652 -0.107499 1.381 150 129 116
0.170724 0.0331661 0.534 23 23 23
-0.582315 -0.247834 1.439 118 108 96
-0.159348 -0.0320786 1.171 142 116 112
-0.482157 0.519617 1.484 116 99 85
-0.979087 0.654852 1.853 97 70 46
0.178744 -0.0266941 0.532 33 34 25
0.245693 0.109598 0.491 248 255 253
-0.0383211 0.426257 1.143 120 101 88
0.269848 -0.23453 0.815 109 94 84
-0.18937 -0.057871 1.192 154 130 118
0.193853 0.100291 0.526 14 28 48
-0.2634 -0.330759 1.176 181 160 145
0.122867 -0.29872 0.905 137 118 112
-0.899701 0.151964 1.724 116 103 90
-0.430927 -0.0820703 1.333 124 106 95
0.0841088 0.123817 0.986 106 89 64
-0.884044 0.0755961 1.71 116 104 88
0.312512 -0.181513 0.792 93 89 78
-0.538737 0.512644 1.528 115 99 76
0.357248 -0.239594 0.748 101 92 85
0.207002 -0.0230098 0.893 116 100 93
-0.518785 -0.0550366 1.419 100 75 57
0.22973 -0.0619876 0.869 90 82 70
0.140638 -0.141252 0.935 97 84 71
0.111242 -0.23761 0.931 133 112 109
-0.0487551 -0.365329 1.012 126 108 99
0.24889 0.0344906 0.491 19 18 27
-0.309509 -0.290005 1.222 126 109 95
-0.713068 0.416017 1.637 109 97 79
0.115406 0.300158 1.007 123 106 88
0.232755 0.0702505 0.501 18 23 28
-0.326513 0.00440278 1.249 195 175 155
-0.109429 -0.0621063 1.128 120 98 90
0.182208 0.117019 0.532 46 63 77
-0.586482 0.0531335 1.473 101 84 66
0.170251 0.176122 0.538 23 49 51
-0.502673 0.138551 1.439 133 110 91
-0.532973 0.376487 1.491 119 101 81
0.201366 -0.0369435 0.53 36 48 64
0.313823 -0.262697 0.773 144 126 115
-0.695805 -0.00715259 1.551 101 82 65
-0.0580481 0.0341215 1.094 174 146 127
0.29129 -0.210949 0.801 178 164 145
-0.140203 0.368368 1.203 122 103 90
-0.662225 -0.161664 1.509 136 118 109
-0.427138 0.149021 1.384 135 113 89
-0.216548 0.151836 1.225 135 111 95
-0.843639 -0.140746 1.637 144 120 106
-0.525721 0.451387 1.498 116 103 81
-0.212317 0.262114 1.247 126 107 90
0.346612 -0.278326 0.754 107 99 87
-0.760032 -0.556036 1.513 148 137 130
-0.499402 -0.493326 1.319 144 130 122
0.118331 0.271489 1.004 124 107 93
-0.866831 0.0168778 1.682 119 105 86
0.140701 -0.262191 0.906 109 93 86
-0.185043 -0.416212 1.108 139 119 111
0.0415518 0.02922 1.046 138 114 100
-0.0420824 -0.358032 1.01 129 110 108
-0.542306 -0.509692 1.351 159 141 132
0.190157 -0.134302 0.889 99 86 75
0.142443 0.103508 0.947 195 170 152
0.206822 -0.0790602 0.886 100 85 75
0.365893 -0.254914 0.736 147 129 120
-0.0836283 0.270266 1.152 126 107 94
-0.0998922 0.0917598 1.124 109 83 70
0.0722806 -0.00135694 1 143 117 102
0.198839 -0.114049 0.889 100 85 75
-0.0622855 0.128087 1.106 108 85 64
-0.440988 0.11698 1.378 132 112 92
-0.199377 -0.129264 1.171 130 111 98
0.343298 -0.205908 0.763 124 114 102
-0.580048 0.436701 1.532 112 101 78
0.170404 -0.00245798 0.533 49 38 33
0.0199485 -0.25055 0.988 119 100 94
0.213848 -0.169501 0.862 108 92 85
0.209674 -0.0142746 0.892 97 87 75
0.11501 -0.179674 0.937 173 147 134
-0.240095 0.0121717 1.213 190 167 146
-0.554603 -0.224079 1.422 120 107 94
0.361928 -0.125201 0.763 153 135 126
-0.0982082 -0.370945 1.066 169 148 131
0.187562 0.105366 0.53 39 77 100
-0.195191 -0.0481721 1.192 175 149 136
0.0723382 0.349899 1.048 124 105 88
0.291693 -0.26523 0.788 140 123 109
0.184286 0.0825439 0.533 19 34 31
0.142464 -0.0729374 0.937 99 85 77
-0.0118542 0.303919 1.104 123 104 87
-0.805503 -0.439605 1.563 151 136 124
-0.307267 0.0265035 1.237 109 80 66
-0.742282 -0.569104 1.502 162 148 129
0.222723 0.106359 0.506 250 255 254
0.245488 0.138595 0.489 208 221 232
-0.509473 0.179104 1.445 133 110 91
0.178744 -0.0223654 0.532 33 33 27
0.0875908 -0.195353 0.954 120 105 93
0.358971 -0.24921 0.744 132 118 110
-0.401725 0.168444 1.359 134 111 90
0.164252 -0.27534 0.882 109 94 84
0.152025 -0.0746895 0.921 98 83 71
-0.699047 0.0205581 1.547 103 83 63
-0.593676 -0.0834987 1.473 174 151 130
0.294926 -0.126478 0.811 89 80 73
-0.533509 -0.406361 1.351 136 118 109
0.0983022 0.350272 1.034 121 104 88
0.186233 -0.144754 0.891 97 86 79
0.207794 -0.0688118 0.884 95 82 69
-0.508734 0.375355 1.477 121 101 81
-0.687678 0.0922246 1.567 127 107 85
-0.712449 -0.262898 1.571 130 112 101
0.268506 -0.115731 0.819 93 82 75
0.096502 0.0976525 0.95 199 174 156
-0.371339 0.51637 1.403 116 99 85
0.279574 -0.287758 0.79 124 105 101
0.0296281 -0.200911 0.989 170 149 132
-0.137577 0.0712571 1.118 97 76 59
-0.891509 0.484107 1.769 96 88 74
-0.743598 -0.329314 1.535 137 120 106
0.0440546 0.137054 1.025 106 83 62
-0.210184 -0.0654649 1.189 141 122 107
-0.343784 0.488164 1.375 116 97 82
-0.261347 0.387195 1.299 124 103 86
-0.0614439 0.373434 1.158 122 104 84
0.108381 0.338226 1.018 121 107 90
0.135128 0.0840963 0.972 84 65 52
-0.168782 -0.215224 1.132 125 105 95
-0.293949 0.305846 1.322 127 106 89
0.369967 -0.140497 0.772 98 94 83
0.213686 0.0177733 0.516 15 22 26
0.209233 -0.107653 0.884 102 89 76
0.301511 -0.182659 0.797 94 88 73
0.200247 0.182355 0.516 197 197 193
-0.184088 -0.21061 1.147 123 105 96
0.0625467 -0.304618 0.951 121 98 93
-0.678758 -0.290124 1.513 159 145 130
-0.377382 0.501596 1.4 120 100 80
-0.28598 -0.205301 1.215 154 135 122
0.236084 0.150265 0.496 231 236 252
0.164019 0.135138 0.921 86 70 49
0.372839 -0.10312 0.765 103 97 82
-0.459673 0.0884021 1.387 110 88 60
-0.0733194 0.42951 1.167 117 98 83
-0.0256369 0.130227 1.079 106 83 64
-0.301871 0.406035 1.319 119 101 81
0.0787655 -0.198144 0.96 120 100 90
0.107154 0.102197 0.935 194 165 151
0.380807 -0.111981 0.766 123 116 99
-0.52957 0.337712 1.502 120 101 84
-0.745538 -0.144195 1.587 133 119 102
0.0971546 -0.0993883 0.972 100 90 78
0.324718 -0.177038 0.778 95 86 79
0.184314 -0.217622 0.875 114 95 93
0.0608251 0.0831809 0.999 194 169 151
-0.00743696 -0.347508 0.994 167 148 133
-0.126959 0.0317621 1.137 181 156 136
-0.186451 0.334493 1.237 124 105 88
-0.402783 -0.139162 1.319 118 100 89
-0.258423 -0.0694405 1.225 158 139 124
0.182024 0.0792228 0.534 25 33 32
-0.753287 -0.379154 1.555 160 143 127
-0.332727 0.120657 1.297 124 105 88
0.188291 0.0694577 0.945 133 114 101
-0.361074 -0.347301 1.242 178 154 140
-0.757086 0.00302685 1.595 93 81 61
0.226084 0.0439516 0.508 18 20 26
0.162067 0.10501 0.537 22 23 17
-0.474802 -0.00186173 1.372 96 72 56
-0.37246 -0.28467 1.26 178 157 144
-0.317848 0.00638379 1.239 193 173 153
0.248803 -0.00308203 0.494 19 29 32
-0.550667 0.0262026 1.442 102 86 65
-0.244257 -0.214021 1.176 119 104 94
0.272166 -0.166986 0.822 99 89 77
-0.393353 -0.154319 1.302 168 143 134
0.186889 -0.0605715 0.533 41 38 33
0.123406 -0.276723 0.92 114 95 91
-0.412532 0.429891 1.419 117 101 80
-0.186046 -0.36408 1.114 153 131 123
-0.205401 0.257021 1.242 125 109 88
0.210062 -0.251093 0.858 105 94 85
0.135758 0.299234 0.839 33 26 20
-0.115117 -0.352569 1.112 142 117 108
-0.753288 -0.262993 1.587 133 118 106
-0.0340043 -0.0656316 1.066 111 90 87
-0.179755 -0.360574 1.12 140 118 110
-0.336107 -0.348514 1.232 179 160 145
-0.359051 0.116705 1.324 125 105 83
-0.1225 -0.122914 1.165 126 102 90
0.192701 0.067848 0.944 132 112 104
0.178597 0.204166 0.529 27 75 108
-0.406149 0.137483 1.359 134 111 92
-0.654317 -0.365684 1.48 136 122 107
-0.60775 0.228322 1.539 122 105 87
0.243521 -0.0112111 0.498 31 37 48
-0.549007 -0.0314271 1.396 157 129 112
0.18794 -0.245257 0.872 112 97 87
0.325482 -0.258959 0.762 143 128 116
-0.218475 -0.0656301 1.192 147 126 111
0.230966 -0.275672 0.823 143 123 113
0.00782788 0.311278 1.092 127 107 87
0.159752 0.184147 0.541 21 28 20
0.198795 0.131556 0.521 140 175 188
0.151587 0.329626 0.997 122 103 90
0.224241 0.0104722 0.898 95 82 71
0.133909 -0.343937 0.9 117 99 90
0.327408 -0.279924 0.755 108 94 88
0.026889 -0.152129 1.007 107 92 80
-0.689868 -0.469826 1.505 144 126 115
-0.0465406 -0.113419 1.075 109 94 84
-0.356841 -0.0720169 1.308 125 103 95
0.227661 0.189389 0.497 179 160 143
0.10681 -0.277299 0.932 115 97 86
0.144805 0.237257 0.984 127 108 93
0.083019 -0.203329 0.955 112 93 87
0.367454 -0.104064 0.772 83 76 68
0.180319 0.180062 0.529 32 95 134
-0.595265 -0.180299 1.442 120 105 95
0.346114 -0.197938 0.761 171 159 143
-0.100972 -0.277938 1.096 126 107 94
-0.179576 -0.178092 1.154 179 155 139
0.0617636 -0.136396 0.988 112 97 85
-0.442574 -0.126302 1.342 122 105 87
-0.0328559 -0.224325 1.03 117 99 88
0.0364689 -0.13968 1 126 107 92
0.189996 0.00024578 0.909 95 81 77
-0.343284 -0.0249771 1.297 173 147 132
-0.431722 0.481755 1.429 118 99 82
0.119419 0.187999 0.986 102 85 67
-0.00775868 -0.0975969 1.037 109 91 80
0.203425 0.0298724 0.522 14 29 42
0.186347 0.111194 0.529 47 90 111
-0.811179 -0.295072 1.579 134 120 101
0.217041 0.0285782 0.514 17 25 26
0.155593 0.164474 0.952 100 83 65
0.243198 -0.0299104 0.499 80 158 190
0.136429 0.0286754 0.97 122 100 90
0.265883 -0.259774 0.811 102 92 78
0.234656 0.17182 0.493 194 196 206
-0.524303 -0.199102 1.409 128 116 98
0.193807 0.177503 0.519 194 195 189
0.164936 -0.285522 0.878 116 95 92
0.151212 0.029443 0.944 147 116 114
0.276785 -0.183454 0.812 99 89 77
0.233272 -0.309559 0.817 112 99 88
-0.139953 -0.412606 1.108 153 140 127
-0.144998 0.457583 1.227 120 100 80
0.176268 0.159468 0.535 30 51 59
-0.239273 -0.352129 1.152 134 113 108
0.239137 0.0586016 0.499 13 21 22
0.232983 0.14844 0.498 233 249 255
0.0112475 0.228557 1.079 129 108 95
-0.0881233 0.0891306 1.114 113 91 67
0.212443 0.106996 0.513 250 255 254
-0.181436 -0.410803 1.108 137 117 107
0.226393 -0.0499933 0.505 19 77 120
-0.249234 0.466484 1.302 119 99 77
0.357279 -0.253711 0.743 142 129 118
0.334604 -0.215841 0.763 97 90 82
-0.513814 -0.267114 1.393 129 111 100
-0.373166 0.0366786 1.313 95 71 57
0.0607396 0.0553215 1.025 169 144 126
-0.404742 -0.437706 1.252 140 122 113
-0.0861495 -0.377602 1.046 135 118 104
-0.430927 -0.0907472 1.333 119 101 90
0.214085 0.165973 0.507 252 255 251
0.362299 -0.258507 0.736 166 151 141
0.174853 0.0891142 0.536 17 25 22
-0.805979 -0.504443 1.559 151 139 119
-0.717822 -0.444681 1.528 163 146 132
-0.150457 -0.0551804 1.176 148 124 112
0.139423 -0.201207 0.917 108 90 79
-0.760567 -0.437864 1.539 160 143 129
-0.469718 0.0320437 1.39 103 82 67
-0.0977624 0.41176 1.187 122 103 88
-0.185858 -0.00352741 1.182 160 134 119
0.213212 -0.0363162 0.521 83 156 190
-0.512935 -0.225652 1.403 118 105 92
0.242002 0.165192 0.49 222 218 239
0.0238696 0.397302 1.094 122 105 91
-0.202589 0.173764 1.225 136 113 94
0.136383 -0.301918 0.897 155 130 121
0.134878 0.125216 0.948 93 73 53
0.355959 -0.182378 0.753 115 101 95
0.231826 0.150362 0.499 193 192 192
0.204853 -0.270246 0.848 106 96 82
0.14124 -0.045588 0.939 165 141 127
-0.323105 0.471894 1.354 117 96 81
0.081165 -0.130754 0.97 118 98 88
-0.519466 -0.235885 1.396 121 105 98
-0.448005 0.295719 1.429 124 106 86
0.0125459 0.00536362 1.041 138 114 102
-0.0514981 -0.285772 1.034 179 155 141
-0.348101 -0.370657 1.239 130 115 103
-0.505018 0.530826 1.509 113 104 83
0.255081 -0.208707 0.823 138 124 109
0.22201 -0.226662 0.845 181 157 143
-0.805217 -0.1317 1.624 156 140 119
0.133877 0.0895861 0.963 187 165 141
0.365595 -0.262225 0.733 176 163 152
0.330068 -0.217367 0.764 101 92 85
-0.168562 -0.202435 1.143 125 107 98
0.231706 0.114981 0.497 241 255 255
-0.811063 -0.594097 1.535 145 136 117
0.238631 0.185166 0.488 176 153 132
0.085282 0.0989888 0.963 191 162 148
-0.172062 -0.176214 1.154 178 154 140
-0.39003 -0.171923 1.291 125 108 92
-0.186878 -0.327015 1.13 133 115 106
0.143813 0.206414 0.544 18 17 19
-0.217595 0.480762 1.278 115 98 82
0.13207 0.123934 0.95 94 74 54
0.235277 0.146229 0.496 190 197 205
0.0520154 0.291039 1.051 126 107 94
0.18813 0.196368 0.522 150 171 179
0.0891786 0.0363241 1.007 135 114 101
0.168068 -0.289246 0.872 140 120 110
0.189342 0.172188 0.935 98 85 63
0.0700257 0.286025 1.039 125 106 93
-0.751349 -0.466518 1.551 149 135 120
0.169375 0.130595 0.538 19 30 30
0.250264 0.0423077 0.489 16 19 20
-0.471341 -0.196893 1.362 117 103 88
-0.55355 -0.511955 1.357 158 140 131
0.133134 0.0223383 0.969 166 139 131
0.165564 0.0254876 0.537 72 63 56
0.149675 0.014081 0.944 135 114 101
0.211516 -0.0397075 0.521 229 255 255
-0.307267 -0.168758 1.237 119 101 90
-0.712083 0.0105696 1.559 99 81 61
0.237369 0.0899092 0.497 15 25 32
-0.810348 -0.0075123 1.629 99 78 61
-0.473763 -0.0753755 1.369 130 118 100
-0.516321 -0.120885 1.406 162 144 124
0.0441172 -0.179989 0.989 113 91 83
0.270036 -0.302898 0.796 109 99 85
-0.477152 0.10608 1.412 132 112 92
0.0931142 0.10505 0.947 141 115 102
-0.309896 -0.447879 1.208 136 119 105
0.103027 -0.151024 0.939 100 87 76
0.0593593 0.186331 1.03 104 84 64
-0.365661 -0.400254 1.237 140 125 113
-0.25141 -0.0731277 1.22 145 124 109
-0.221796 0.164732 1.232 137 111 96
-0.746707 0.186005 1.629 123 106 88
-0.0355048 -0.132411 1.059 112 93 89
-0.25904 -0.395915 1.165 183 166 150
-0.374769 -0.364941 1.254 136 124 106
0.00415538 0.142001 1.062 104 83 66
-0.00818515 0.256659 1.094 128 107 92
0.157212 0.0352108 0.934 129 108 95
-0.511825 0.179104 1.445 133 110 89
0.241027 -0.144839 0.849 113 98 88
-0.134701 -0.137056 1.189 139 118 105
0.0845353 -0.0126335 0.991 104 86 75
-0.534896 -0.113243 1.425 128 111 95
-0.633412 0.307399 1.559 119 102 84
0.129835 0.211743 0.992 103 85 65
0.189491 0.0461145 0.533 21 29 28
-0.291948 0.406325 1.313 121 100 83
-0.648639 0.269344 1.559 122 103 86
-0.372341 0.139191 1.333 136 113 92
0.309066 -0.110504 0.81 47 42 38
0.135702 0.201322 0.547 37 50 59
0.214531 0.0904752 0.514 19 26 32
0.0430912 -0.255975 0.966 159 134 127
-0.134798 -0.266923 1.173 148 129 116
0.232638 0.0740303 0.499 12 21 31
-0.889058 0.626985 1.799 102 93 74
-0.262728 -0.318462 1.173 159 137 129
0.171127 0.127969 0.538 17 32 31
-0.160947 -0.306619 1.116 181 160 145
0.35416 -0.156651 0.765 93 86 80
0.173108 0.0699248 0.536 20 19 23
-0.0322085 -0.0516566 1.064 110 92 83
-0.596774 0.196337 1.505 124 106 84
-0.562134 0.320338 1.524 124 104 84
0.173874 -0.0310811 0.533 57 50 44
-0.455696 0.0182724 1.375 97 79 59
-0.0999145 0.313666 1.167 127 106 89
0.212433 0.0948416 0.515 17 29 35
-0.682523 -0.56385 1.463 166 152 148
0.172276 0.20587 0.95 99 85 68
-0.559058 0.4105 1.509 115 102 80
-0.0325415 -0.00670685 1.075 141 117 105
0.209322 -0.0339671 0.524 148 232 248
-0.190508 0.0157741 1.187 107 85 77
-0.349228 0.00445918 1.265 198 176 152
-0.0861456 0.0729531 1.089 102 71 62
-0.0044291 -0.120803 1.048 105 92 81
-0.788855 -0.100544 1.591 172 153 136
0.321195 -0.169055 0.788 91 82 77
0.199721 0.149632 0.519 178 199 205
-0.719696 -0.182243 1.559 132 112 102
-0.257048 -0.282435 1.182 127 113 98
0.232866 0.0476117 0.503 12 22 27
0.11716 0.306583 0.833 33 25 24
0.188591 -0.326609 0.862 111 101 89
-0.0612155 -0.0686934 1.087 111 93 82
0.149736 0.207802 0.543 18 17 17
0.180838 0.202921 0.528 57 91 138
-0.643321 -0.0142878 1.505 96 78 58
0.199176 0.119916 0.522 108 141 145
-0.0540382 -0.0438479 1.085 112 92 82
0.0645198 -0.164165 0.981 108 88 80
0.223105 0.110258 0.505 250 255 254
-0.731151 -0.284791 1.551 136 118 109
-0.671406 0.381983 1.595 113 101 81
-0.325 -0.394462 1.213 147 125 117
0.125397 -0.305069 0.902 155 131 119
-0.59501 -0.417578 1.419 138 122 115
-0.340881 -0.148985 1.257 163 142 125
0.243351 -0.0378022 0.496 250 255 254
-0.807861 -0.139628 1.624 153 136 118
-0.801804 -0.209285 1.591 134 119 109
-0.31881 0.330826 1.336 124 103 86
-0.227945 -0.0641712 1.201 153 132 119
0.0878621 0.33048 1.03 122 106 85
0.343385 -0.250437 0.755 115 101 95
-0.581393 0.215042 1.516 125 105 85
0.000715661 0.273207 1.089 126 106 96
0.22526 0.0460516 0.908 127 104 99
0.216152 -0.174705 0.86 102 88 82
0.222493 -0.0208126 0.515 38 58 80
-0.0527056 0.107114 1.094 99 74 56
0.0891755 -0.25924 0.938 150 132 123
0.0874356 0.263823 1.025 122 104 93
-0.949701 0.526632 1.837 95 92 76
0.112079 0.110157 0.938 127 100 92
-0.728775 0.0893485 1.607 124 107 89
-0.0632746 0.0464984 1.092 189 164 144
0.0618325 -0.297801 0.964 115 99 92
-0.202118 -0.24382 1.154 164 137 131
0.241313 0.185579 0.487 181 162 137
0.227953 0.113914 0.503 242 255 255
-0.128857 0.109232 1.154 108 84 68
0.181849 -0.0991284 0.898 170 146 134
-0.123399 0.332024 1.192 124 105 90
0.199836 0.114272 0.887 190 170 150
0.335983 -0.198767 0.769 163 148 136
0.112744 -0.0218369 0.97 101 85 78
0.0224077 0.113924 1.027 116 93 74
0.0590711 0.0569896 1.025 174 146 127
-0.663778 0.33274 1.583 114 100 83
-0.148095 0.0375098 1.143 195 169 154
-0.542394 0.118174 1.477 131 108 87
0.182211 0.205967 0.527 26 82 114
-0.737427 -0.418914 1.543 142 132 120
0.155538 -0.218958 0.898 107 92 82
0.0281173 0.0362698 1.053 143 118 98
0.1933 -0.161033 0.877 164 137 129
-0.430398 0.5572 1.456 115 98 82
0.212444 0.190649 0.509 201 202 193
0.126523 0.204776 0.635 107 92 80
0.224814 0.0273639 0.507 15 26 24
-0.267229 -0.407308 1.176 165 147 136
-0.752331 0.518969 1.677 106 96 82
-0.00622871 0.11976 1.064 104 83 66
-0.886092 -0.0104627 1.677 94 76 54
0.152043 0.314345 1 125 108 92
-0.688138 0.52113 1.616 112 98 81
0.224092 -0.00651435 0.511 22 27 32
0.185153 0.0877481 0.533 21 34 33
-0.138971 0.182123 1.176 138 112 101
0.256642 -0.274292 0.811 146 129 115
0.234091 -0.17317 0.839 98 89 80
0.00236952 -0.079034 1.037 151 127 113
0.11806 -0.185773 0.937 166 145 130
-0.340991 -0.178754 1.265 123 103 93
0.170163 0.00176487 0.93 98 84 78
-0.622986 -0.0424585 1.463 114 92 82
0.0910892 -0.212824 0.942 110 91 87
0.0647188 0.00848269 1.009 171 142 132
-0.601529 -0.276342 1.429 141 129 113
0.113852 -0.0516148 0.966 166 142 128
-0.834311 -0.354171 1.579 130 118 100
-0.474727 -0.180979 1.359 145 129 108
-0.360202 -0.443242 1.239 139 120 114
0.109609 -0.334066 0.905 116 101 89
0.24348 0.182449 0.485 231 210 219
-0.0858618 0.156888 1.132 108 84 68
-0.305128 0.132613 1.27 135 114 97
0.182208 -0.0266941 0.532 32 34 25
-0.27986 -0.318936 1.189 147 122 113
-0.564119 0.530231 1.543 116 97 80
0.196902 0.115479 0.525 24 30 41
0.17507 0.048808 0.534 15 18 17
0.232291 0.0937066 0.5 16 27 36
-0.358748 -0.403299 1.234 152 130 122
-0.0145108 -0.149911 1.037 140 119 106
-0.101179 -0.136149 1.118 117 97 89
-0.158517 0.441896 1.239 124 100 84
0.294926 -0.121199 0.811 89 81 69
0.0243722 -0.339816 0.972 178 157 144
0.0758522 -0.0733188 0.983 105 87 78
0.0968547 0.123259 0.969 93 77 54
0.13421 -0.259475 0.912 113 98 88
-0.348705 -0.38121 1.234 131 114 100
0.190716 0.0279522 0.534 22 30 29
-0.183087 0.0912615 1.189 105 82 61
-0.401547 -0.102906 1.322 144 127 113
-0.589324 -0.281931 1.422 126 114 98
-0.178026 -0.0754553 1.194 125 103 95
0.203293 0.118692 0.877 189 170 153
-0.710351 0.247012 1.595 115 101 84
0.221418 -0.241266 0.848 110 100 88
-0.0506713 0.2628 1.128 131 107 93
-0.455346 -0.333098 1.322 127 114 103
0.184286 -0.0198053 0.533 28 25 20
-0.219633 0.281952 1.254 127 106 93
-0.00969268 0.00548212 1.064 140 116 104
0.27922 -0.301518 0.789 105 96 87
0.363497 -0.260903 0.736 173 163 149
0.233794 0.127369 0.498 186 189 190
0.177531 -0.131705 0.891 95 86 77
0.174954 0.11505 0.539 23 34 30
-0.767567 -0.54663 1.528 149 136 123
0.171914 -0.0233621 0.535 63 59 48
-0.715201 0.617783 1.686 108 96 80
0.124084 -0.0247362 0.96 107 88 82
0.243484 0.0466651 0.493 15 21 23
-0.13825 0.0960868 1.154 105 83 59
0.0655721 -0.0370467 0.997 105 87 78
0.361592 -0.281646 0.737 106 103 89
0.154552 -0.317682 0.884 135 116 110
-0.205016 0.379298 1.252 125 104 91
-0.0582217 0.274784 1.132 124 105 88
-0.339346 -0.417275 1.222 181 162 147
-0.334094 0.350565 1.345 120 99 82
0.19765 0.169574 0.518 169 153 130
0.377737 -0.162123 0.75 125 116 107
0.183924 -0.0818649 0.901 99 83 76
-0.904108 0.566854 1.794 101 86 74
0.215483 -0.0316935 0.892 159 140 123
0.101453 0.297587 1.015 125 108 94
-0.686128 -0.279355 1.535 132 114 103
-0.491932 0.215228 1.435 131 105 90
-0.0484702 -0.110329 1.079 111 93 82
-0.847472 -0.185124 1.629 132 113 98
0.00547964 -0.361854 0.989 124 107 93
-0.481827 0.15279 1.419 134 112 88
0.222536 -0.229955 0.847 168 146 136
0.238834 -0.132103 0.856 94 80 74
0.160632 0.181506 0.541 20 28 27
0.256082 -0.15468 0.835 165 147 138
0.0968911 0.169852 1.002 103 84 67
0.194406 -0.00562751 0.902 96 85 78
0.219933 -0.0497557 0.511 194 255 255
-0.0545363 0.291364 1.132 126 106 98
-0.772375 0.52055 1.691 106 97 80
0.145316 0.182177 0.543 31 23 22
0.306412 -0.22787 0.783 102 93 84
0.0834264 -0.0968187 0.978 107 89 80
-0.268308 0.474959 1.302 118 99 84
0.242068 -0.156162 0.843 170 151 138
-0.365435 -0.283992 1.257 177 156 141
-0.14195 -0.275524 1.169 149 125 113
0.17908 -0.0102643 0.533 33 31 23
-0.160922 0.440945 1.242 121 100 83
0.160319 0.0988931 0.537 28 25 20
-0.832817 -0.110013 1.616 174 155 138
0.0700604 0.0696475 1.015 91 65 52
0.238756 -0.202323 0.841 103 88 78
0.31807 -0.145609 0.793 128 115 102
0.309589 -0.260855 0.775 139 119 109
0.240898 -0.0573966 0.491 38 38 34
0.198612 -0.0519732 0.525 187 233 253
-0.232837 -0.159272 1.196 121 103 92
0.206031 0.0306042 0.52 15 22 26
0.13417 -0.330718 0.892 116 101 91
0.193967 -0.0136822 0.531 25 28 29
-0.0488351 0.282991 1.128 126 106 96
0.157616 0.120196 0.91 129 109 101
0.197757 0.0667811 0.525 18 37 55
0.169876 -0.336845 0.874 105 96 89
0.216958 0.178821 0.506 174 164 125
-0.386833 0.351741 1.393 126 105 88
-0.191714 0.252947 1.232 127 109 89
0.17507 0.172205 0.534 48 86 100
-0.416027 -0.0817009 1.327 125 108 94
0.199264 -0.0101872 0.529 27 30 29
0.238987 0.0971883 0.497 19 30 41
-0.269601 -0.377329 1.178 136 118 107
-0.327745 0.0719458 1.294 105 85 65
-0.00258545 -0.292805 0.995 122 102 92
0.0543747 -0.0794687 1 109 91 82
0.151224 0.142151 0.542 28 28 24
-0.414841 0.418345 1.419 118 100 80
-0.135602 -0.197466 1.18 144 125 112
0.113018 0.335577 1.015 122 105 87
0.18251 0.130149 0.887 93 76 62
-0.572314 -0.316977 1.403 132 118 112
-0.542288 0.484022 1.524 113 101 83
-0.186513 -0.344448 1.139 133 115 106
0.0256259 -0.106164 1.022 106 86 78
-0.877006 0.499679 1.763 100 92 80
-0.555699 -0.105718 1.449 121 107 90
0.150108 0.111334 0.538 71 58 45
-0.745741 -0.552111 1.509 145 135 121
-0.109405 0.136568 1.147 106 85 68
-0.132235 -0.414391 1.089 154 137 123
-0.0736721 0.217933 1.143 134 108 93
-0.419939 0.206217 1.39 131 111 89
-0.335985 -0.158833 1.254 126 106 98
0.217386 0.153597 0.507 221 226 244
0.154831 0.0323087 0.938 129 103 99
-0.316317 -0.379703 1.21 129 115 100
0.354476 -0.163692 0.763 93 86 76
-0.0147627 -0.0735385 1.055 164 137 129
0.230769 0.108786 0.502 250 255 254
-0.595265 -0.257737 1.442 126 112 104
-0.270428 0.320288 1.302 126 105 88
-0.582658 0.545878 1.559 112 95 77
-0.595446 -0.475666 1.393 161 146 134
0.0838013 0.103798 0.964 141 113 96
0.229227 0.0657502 0.504 15 21 19
0.0108514 -0.0691745 1.041 170 147 142
0.100667 0.0696133 0.991 168 140 123
0.228406 0.0706712 0.504 13 24 24
0.185643 0.170805 0.527 14 62 93
0.173431 0.0962715 0.537 19 25 25
-0.865527 0.38492 1.763 106 92 75
0.13004 -0.22286 0.914 112 93 89
0.356236 -0.189226 0.751 141 132 115
-0.00580722 -0.319365 0.992 125 104 99
-0.668033 0.076139 1.551 124 105 90
-0.358215 -0.194691 1.275 119 101 92
0.207752 -0.24608 0.86 114 97 83
-0.806512 -0.157349 1.616 139 121 101
0.206352 -0.255876 0.86 108 94 86
0.108403 0.074226 0.988 143 117 104
0.154852 0.0968147 0.957 187 162 142
0.189571 0.149938 0.526 10 56 90
0.0165965 -0.312312 0.98 123 104 98
0.193702 -0.117337 0.892 101 86 76
0.14055 0.187649 0.633 128 114 99
0.0391684 -0.190674 0.986 148 126 118
0.0276099 0.13321 1.034 105 85 65
-0.681762 0.174269 1.571 129 106 85
-0.444816 -0.370579 1.31 176 159 143
0.301955 -0.199831 0.788 136 122 114
0.230268 -0.213018 0.84 136 121 111
0.230551 0.115213 0.498 232 249 255
0.107143 0.339555 1.022 121 104 90
0.10539 -0.0330559 0.975 104 86 77
-0.301713 -0.17508 1.239 122 104 93
0.30163 -0.300824 0.774 109 96 85
0.195327 -0.0179689 0.53 25 31 31
0.289128 -0.266513 0.788 143 125 114
-0.691126 -0.206915 1.535 129 112 98
-0.334783 0.309779 1.339 126 105 88
0.107384 -0.242191 0.937 148 124 112
-0.306981 -0.181859 1.244 121 103 94
-0.424667 -0.209109 1.327 122 104 93
-0.0891992 0.43665 1.176 119 99 79
0.20905 0.0716527 0.517 17 25 24
0.249753 0.108929 0.488 225 255 255
-0.558707 -0.355019 1.409 130 115 103
0.249904 0.0129697 0.493 19 27 28
-0.084984 0.248127 1.145 125 106 93
-0.483293 -0.0403399 1.39 181 162 133
-0.172827 -0.0112499 1.185 144 118 107
0.17565 0.0304213 0.927 164 143 128
0.105441 -0.102955 0.961 105 87 78
0.112437 -0.145221 0.941 101 85 78
0.075514 -0.305358 0.939 125 104 99
-0.0286905 -0.0515595 1.062 109 91 82
0.0847506 -0.197525 0.957 114 99 89
0.190653 -0.0670038 0.529 42 39 34
0.11806 -0.181199 0.937 173 149 135
0.351396 -0.104006 0.781 56 46 56
0.0347366 0.104106 0.997 94 73 56
-0.212119 -0.15447 1.189 119 102 84
0.0075985 0.0365109 1.06 171 146 128
-0.723609 -0.0645316 1.535 123 99 83
-0.267278 0.361271 1.297 124 100 84
-0.699966 0.254799 1.595 121 104 88
0.051692 0.0943571 0.98 165 136 124
0.240898 0.12478 0.491 234 255 255
0.00590627 0.154679 1.066 106 86 66
-0.511145 0.415774 1.484 118 100 91
-0.755284 -0.399409 1.575 144 126 117
-0.321612 -0.0266909 1.278 177 152 132
0.0410215 -0.182149 0.992 114 92 84
0.171593 0.0409871 0.534 24 25 19
-0.281206 0.466745 1.333 119 100 75
0.0351195 -0.342938 0.963 124 109 99
-0.390787 0.275594 1.375 125 107 85
-0.759601 -0.488227 1.532 140 132 120
0.192871 0.0731773 0.528 27 61 69
0.0325041 0.388737 1.085 115 101 86
-0.548502 -0.470728 1.372 156 141 129
0.130248 -0.0444822 0.948 165 146 131
0.195061 0.220864 0.948 103 84 69
-0.621085 -0.328135 1.442 136 116 106
0.222061 0.007667 0.514 20 25 30
0.0593067 0.353571 1.059 124 108 87
0.371229 -0.251648 0.73 144 130 124
-0.021632 -0.0598039 1.055 111 93 84
0.161215 0.20226 0.54 20 46 46
-0.691492 -0.115386 1.547 151 134 116
-0.575113 0.0875162 1.487 131 110 93
0.218302 0.0101961 0.515 24 24 24
0.0145004 0.190033 1.06 114 94 74
-0.562642 -0.379005 1.396 137 119 110
-0.727455 0.0598282 1.587 129 109 89
-0.668932 0.410022 1.583 112 100 82
0.26785 -0.179265 0.817 98 88 74
-0.0272587 -0.374097 1.009 125 107 98
0.2275 0.0769261 0.502 17 25 24
-0.032269 -0.07604 1.066 158 134 122
0.00927999 0.177119 1.055 108 85 66
0.0761115 0.378985 1.053 119 105 88
0.111959 0.040585 0.991 136 112 100
0.22203 0.0159691 0.512 23 22 24
0.229994 -0.225052 0.839 180 161 146
