ply
format ascii 1.0
comment Created by Open3D
element vertex 1304
property double x
property double y
property double z
property uchar red
property uchar green
property uchar blue
end_header
0.457152 0.30512 1.178 255 255 255
0.404854 0.0318324 0.97 255 255 255
-0.542935 -0.152945 1.714 255 255 255
-0.322307 -0.41536 1.893 255 255 255
0.194763 0.257725 1.114 255 255 255
0.341662 0.123327 1.239 255 255 255
0.314669 -0.223687 0.839 255 255 255
-0.458102 0.372627 1.33 255 255 255
-0.162522 -0.453797 1.595 255 255 255
0.35638 -0.0757437 0.934 255 255 255
0.364565 0.0690651 1.112 255 255 255
-0.313971 -0.340096 1.744 255 255 255
-0.135059 0.191249 1.466 255 255 255
-0.609222 0.0135858 1.616 255 255 255
-0.880615 -0.547538 2.092 255 255 255
-0.00635164 0.307517 1.085 255 255 255
0.0130536 0.138054 1.484 255 255 255
-0.382888 -0.524994 1.673 255 255 255
-0.765813 0.208583 1.505 255 255 255
0.296762 -0.23006 0.879 255 255 255
-0.308251 0.411656 1.283 255 255 255
0.391304 -0.00598937 0.96 255 255 255
0.35774 -0.259162 0.699 255 255 255
-0.381586 -0.160228 1.567 255 255 255
0.219309 -0.3359 0.914 255 255 255
0.190398 -0.140803 1.239 255 255 255
0.463168 0.0724086 0.905 255 255 255
0.243476 0.347488 1.147 255 255 255
-0.0351444 -0.108317 1.714 0 0 0
-0.158194 -0.138911 1.748 255 255 255
0.410264 -0.0384274 0.88 255 255 255
-0.588198 -0.153837 1.724 0 0 0
0.346917 -0.231086 0.752 255 255 255
0.289884 0.144822 1.345 255 255 255
-0.495921 -0.528117 1.624 255 255 255
0.320404 -0.248202 0.812 255 255 255
-0.0592562 0.152132 1.48 255 255 255
0.00323553 0.221595 1.416 255 255 255
0.266078 0.0107021 1.273 255 255 255
0.219091 0.00477291 1.354 255 255 255
-0.534832 0.380425 1.327 255 255 255
-0.236868 -0.0714683 1.7 255 255 255
-0.660933 0.390822 1.333 255 255 255
-0.29195 0.45156 1.249 255 255 255
0.146898 0.114672 1.494 255 255 255
0.0848804 0.274177 1.1 255 255 255
-0.597252 -0.566548 1.47 255 255 255
-0.546721 0.348346 1.362 255 255 255
-0.406671 0.0346239 1.616 0 0 0
0.0858043 0.28384 1.089 255 255 255
0.306895 0.0663319 1.229 255 255 255
0.11414 -0.22186 1.313 255 255 255
-0.644758 -0.175891 1.748 255 255 255
-0.608855 0.299471 1.403 255 255 255
0.217634 -0.00182509 1.345 255 255 255
-0.336989 0.361781 1.322 255 255 255
0.248362 -0.164762 1.079 255 255 255
0.0665332 0.185385 1.439 0 0 0
-0.365192 0.136456 1.52 255 255 255
-0.146575 0.0522118 1.591 255 255 255
0.418844 0.352358 1.265 255 255 255
0.402482 -0.103153 0.794 255 255 255
0.378013 -0.0231257 0.958 255 255 255
-0.203541 0.362206 1.308 255 255 255
0.348669 -0.157829 0.852 255 255 255
-0.241876 0.29028 1.381 255 255 255
0.0426897 -0.247742 1.425 255 255 255
0.314262 -0.11871 0.988 255 255 255
0.093805 0.256906 1.359 255 255 255
-0.290567 -0.642089 1.659 255 255 255
-0.295425 0.233188 1.445 255 255 255
-0.406579 -0.290275 1.595 255 255 255
0.166608 -0.144388 1.289 255 255 255
-0.281831 -0.172733 1.774 255 255 255
0.300037 -0.00730579 1.171 255 255 255
0.0617153 -0.430048 1.135 255 255 255
0.410854 0.286465 1.247 255 255 255
-0.21219 0.28965 1.378 255 255 255
-0.410541 -0.576724 1.642 255 255 255
-0.752883 -0.121844 1.748 255 255 255
0.0773295 -0.331811 1.237 255 255 255
-0.1493 -0.485449 1.539 255 255 255
0.239847 0.400587 1.194 255 255 255
0.159374 0.30695 1.083 255 255 255
0.0150001 0.197094 1.439 255 255 255
-0.466237 0.273608 1.435 255 255 255
0.190405 -0.183581 1.165 255 255 255
-0.339099 -0.228841 1.583 255 255 255
-0.387946 0.179108 1.484 255 255 255
-0.412951 -0.603268 1.62 255 255 255
-0.0921047 0.188864 1.466 255 255 255
-0.628338 -0.115459 1.696 255 255 255
-0.841276 -0.426865 1.917 255 255 255
-0.147176 0.103367 1.543 255 255 255
-0.0502447 0.296019 1.366 0 0 0
-1.00023 -0.548222 1.972 255 255 255
0.236538 0.182809 1.419 255 255 255
-1.0577 -0.730776 2.236 255 255 255
-0.170537 -0.564698 1.484 255 255 255
-0.717539 0.00839321 1.629 0 0 0
-0.564519 -0.496806 1.551 255 255 255
-0.901411 -0.743832 2.024 255 255 255
-0.0630449 -0.189205 1.714 255 255 255
0.0703394 -0.376349 1.187 255 255 255
-0.370997 0.452153 1.262 0 0 0
0.321329 -0.242617 0.811 255 255 255
0.383958 0.0133156 1.002 255 255 255
0.349621 0.272736 1.339 0 0 0
-0.250241 0.283124 1.39 255 255 255
0.322979 -0.277519 0.742 255 255 255
0.182972 0.214397 1.154 255 255 255
0.301688 -0.26636 0.815 255 255 255
-1.10036 -0.769727 2.212 255 255 255
-0.510369 0.132685 1.563 255 255 255
-0.296938 -0.252116 1.744 255 255 255
0.0751744 -0.405179 1.143 255 255 255
-0.799209 -0.592384 1.991 255 255 255
0.334328 -0.0533583 1.03 255 255 255
0.177196 -0.235503 1.141 255 255 255
0.289424 0.0803689 1.294 255 255 255
-0.0647013 -0.0127119 1.616 255 255 255
-0.134874 -0.0855514 1.705 255 255 255
-0.220566 -0.581762 1.583 255 255 255
-0.893812 -0.528876 2.099 255 255 255
-0.603415 0.261027 1.456 255 255 255
0.395417 -0.116659 0.798 255 255 255
0.0323659 -0.12478 1.603 255 255 255
0.273582 0.375014 1.01 255 255 255
-0.948997 -0.424391 1.865 255 255 255
0.0335438 0.320008 1.062 255 255 255
0.236784 0.391948 1.051 255 255 255
-0.422122 0.320345 1.375 255 255 255
0.438916 0.0872598 0.972 255 255 255
-0.509261 -0.48081 1.616 255 255 255
0.454848 0.311315 1.187 255 255 255
0.373169 -0.0220169 0.978 255 255 255
0.394501 -0.0992455 0.826 255 255 255
0.194681 -0.275017 1.064 255 255 255
-0.469803 -0.559201 1.607 255 255 255
-0.551173 0.303482 1.39 255 255 255
-0.115248 -0.130079 1.744 255 255 255
-0.0283164 0.267807 1.381 255 255 255
-0.538117 -0.0294954 1.673 255 255 255
-0.588988 -0.138674 1.71 255 255 255
-0.955069 -0.418321 1.865 255 255 255
-0.0387831 0.302232 1.354 255 255 255
-0.408653 0.224189 1.463 255 255 255
-0.180445 -0.488699 1.616 255 255 255
-0.73218 0.0839089 1.603 255 255 255
-0.381009 -0.477787 1.739 255 255 255
0.0244153 0.0160048 1.595 255 255 255
-0.0382675 0.324304 1.336 255 255 255
0.478753 0.222991 0.999 255 255 255
-0.946987 -0.258027 1.826 255 255 255
0.369727 -0.0607389 0.937 255 255 255
-0.344105 0.239744 1.442 255 255 255
-0.310754 0.0751338 1.583 255 255 255
-0.653899 0.0604314 1.603 0 0 0
0.227179 0.16266 0.454 255 255 255
-0.654472 0.382541 1.342 255 255 255
-0.287964 -0.00221046 1.629 0 0 0
-0.808564 0.185263 1.535 255 255 255
0.405378 0.195852 1.178 255 255 255
-0.245335 -0.334236 1.87 0 0 0
0.229649 -0.308086 0.938 255 255 255
-0.56576 0.448511 1.275 255 255 255
0.354398 -0.130079 0.88 255 255 255
-0.165289 0.197459 1.459 255 255 255
0.17693 -0.334038 1.012 255 255 255
-0.613019 0.478999 1.257 255 255 255
0.0107753 -0.456175 1.225 255 255 255
0.390501 0.347739 1.234 255 255 255
-0.0769952 -0.228254 1.714 255 255 255
-0.415835 -0.384556 1.779 0 0 0
-0.630115 -0.163665 1.739 255 255 255
-0.588033 0.247319 1.459 255 255 255
0.350336 0.185441 1.278 255 255 255
-0.820212 -0.410099 1.941 255 255 255
-0.161437 0.23228 1.425 255 255 255
-0.990097 -0.629274 2.037 255 255 255
0.123782 0.0259901 1.571 255 255 255
-0.56566 -0.539329 1.494 255 255 255
0.38445 -0.173262 0.756 255 255 255
0.272475 -0.307965 0.827 255 255 255
-0.575543 0.343914 1.362 255 255 255
-0.447007 0.116823 1.555 255 255 255
-0.163736 -0.438034 1.633 255 255 255
0.21911 -0.265727 1.009 255 255 255
0.264055 0.344688 1.108 255 255 255
-0.15792 -0.453233 1.575 255 255 255
-0.62804 0.329296 1.375 255 255 255
-0.613216 -0.39791 1.7 0 0 0
-0.500173 0.227034 1.466 255 255 255
-0.585043 -0.268 1.774 255 255 255
-0.672284 -0.190657 1.753 255 255 255
-0.0257695 0.126828 1.494 0 0 0
-0.51459 0.182746 1.494 255 255 255
-0.13552 0.344491 1.33 255 255 255
0.425693 0.344667 1.267 255 255 255
0.414089 -0.0574573 0.844 255 255 255
0.0794146 -0.226116 1.378 255 255 255
-0.231387 0.314406 1.359 255 255 255
0.260776 0.387877 1.005 255 255 255
-0.584562 0.417776 1.289 255 255 255
0.21907 0.166723 0.451 255 255 255
-0.497782 0.283296 1.425 0 0 0
0.387782 0.241594 1.278 255 255 255
0.0587878 -0.00218739 1.612 255 255 255
0.450167 0.383517 1.16 0 0 0
-0.57241 -0.222037 1.753 0 0 0
-0.335586 -0.517693 1.799 255 255 255
-0.339415 -0.632604 1.729 255 255 255
-0.301332 0.120317 1.535 255 255 255
0.314577 0.0698168 1.22 255 255 255
-1.02242 -0.463796 1.941 255 255 255
-0.447872 0.380278 1.319 255 255 255
0.276991 -0.263485 0.862 255 255 255
0.0333149 -0.0747365 1.65 255 255 255
-0.783675 0.11435 1.591 255 255 255
-0.382779 0.445697 1.267 255 255 255
-0.683899 -0.143856 1.739 255 255 255
0.0323092 0.264983 1.378 255 255 255
-0.0103549 0.254875 1.384 0 0 0
-0.310988 0.46887 1.22 255 255 255
-0.41616 -0.608159 1.612 255 255 255
-0.502752 0.120582 1.571 255 255 255
0.373524 -0.154171 0.804 255 255 255
0.402279 0.0418571 0.983 255 255 255
0.176948 -0.0620086 1.369 255 255 255
0.0912774 0.333479 1.05 255 255 255
0.338491 -0.208303 0.811 255 255 255
0.115927 0.237002 1.359 255 255 255
-0.789953 0.189392 1.528 255 255 255
-0.313394 0.207524 1.463 255 255 255
0.321451 -0.185928 0.88 255 255 255
0.339379 -0.0447592 1.025 255 255 255
-0.110218 -0.0858023 1.71 255 255 255
-0.716339 0.11435 1.591 255 255 255
-0.148362 0.41259 1.273 255 255 255
-0.489948 0.422095 1.283 255 255 255
0.391834 -0.125434 0.796 255 255 255
-0.287958 0.47288 1.215 0 0 0
0.223503 0.108045 1.47 255 255 255
0.207078 0.180702 1.439 255 255 255
0.256787 -0.240406 0.948 255 255 255
0.281437 0.363802 1.039 255 255 255
0.382099 -0.152887 0.784 255 255 255
0.275567 0.176558 1.406 255 255 255
0.321865 -0.252379 0.796 255 255 255
0.397637 -0.0852285 0.847 255 255 255
0.311704 -0.26209 0.81 255 255 255
0.177898 -0.255317 1.122 255 255 255
0.349894 -0.116148 0.917 255 255 255
0.103409 0.240974 1.369 255 255 255
-0.398473 0.355734 1.348 255 255 255
-0.973031 -0.608673 2.057 0 0 0
0.268518 0.0428261 1.305 255 255 255
-0.290699 0.296377 1.378 255 255 255
0.18939 -0.331945 0.991 255 255 255
0.208949 -0.332969 0.948 255 255 255
0.00891748 -0.447055 1.244 255 255 255
-0.00163649 -0.0983165 1.686 255 255 255
0.421955 0.359205 1.232 255 255 255
-0.516851 -0.519872 1.575 255 255 255
0.156289 -0.144387 1.308 255 255 255
-0.37323 -0.107554 1.543 255 255 255
-0.329207 -0.0677723 1.677 255 255 255
-0.905705 -0.0913307 1.763 255 255 255
-0.306155 -0.141756 1.748 255 255 255
-0.31869 -0.186033 1.637 255 255 255
0.369992 -0.182571 0.78 255 255 255
-0.0888136 -0.0207031 1.624 255 255 255
-0.105543 0.224848 1.422 255 255 255
-0.0587939 0.351961 1.044 255 255 255
0.345183 -0.136971 0.897 255 255 255
-0.30857 -0.635484 1.714 255 255 255
0.312937 -0.102133 1.015 255 255 255
0.354697 -0.161074 0.84 255 255 255
-0.180994 -0.527561 1.575 255 255 255
-0.085583 0.168649 1.477 255 255 255
0.077017 -0.336485 1.232 255 255 255
-0.350335 -0.259778 1.599 255 255 255
-0.689758 -0.340322 1.87 255 255 255
0.114691 -0.382468 1.094 255 255 255
-0.527125 0.169847 1.509 255 255 255
0.353931 -0.252536 0.719 255 255 255
0.227381 -0.217752 1.055 255 255 255
-1.04291 -0.729159 2.22 255 255 255
0.361328 -0.0666955 0.935 255 255 255
-0.187446 0.157373 1.484 255 255 255
-0.445667 0.155833 1.516 255 255 255
0.0208981 -0.431413 1.234 255 255 255
0.324885 0.262571 1.354 255 255 255
0.501456 0.244008 1.012 255 255 255
-0.343403 -0.170449 1.591 255 255 255
-0.380365 0.0319941 1.616 255 255 255
0.278001 -0.110943 1.085 255 255 255
-0.0841651 -0.397793 1.539 255 255 255
0.205543 -0.282173 1.015 255 255 255
-0.581806 -0.523709 1.498 255 255 255
-0.478216 0.2827 1.422 255 255 255
0.0242316 0.0493732 1.583 255 255 255
0.196483 -0.00412128 1.381 255 255 255
-0.36932 -0.606935 1.637 255 255 255
-0.224993 0.142835 1.509 255 255 255
-0.492965 0.398683 1.302 255 255 255
-0.0372237 0.379051 1.012 255 255 255
0.192326 -0.161536 1.213 255 255 255
-0.0367716 0.350933 1.046 255 255 255
0.116998 0.256372 1.116 255 255 255
-0.672832 0.375775 1.357 255 255 255
0.323961 -0.282461 0.736 255 255 255
-0.391754 -0.456833 1.724 255 255 255
0.0188894 -0.439445 1.234 255 255 255
-0.271664 -0.567215 1.71 255 255 255
0.231437 -0.0698373 1.232 255 255 255
-0.147966 -0.0740601 1.696 0 0 0
0.00557572 -0.308034 1.425 255 255 255
-0.5527 0.395641 1.313 255 255 255
0.291841 -0.192842 0.927 255 255 255
0.257326 0.125079 1.419 255 255 255
-0.340543 -0.491672 1.779 255 255 255
0.0204921 0.119854 1.498 0 0 0
0.293803 -0.12866 1.029 255 255 255
-0.0374454 0.354623 1.237 255 255 255
0.370535 -0.224838 0.724 255 255 255
-0.0924709 -0.0316209 1.642 255 255 255
0.409095 0.0515074 0.984 255 255 255
-0.143621 -0.347379 1.71 255 255 255
-0.0869529 0.263884 1.384 255 255 255
-0.629924 0.169943 1.532 255 255 255
-0.107054 -0.373913 1.62 255 255 255
0.121378 -0.186808 1.322 255 255 255
0.294663 -0.134369 1.009 255 255 255
-0.67359 0.226794 1.48 255 255 255
0.321831 0.321344 1.017 255 255 255
0.112107 0.071091 1.551 255 255 255
0.139258 0.339657 1.064 255 255 255
-0.043216 0.356945 1.289 255 255 255
-0.561002 0.356425 1.359 255 255 255
0.0299632 0.142884 1.484 255 255 255
-0.727596 0.0372536 1.616 255 255 255
-0.602677 -0.400121 1.686 255 255 255
0.0659569 0.0108136 1.595 255 255 255
-0.343595 -0.397688 1.826 255 255 255
-0.650187 -0.052707 1.633 255 255 255
0.429139 0.327655 1.265 0 0 0
0.0356076 0.364502 1.022 255 255 255
0.115927 -0.161075 1.359 255 255 255
-0.409379 0.457588 1.26 255 255 255
0.198746 0.247291 1.116 255 255 255
0.421307 0.381795 1.196 255 255 255
-0.222852 0.122255 1.528 255 255 255
0.243476 -0.113549 1.147 255 255 255
-0.433114 0.295705 1.396 255 255 255
-0.967783 -0.702153 2.181 255 255 255
-0.081132 -0.0234178 1.629 255 255 255
-0.588756 0.144659 1.555 255 255 255
0.0293853 0.0596774 1.583 255 255 255
0.139313 0.223796 1.135 255 255 255
-0.230586 0.446779 1.247 255 255 255
-0.387973 -0.598943 1.637 255 255 255
0.348693 0.29442 1.319 255 255 255
0.189076 -0.33977 0.981 255 255 255
-0.209765 0.396422 1.281 0 0 0
0.327844 -0.135165 0.935 255 255 255
0.286661 -0.30794 0.799 255 255 255
0.444143 0.165884 1.06 255 255 255
-0.0779344 -0.505239 1.345 255 255 255
0.381541 0.227036 1.278 255 255 255
-0.543831 0.405039 1.302 255 255 255
-0.470149 0.312074 1.378 255 255 255
0.460698 0.108746 0.939 255 255 255
0.0752041 -0.36576 1.203 255 255 255
0.344321 -0.215566 0.794 255 255 255
0.0608598 -0.232351 1.416 255 255 255
-0.14804 -0.441536 1.579 255 255 255
-0.190944 0.35371 1.324 255 255 255
0.432411 0.117837 1.032 255 255 255
-0.634047 0.0576785 1.599 255 255 255
0.314327 0.290279 1.31 255 255 255
-0.829782 -0.708538 1.87 255 255 255
0.0808552 0.126234 1.487 255 255 255
-0.497337 0.0426184 1.62 255 255 255
-0.0403584 0.222793 1.409 255 255 255
0.0681923 -0.426187 1.12 255 255 255
0.426159 0.154472 1.089 255 255 255
-0.326753 -0.581369 1.815 255 255 255
-0.205468 -0.406919 1.763 0 0 0
0.333672 0.140879 1.27 0 0 0
0.430836 -0.00551521 0.884 255 255 255
0.390321 -0.0136568 0.95 255 255 255
0.0532618 -0.396055 1.194 255 255 255
-0.466811 0.373101 1.324 255 255 255
-0.500306 0.286722 1.419 255 255 255
0.279535 -0.0451851 1.165 255 255 255
-0.799556 -0.0403855 1.673 255 255 255
0.356611 0.0840194 1.169 255 255 255
0.0706944 -0.160639 1.477 255 255 255
-0.733732 -0.0858023 1.71 255 255 255
-0.663332 0.224992 1.484 255 255 255
0.306457 -0.229819 0.862 255 255 255
0.142795 0.110397 1.502 255 255 255
-0.387996 0.308259 1.381 255 255 255
-0.428868 -0.22482 1.591 255 255 255
-0.237348 0.160865 1.494 255 255 255
-0.256238 0.214666 1.463 255 255 255
0.438018 0.0329695 0.914 255 255 255
0.312666 -0.0840155 1.036 255 255 255
0.423038 -0.0209531 0.868 255 255 255
0.175137 -0.0448639 1.39 255 255 255
-0.295179 0.387195 1.299 255 255 255
0.33156 -0.205079 0.83 255 255 255
-0.300173 -0.581926 1.763 255 255 255
-0.0848009 0.363145 1.072 0 0 0
-0.401992 -0.132178 1.567 255 255 255
-0.628659 0.162782 1.535 255 255 255
0.331187 0.0659967 1.187 255 255 255
-0.602038 0.237223 1.47 255 255 255
-0.276546 0.473659 1.217 255 255 255
0.484033 0.331456 1.112 0 0 0
0.0789387 0.0160048 1.595 255 255 255
-0.401978 0.32482 1.375 255 255 255
-0.941282 -0.179679 1.815 255 255 255
-0.457769 -0.509853 1.668 255 255 255
-0.559096 -0.504287 1.543 255 255 255
-0.603934 0.243235 1.463 255 255 255
-0.877381 -0.3228 1.758 255 255 255
-1.03216 -0.710033 2.228 255 255 255
0.231965 0.133719 1.463 255 255 255
-0.20768 0.394337 1.281 255 255 255
0.402688 0.0435009 0.984 255 255 255
0.0439257 0.364502 1.022 255 255 255
0.0780655 0.135273 1.48 255 255 255
-0.648573 -0.253566 1.774 255 255 255
-0.661853 -0.0287196 1.629 255 255 255
-0.213375 0.329401 1.357 255 255 255
0.233155 -0.0850398 1.22 255 255 255
0.472259 0.300782 1.154 255 255 255
-0.457769 -0.124411 1.668 0 0 0
-0.138705 0.366056 1.299 255 255 255
0.254167 -0.248609 0.944 255 255 255
0.0862318 0.333797 1.051 255 255 255
0.404524 0.0111719 0.958 255 255 255
-0.204891 0.45904 1.215 255 255 255
0.362068 0.233253 1.313 255 255 255
-0.868796 -0.305635 1.758 255 255 255
-0.168121 0.157373 1.484 255 255 255
-0.810461 0.0917347 1.603 255 255 255
-0.0576325 -0.105836 1.719 255 255 255
0.138097 -0.252634 1.205 255 255 255
-0.852642 -0.463929 2.01 255 255 255
0.133114 -0.388401 1.043 255 255 255
0.288657 -0.116239 1.053 255 255 255
0.3095 0.0137375 1.178 255 255 255
-0.738092 -0.198715 1.774 0 0 0
0.334874 -0.0954328 0.964 255 255 255
-0.147681 0.0317367 1.603 255 255 255
0.477296 0.32097 1.126 255 255 255
-0.564252 0.43186 1.281 255 255 255
0.358952 -0.155852 0.834 255 255 255
0.374894 -0.0278026 0.958 255 255 255
-0.285536 0.370001 1.313 0 0 0
0.134566 -0.366426 1.068 255 255 255
-0.0589987 0.226204 1.416 255 255 255
0.489781 0.201157 0.957 255 255 255
0.319801 -0.211156 0.849 255 255 255
-0.450368 -0.270862 1.603 255 255 255
-0.0616321 0.288389 1.372 255 255 255
0.23708 -0.166178 1.1 255 255 255
-0.135389 -0.38434 1.677 255 255 255
0.0709552 -0.308931 1.267 255 255 255
-0.403465 -0.515282 1.668 255 255 255
-0.459339 0.0579671 1.607 255 255 255
0.147014 0.392678 1.096 255 255 255
-0.795323 0.0188919 1.62 255 255 255
0.441851 0.254713 1.158 255 255 255
-0.328422 -0.339863 1.673 255 255 255
-1.08386 -0.741738 2.064 255 255 255
-0.038895 -0.218 1.637 255 255 255
-0.162634 -0.469977 1.571 255 255 255
-0.0250403 -0.216081 1.603 0 0 0
0.0333159 -0.439842 1.176 255 255 255
-0.149279 -0.558103 1.442 255 255 255
-0.817034 0.0135858 1.616 255 255 255
0.202106 0.385957 1.156 255 255 255
0.309068 0.255257 1.362 255 255 255
-0.660004 0.32399 1.381 255 255 255
-0.805364 -0.266283 1.842 255 255 255
0.225028 0.170168 1.449 255 255 255
0.352602 0.0604489 1.12 255 255 255
-0.455956 -0.592718 1.551 255 255 255
0.405567 0.193112 1.173 255 255 255
-0.498349 0.395354 1.305 255 255 255
-0.990398 -0.565984 1.978 255 255 255
-0.380612 0.109794 1.563 0 0 0
0.101023 -0.0226415 1.575 255 255 255
0.382955 -0.113095 0.839 255 255 255
-0.089 0.143846 1.494 255 255 255
-0.424274 -0.286513 1.603 255 255 255
0.36411 0.140478 1.213 255 255 255
0.277051 0.327728 1.048 0 0 0
0.266912 0.352772 1.083 255 255 255
-0.106517 0.377777 1.013 255 255 255
0.205073 0.400259 1.064 255 255 255
0.0165012 -0.169592 1.583 255 255 255
-0.527207 0.100894 1.583 255 255 255
0.307512 -0.0751127 1.053 255 255 255
0.314436 0.313934 1.059 255 255 255
-0.740769 -0.142161 1.753 255 255 255
0.338261 -0.216652 0.798 255 255 255
0.274701 0.0188692 1.265 255 255 255
-0.219358 0.0292917 1.612 255 255 255
0.0129466 0.317655 1.242 255 255 255
-0.636428 0.408096 1.305 255 255 255
-0.665899 -0.449874 1.774 255 255 255
-0.0573343 0.212448 1.432 255 255 255
-0.023441 0.296714 1.359 255 255 255
-0.596497 -0.548726 1.48 255 255 255
-0.763605 -0.303496 1.887 255 255 255
-0.530478 0.452661 1.275 255 255 255
-0.338277 -0.275688 1.616 0 0 0
0.0388029 0.320611 1.064 255 255 255
-0.426809 0.137174 1.528 255 255 255
-0.368882 -0.579995 1.659 255 255 255
-0.336601 -0.624163 1.729 255 255 255
-0.340609 -0.40417 1.842 255 255 255
-0.939385 -0.536851 2.064 255 255 255
0.164524 -0.279878 1.118 255 255 255
0.240508 -0.330818 0.862 255 255 255
-0.0320996 -0.450332 1.351 255 255 255
-0.0859578 -0.0101071 1.62 255 255 255
0.200586 -0.28878 1.015 255 255 255
0.193783 -0.314485 0.997 255 255 255
0.18207 0.397314 1.114 255 255 255
-0.548909 -0.350223 1.724 255 255 255
0.268437 0.389657 0.997 255 255 255
0.24892 -0.210108 1.01 255 255 255
-0.629756 0.35682 1.369 255 255 255
0.170999 -0.230382 1.162 255 255 255
0.162412 0.210111 1.289 255 255 255
-0.415248 0.40792 1.291 255 255 255
0.245338 -0.189562 1.051 255 255 255
-0.994162 -0.468883 1.923 255 255 255
-0.36756 -0.514431 1.729 255 255 255
0.226148 0.236725 1.135 255 255 255
-0.655037 0.30763 1.409 255 255 255
-0.149785 -0.545018 1.47 255 255 255
-0.366182 -0.034648 1.659 255 255 255
-0.325674 -0.266826 1.659 255 255 255
0.439299 0.0567922 0.939 255 255 255
-0.0927752 0.385095 1.278 255 255 255
0.190683 -0.226104 1.122 255 255 255
-0.361873 0.106976 1.559 255 255 255
-0.570835 -0.147366 1.714 0 0 0
0.00310071 0.296277 1.357 255 255 255
-0.0431978 -0.27539 1.599 255 255 255
0.264124 0.199438 1.406 255 255 255
-0.345601 -0.202971 1.543 255 255 255
-0.708617 0.162782 1.535 255 255 255
0.0347945 -0.21453 1.484 255 255 255
-0.856963 0.0137623 1.637 255 255 255
0.0915961 -0.24798 1.327 255 255 255
0.0555291 -0.392514 1.201 255 255 255
-0.857907 -0.168371 1.789 0 0 0
-0.767421 0.202305 1.513 255 255 255
0.418706 0.065919 0.984 255 255 255
-0.770851 0.050652 1.624 255 255 255
0.382283 -0.139507 0.795 255 255 255
-0.465125 0.0781026 1.591 255 255 255
-0.465628 -0.166567 1.629 255 255 255
-0.157331 0.241136 1.409 255 255 255
0.188837 -0.139123 1.242 255 255 255
-0.846992 0.107386 1.603 255 255 255
-0.170729 -0.22176 1.821 255 255 255
0.152517 -0.34251 1.048 255 255 255
0.414531 0.00622376 0.918 255 255 255
0.0764006 0.327102 1.057 255 255 255
-0.36373 0.102425 1.567 255 255 255
0.25794 0.276692 1.075 255 255 255
-0.467087 -0.467601 1.682 255 255 255
0.00245635 0.299434 1.075 255 255 255
-0.0307498 -0.0313706 1.629 255 255 255
-0.351046 -0.572643 1.677 255 255 255
0.0771957 0.30965 1.068 255 255 255
-0.539236 0.418424 1.291 255 255 255
0.277861 -0.152547 1.032 255 255 255
-0.400943 -0.233994 1.583 0 0 0
-0.383944 -0.621722 1.62 255 255 255
0.214467 0.0205995 1.381 255 255 255
-0.640677 0.395541 1.327 255 255 255
0.0189353 -0.436488 1.237 255 255 255
-0.509233 -0.426484 1.65 255 255 255
0.0661981 0.125979 1.484 0 0 0
0.063158 0.284905 1.366 255 255 255
0.221071 -0.158346 1.147 255 255 255
-0.165141 0.334496 1.342 255 255 255
-0.245837 -0.121565 1.744 0 0 0
0.0559243 0.290484 1.094 255 255 255
-0.327208 -0.0977269 1.724 0 0 0
0.434693 0.297536 1.234 255 255 255
-0.0752927 -0.475307 1.419 255 255 255
-0.544702 0.415185 1.294 255 255 255
0.24675 0.281154 1.072 255 255 255
-0.529265 -0.355834 1.724 0 0 0
-0.458287 0.475404 1.237 255 255 255
0.0112042 0.0792716 1.563 255 255 255
0.247178 -0.26754 0.935 255 255 255
0.36918 -0.0856891 0.895 255 255 255
0.170289 -0.351935 1.002 255 255 255
0.0402931 0.300223 1.345 255 255 255
0.262979 0.349873 1.096 255 255 255
0.393974 -0.0842462 0.851 255 255 255
0.211881 0.397931 1.158 255 255 255
0.25905 0.359382 1.087 255 255 255
-0.0358496 0.330757 1.327 255 255 255
0.0308915 -0.418685 1.232 255 255 255
-0.0820844 0.0960824 1.547 255 255 255
0.400543 -0.034907 0.9 255 255 255
-0.937339 -0.231063 1.848 255 255 255
0.345363 0.170482 1.275 255 255 255
0.329017 0.308563 1.222 255 255 255
0.264179 -0.254265 0.92 255 255 255
0.275165 0.381245 0.992 255 255 255
0.338187 -0.215664 0.804 255 255 255
-0.849045 -0.465544 2.017 0 0 0
0.0828654 -0.060932 1.571 255 255 255
-0.515 0.154175 1.524 255 255 255
-0.828785 -0.191661 1.789 255 255 255
-0.420172 -0.476497 1.714 255 255 255
-0.731784 0.156502 1.547 255 255 255
-0.112157 0.406972 1.262 255 255 255
0.122228 0.257725 1.114 255 255 255
-0.126664 0.323548 1.351 255 255 255
-0.0817082 -0.0740601 1.696 255 255 255
-0.577634 -0.252851 1.769 255 255 255
0.407643 0.0298797 0.958 255 255 255
0.237744 0.388518 1.12 0 0 0
0.184341 -0.108053 1.281 255 255 255
-0.762095 0.179915 1.532 255 255 255
-0.161904 -0.319758 1.789 0 0 0
0.481087 0.37057 1.185 255 255 255
-0.487343 0.373468 1.333 255 255 255
-0.213012 0.467027 1.205 255 255 255
0.332768 -0.0957298 0.967 255 255 255
-0.106764 0.278437 1.378 255 255 255
-0.37867 -0.318551 1.62 255 255 255
-0.209404 0.217778 1.452 255 255 255
0.162178 -0.299475 1.09 255 255 255
-0.626669 0.346439 1.372 255 255 255
-0.135931 0.137284 1.502 255 255 255
-0.647372 0.103732 1.587 0 0 0
0.0268538 -0.345936 1.33 255 255 255
0.220685 -0.161797 1.145 255 255 255
-0.154733 0.052343 1.595 255 255 255
0.429026 0.0641103 0.957 255 255 255
0.348395 -0.248064 0.737 255 255 255
0.127889 0.228731 1.132 255 255 255
0.186363 0.391463 1.118 255 255 255
-0.00917329 -0.254579 1.567 255 255 255
0.175995 -0.272456 1.11 255 255 255
0.395565 0.332317 1.283 255 255 255
0.363471 0.197145 1.273 255 255 255
0.496144 0.252082 1.018 255 255 255
0.361878 0.321169 1.297 255 255 255
0.414154 0.0154518 0.934 255 255 255
-0.116009 -0.419257 1.563 255 255 255
-0.491353 -0.0806592 1.719 255 255 255
-0.547535 0.192085 1.491 255 255 255
-0.811312 -0.168371 1.789 0 0 0
-0.286189 0.366563 1.316 0 0 0
-0.12474 -0.222008 1.799 255 255 255
-0.0319571 -0.457087 1.345 0 0 0
-0.336477 0.0627254 1.595 255 255 255
-0.0113817 0.315956 1.06 255 255 255
0.446929 0.231594 1.128 255 255 255
0.462223 0.13693 0.988 255 255 255
-0.331965 -0.0264048 1.65 255 255 255
0.47002 0.137449 0.958 255 255 255
-0.395469 -0.396051 1.805 255 255 255
-0.431156 -0.566856 1.629 255 255 255
0.318795 -0.0737574 1.034 255 255 255
-0.594666 0.26031 1.452 255 255 255
0.121557 -0.0807777 1.425 255 255 255
-0.0982727 -0.278296 1.696 255 255 255
-0.799319 0.17205 1.551 255 255 255
-0.370577 0.367399 1.319 255 255 255
0.0675833 -0.222504 1.412 255 255 255
-0.741771 -0.18664 1.769 0 0 0
-0.645585 -0.22267 1.758 255 255 255
0.292034 0.368047 1 255 255 255
-0.322509 0.0421712 1.603 255 255 255
0.309498 -0.105956 1.02 255 255 255
0.29854 0.276845 1.297 255 255 255
-0.247068 0.342572 1.348 255 255 255
0.18953 0.375913 1.137 255 255 255
0.193117 -0.291664 1.037 255 255 255
0.348337 -0.144505 0.872 255 255 255
0.331482 0.169855 1.302 0 0 0
0.474306 0.338185 1.173 255 255 255
0.0575888 -0.329489 1.291 255 255 255
-0.624263 0.253277 1.466 255 255 255
0.0856575 0.350262 1.044 255 255 255
-0.118695 -0.453324 1.532 255 255 255
-0.0708202 0.17981 1.47 255 255 255
-0.119 0.331569 1.339 255 255 255
0.0662506 0.265928 1.118 255 255 255
0.1817 -0.289235 1.059 255 255 255
-0.298079 0.0292917 1.612 255 255 255
-0.596304 0.256288 1.456 255 255 255
-0.353179 0.198948 1.47 255 255 255
0.404863 0.301703 1.286 255 255 255
0.182384 -0.299591 1.053 255 255 255
-0.320034 0.160865 1.494 255 255 255
0.398235 0.263165 1.252 255 255 255
0.334604 -0.259299 0.763 255 255 255
-0.20961 0.157692 1.487 255 255 255
-0.364442 0.433987 1.275 255 255 255
0.163421 0.213166 1.406 255 255 255
-0.174527 -0.526085 1.563 255 255 255
0.152346 -0.176017 1.275 255 255 255
-0.216734 -0.558317 1.612 255 255 255
0.17628 0.199945 1.239 0 0 0
-0.0941007 -0.0180604 1.624 255 255 255
0.344066 -0.018688 1.06 255 255 255
0.341859 -0.0861988 0.966 255 255 255
0.202724 0.405938 1.043 255 255 255
0.367256 0.256753 1.324 255 255 255
-0.343607 -0.410165 1.842 255 255 255
0.119226 0.234852 1.322 255 255 255
-0.220506 0.233421 1.432 255 255 255
-0.990984 -0.479763 1.929 255 255 255
0.37685 0.0365109 1.06 255 255 255
-0.426195 0.227034 1.466 255 255 255
0.41557 0.367131 1.225 255 255 255
0.377029 0.293081 1.313 0 0 0
-0.752534 0.289023 1.442 255 255 255
0.204555 0.33806 1.128 255 255 255
0.183377 0.380083 1.122 255 255 255
0.36718 0.289467 1.316 255 255 255
0.345264 -0.253205 0.738 255 255 255
-0.0155802 -0.485612 1.26 255 255 255
-0.502598 0.395354 1.305 255 255 255
0.117836 0.239918 1.124 255 255 255
-0.778034 -0.288589 1.87 255 255 255
0.0377637 0.304053 1.333 255 255 255
0.485992 0.265075 1.092 255 255 255
-0.202599 -0.151579 1.763 255 255 255
0.329316 -0.110819 0.948 255 255 255
-0.593306 0.382541 1.342 255 255 255
0.11897 0.0414345 1.575 255 255 255
-0.192707 0.0675759 1.587 255 255 255
-0.148362 0.410519 1.273 255 255 255
0.375062 -0.188265 0.767 255 255 255
0.472935 0.171267 0.93 255 255 255
-0.0570399 0.344918 1.075 255 255 255
0.3421 -0.230418 0.783 255 255 255
0.108128 0.16467 1.463 255 255 255
0.216491 -0.336974 0.921 255 255 255
-0.60115 -0.444435 1.637 255 255 255
0.233503 -0.224108 1.029 255 255 255
-0.103082 -0.21954 1.779 255 255 255
-0.377484 0.436419 1.27 255 255 255
0.122228 -0.345952 1.114 255 255 255
0.377238 0.308981 1.299 255 255 255
0.360512 0.00902074 1.073 255 255 255
0.253533 -0.0299813 1.242 255 255 255
-0.392962 -0.268253 1.603 255 255 255
-0.104909 0.121054 1.513 255 255 255
-0.956599 -0.478271 1.923 255 255 255
-0.356137 -0.0210346 1.65 255 255 255
-0.669829 0.411163 1.308 255 255 255
0.32824 -0.171413 0.879 255 255 255
0.116369 -0.369998 1.11 255 255 255
0.39099 -0.0690583 0.869 255 255 255
-0.807696 0.0587607 1.629 0 0 0
-0.807285 -0.3234 1.826 255 255 255
0.424072 -0.0381382 0.842 255 255 255
-0.0720401 -0.112079 1.729 255 255 255
0.207945 -0.0301439 1.339 255 255 255
-0.357307 -0.574998 1.668 255 255 255
0.1447 0.384137 1.092 255 255 255
-0.30918 0.190281 1.477 255 255 255
0.315303 -0.16232 0.925 255 255 255
0.335485 -0.265332 0.735 255 255 255
-0.515539 0.120582 1.571 255 255 255
0.366475 -0.225513 0.73 255 255 255
-0.289658 0.345415 1.342 255 255 255
-0.208576 0.301125 1.369 255 255 255
-0.242861 0.15642 1.498 255 255 255
0.291288 0.317982 1.044 255 255 255
0.19776 -0.15326 1.21 255 255 255
0.213554 0.0945845 1.484 255 255 255
-0.78013 0.206682 1.509 255 255 255
-0.33116 -0.318306 1.646 255 255 255
-0.274826 0.32714 1.366 255 255 255
-0.408891 -0.415231 1.774 255 255 255
-0.665589 0.179445 1.528 255 255 255
0.25506 0.338691 1.124 255 255 255
-0.783749 0.200239 1.516 255 255 255
-0.48168 0.06304 1.603 255 255 255
-0.0432574 0.212003 1.429 255 255 255
0.41489 0.382033 1.167 255 255 255
0.345424 -0.222903 0.779 255 255 255
0.199115 0.311201 1.098 255 255 255
-0.184086 -0.048553 1.673 255 255 255
-0.66943 -0.164983 1.753 255 255 255
0.365787 0.0501441 1.094 255 255 255
0.181902 -0.265113 1.102 255 255 255
0.166074 0.155889 1.47 255 255 255
-0.225425 -0.561648 1.637 255 255 255
-0.61108 0.43671 1.283 255 255 255
-0.31991 0.376241 1.305 255 255 255
0.231934 0.151242 0.462 255 255 255
0.305299 -0.21099 0.883 255 255 255
-0.554372 0.0985668 1.587 255 255 255
0.345643 0.35811 0.995 255 255 255
0.436684 0.0250297 0.896 255 255 255
-0.213152 0.459796 1.217 255 255 255
0.132194 0.298239 1.077 255 255 255
0.378074 -0.181075 0.763 255 255 255
0.0300863 0.320008 1.062 255 255 255
0.0982594 -0.0871203 1.494 255 255 255
-0.989671 -0.773467 2.114 0 0 0
0.421513 0.100847 1.03 255 255 255
0.115088 -0.386719 1.081 255 255 255
0.338805 0.274569 1.348 0 0 0
0.474704 0.278249 1.029 255 255 255
-0.0651447 0.34305 1.308 0 0 0
-0.359736 0.125639 1.539 0 0 0
-0.0793756 0.350718 1.297 255 255 255
0.403709 0.310797 1.289 255 255 255
0.28382 -0.310401 0.802 255 255 255
-0.00627174 -0.299053 1.484 255 255 255
0.295055 -0.166378 0.957 0 0 0
0.248021 -0.0589876 1.215 255 255 255
-0.348953 -0.105596 1.629 255 255 255
-0.574233 0.192085 1.491 255 255 255
-0.178209 -0.319369 1.837 255 255 255
-0.129244 0.380019 1.289 255 255 255
0.440339 0.38459 1.169 255 255 255
0.17556 0.422998 1.096 255 255 255
-0.152746 0.404939 1.275 255 255 255
0.46178 0.102197 0.935 255 255 255
-0.290726 -0.588692 1.724 255 255 255
0.3359 -0.262903 0.752 255 255 255
-0.959009 -0.318498 1.815 255 255 255
0.216097 -0.344447 0.913 255 255 255
-0.681419 0.159019 1.547 255 255 255
0.408988 -0.0838461 0.82 255 255 255
0.056876 0.337316 1.046 255 255 255
-0.104417 -0.00219825 1.62 0 0 0
0.243487 -0.177814 1.073 255 255 255
0.404887 0.106624 1.089 255 255 255
-0.314257 0.464812 1.225 255 255 255
0.450496 0.384076 1.156 0 0 0
-0.169167 0.441263 1.173 0 0 0
0.213867 -0.0643768 1.283 255 255 255
0.392657 0.00185027 0.975 255 255 255
0.0866359 0.0759426 1.547 255 255 255
0.330256 0.12921 1.257 255 255 255
0.162943 -0.366801 1.007 255 255 255
0.402689 -0.0390824 0.895 255 255 255
-0.295675 0.0472701 1.599 255 255 255
-0.050496 -0.293243 1.583 255 255 255
0.305931 -0.270174 0.795 255 255 255
-0.711352 0.187037 1.509 255 255 255
0.179169 -0.00887176 1.422 255 255 255
0.316865 0.324654 1.017 255 255 255
0.0597815 -0.353323 1.249 255 255 255
0.389313 0.0197785 0.999 255 255 255
-0.158447 0.23592 1.419 255 255 255
-0.0439675 -0.326816 1.535 255 255 255
-0.223058 0.465737 1.217 255 255 255
0.153128 0.030331 1.532 255 255 255
-0.750683 0.234019 1.48 255 255 255
-0.619818 0.373567 1.357 255 255 255
-0.548277 0.469693 1.254 255 255 255
-0.443367 -0.477013 1.696 255 255 255
-0.360498 0.463013 1.247 255 255 255
-0.623211 -0.0558052 1.646 255 255 255
0.329115 -0.0806095 0.994 255 255 255
-0.363012 0.440552 1.27 255 255 255
-0.443104 0.375255 1.324 255 255 255
-0.294754 0.185474 1.477 255 255 255
-0.821441 -0.423466 1.959 255 255 255
-0.423201 -0.550951 1.629 255 255 255
-0.534798 0.1132 1.575 0 0 0
-0.168448 0.325746 1.351 255 255 255
-0.806744 -0.353446 1.859 255 255 255
0.238104 -0.00819171 1.313 255 255 255
-0.173341 0.0472701 1.599 255 255 255
0.287916 -0.228677 0.896 255 255 255
-0.598935 0.409277 1.302 255 255 255
0.441161 0.0100524 0.862 255 255 255
0.339578 -0.201274 0.82 255 255 255
0.255574 -0.022073 1.252 255 255 255
-0.357372 -0.505861 1.748 255 255 255
0.161832 -0.226631 1.192 255 255 255
-0.500522 0.360923 1.351 255 255 255
-0.703833 -0.0938752 1.705 255 255 255
-0.245537 -0.596016 1.629 255 255 255
-0.788617 -0.356402 1.941 255 255 255
0.294955 -0.132859 1.01 255 255 255
0.227753 0.405159 1.041 255 255 255
0.26096 0.380584 1.025 255 255 255
0.216814 -0.280339 0.991 255 255 255
-0.215391 0.235257 1.429 255 255 255
-0.753835 0.221201 1.491 255 255 255
0.347256 -0.178495 0.832 255 255 255
0.174361 -0.314622 1.046 255 255 255
-0.546337 0.40052 1.308 255 255 255
-0.0301413 0.172634 1.47 255 255 255
-0.276492 0.40476 1.281 255 255 255
0.00619393 0.0545253 1.583 255 255 255
-0.269126 0.103903 1.551 255 255 255
-0.0786298 0.30511 1.357 255 255 255
0.401461 0.0385791 0.981 255 255 255
0.331378 0.0038705 1.098 255 255 255
0.408627 0.041048 0.964 255 255 255
-0.7292 -0.103038 1.719 255 255 255
0.130611 -0.286011 1.173 255 255 255
-0.680845 -0.19351 1.753 255 255 255
-0.285278 0.403304 1.283 255 255 255
0.212696 -0.28182 1.002 255 255 255
-0.326647 -0.430461 1.865 255 255 255
0.379233 0.0152147 1.02 255 255 255
0.276845 -0.0115822 1.22 255 255 255
0.349488 -0.267509 0.703 255 255 255
0.397779 0.251943 1.257 255 255 255
-0.469124 0.337264 1.362 255 255 255
0.228856 -0.0530547 1.262 255 255 255
0.417847 0.0758037 1.009 255 255 255
0.0914576 0.16705 1.463 255 255 255
-0.419547 0.161726 1.502 255 255 255
0.238004 0.399069 1.034 255 255 255
-0.152471 -0.417003 1.655 255 255 255
-0.214676 -0.344219 1.842 0 0 0
0.292212 -0.205011 0.914 255 255 255
0.101881 -0.135713 1.442 255 255 255
-0.319996 -0.337016 1.686 255 255 255
-0.58238 0.291956 1.422 255 255 255
-0.636993 0.333771 1.375 255 255 255
0.0542292 -0.178666 1.487 255 255 255
0.169192 -0.336661 1.025 255 255 255
-0.812919 -0.315691 1.799 255 255 255
0.13502 0.230166 1.13 255 255 255
-0.00556174 -0.425816 1.316 255 255 255
-0.0785225 -0.155979 1.748 255 255 255
0.396164 0.0394836 1.004 255 255 255
0.282346 0.050377 1.281 255 255 255
0.32102 0.143542 1.294 255 255 255
0.0945735 -0.347982 1.176 255 255 255
-0.200975 -0.389249 1.774 255 255 255
0.0640766 0.36724 1.025 255 255 255
-0.169551 -0.404059 1.691 255 255 255
-0.413328 0.0832807 1.591 255 255 255
-0.636401 -0.325555 1.805 255 255 255
-0.0128082 -0.374856 1.406 255 255 255
-0.0917414 -0.238693 1.729 255 255 255
-0.372089 -0.196025 1.528 0 0 0
0.352432 0.0417704 1.108 255 255 255
-0.555783 -0.0595852 1.677 255 255 255
0.327926 -0.122641 0.944 255 255 255
0.366721 -0.156094 0.821 255 255 255
-0.54049 -0.347418 1.724 255 255 255
0.135774 0.212151 1.152 255 255 255
0.210773 0.330785 1.122 255 255 255
0.215619 -0.0684457 1.281 255 255 255
-0.705884 0.245563 1.477 255 255 255
-0.317865 -0.648527 1.719 255 255 255
-0.326734 -0.181913 1.624 255 255 255
-0.526648 -0.522046 1.551 255 255 255
0.304246 -0.0166469 1.158 255 255 255
-0.445395 0.417268 1.281 255 255 255
-0.345394 -0.0290899 1.65 255 255 255
-0.243199 -0.222978 1.831 255 255 255
0.325545 -0.264747 0.768 0 0 0
0.0630088 0.162622 1.466 255 255 255
0.18627 -0.0286541 1.372 255 255 255
0.264097 -0.18506 0.999 255 255 255
0.281582 -0.218722 0.928 255 255 255
0.0463043 0.165007 1.466 255 255 255
0.364444 -0.164548 0.81 255 255 255
0.269232 -0.0533573 1.178 255 255 255
-0.651891 -0.047131 1.624 255 255 255
-0.491918 -0.443935 1.655 255 255 255
0.135458 -0.376619 1.048 255 255 255
0.00854913 -0.240636 1.543 255 255 255
-0.498387 -0.419327 1.686 255 255 255
0.299728 -0.163263 0.957 255 255 255
-0.21478 0.462994 1.215 255 255 255
0.116524 -0.153013 1.366 255 255 255
0.312154 -0.224442 0.847 255 255 255
0.111278 0.010678 1.575 255 255 255
-0.459785 0.244945 1.459 255 255 255
0.391649 -0.128833 0.793 255 255 255
0.104209 0.231184 1.135 255 255 255
-0.42597 -0.0237197 1.65 255 255 255
0.119377 -0.166352 1.348 255 255 255
0.352826 0.0217386 1.098 255 255 255
0.405125 -0.0841528 0.823 255 255 255
-0.0366091 -0.389147 1.442 255 255 255
-0.605957 0.440199 1.281 255 255 255
-0.0856964 0.0820245 1.567 255 255 255
-0.734789 0.0682572 1.603 255 255 255
0.176629 0.257725 1.114 255 255 255
0.292669 -0.161574 0.975 255 255 255
-0.361764 0.219877 1.466 255 255 255
-0.337033 0.335991 1.348 255 255 255
0.31705 0.0151893 1.143 255 255 255
-0.170546 -0.165454 1.758 255 255 255
0.355854 -0.0216994 1.039 255 255 255
-0.586368 0.196937 1.491 255 255 255
0.4604 0.287739 1.162 255 255 255
0.232073 0.385043 1.194 255 255 255
0.0462341 -0.308445 1.327 255 255 255
-0.433807 -0.569507 1.629 255 255 255
-0.97256 -0.768822 2.092 255 255 255
-0.721614 -0.20967 1.769 255 255 255
-0.0091461 0.389125 1.004 255 255 255
0.27257 -0.244749 0.918 255 255 255
0.477244 0.326529 1.139 255 255 255
-0.107054 -0.00219825 1.62 255 255 255
0.249847 0.0393179 1.33 255 255 255
0.293914 -0.29826 0.794 255 255 255
-0.0112529 0.344782 1.048 255 255 255
-0.433695 -0.0292486 1.659 0 0 0
-0.357265 0.190281 1.477 255 255 255
0.327629 0.113977 1.247 255 255 255
0.337442 -0.231193 0.79 255 255 255
0.297066 -0.291037 0.799 255 255 255
0.343688 -0.254394 0.745 255 255 255
0.0651299 -0.0969698 1.575 0 0 0
0.309265 -0.0463283 1.102 255 255 255
0.397379 -0.126899 0.789 255 255 255
0.306988 -0.287186 0.778 255 255 255
-0.616968 -0.21981 1.758 255 255 255
-0.84205 -0.12943 1.774 255 255 255
-0.481917 0.370463 1.33 255 255 255
-0.306899 -0.393796 1.893 255 255 255
0.0784347 0.126234 1.487 255 255 255
0.0971414 -0.110165 1.477 255 255 255
-0.302512 0.0998746 1.567 255 255 255
-0.0284619 -0.480984 1.286 255 255 255
-0.841252 0.0896265 1.612 255 255 255
-0.252813 -0.139309 1.753 255 255 255
-0.18889 -0.373758 1.769 255 255 255
0.368495 -0.120963 0.866 255 255 255
-0.686552 -0.196363 1.753 255 255 255
0.479564 0.310698 1.149 255 255 255
0.194789 0.153497 1.47 255 255 255
-0.445149 -0.578678 1.603 255 255 255
0.222608 -0.283455 0.974 255 255 255
-0.0922516 0.243455 1.396 255 255 255
-0.919798 -0.409052 1.837 255 255 255
-0.470571 0.233712 1.463 255 255 255
-0.548189 0.0084808 1.646 255 255 255
0.102465 0.245475 1.116 255 255 255
-0.424274 -0.294339 1.603 255 255 255
-0.529805 -0.0103816 1.664 255 255 255
0.0454875 0.281337 1.1 255 255 255
0.265961 -0.1014 1.116 255 255 255
-0.11429 0.377042 1.286 255 255 255
-0.617272 -0.391168 1.719 255 255 255
-0.38716 0.244946 1.445 255 255 255
0.104251 0.394057 1.043 255 255 255
-0.405552 0.469241 1.242 255 255 255
0.281073 -0.0931232 1.104 255 255 255
0.41128 0.0509839 0.974 255 255 255
-0.470699 -0.0605801 1.705 255 255 255
0.480974 0.282219 1.05 255 255 255
0.0936627 -0.398161 1.098 255 255 255
-0.297602 0.136097 1.516 255 255 255
-0.186278 0.148709 1.494 255 255 255
-0.379551 0.132201 1.528 255 255 255
0.215357 0.274368 1.108 255 255 255
0.266412 0.201726 1.406 255 255 255
-0.153534 0.284544 1.375 255 255 255
-0.5434 0.433945 1.281 255 255 255
0.250607 0.340758 1.137 255 255 255
-0.10432 -0.482821 1.47 255 255 255
0.296336 -0.21677 0.895 255 255 255
-1.04891 -0.824684 2.158 255 255 255
0.254772 -0.24297 0.952 255 255 255
0.369384 0.000280931 1.039 255 255 255
-0.366644 0.380489 1.305 255 255 255
0.410764 0.0934542 1.041 255 255 255
0.294593 0.0660593 1.262 255 255 255
-0.227579 0.4649 1.22 255 255 255
-0.275037 -0.306028 1.865 255 255 255
-0.00811956 0.253171 1.387 255 255 255
0.409059 0.344228 1.273 0 0 0
-0.539592 0.405039 1.302 255 255 255
-0.621877 0.24612 1.466 255 255 255
-0.0101678 0.294502 1.359 0 0 0
-0.555146 0.461462 1.265 255 255 255
-0.391855 -0.626995 1.62 255 255 255
0.418051 0.0589695 0.975 255 255 255
0.436152 0.107889 1.002 255 255 255
-0.677152 -0.12896 1.729 0 0 0
-0.938881 -0.479075 1.978 255 255 255
0.287318 0.0803689 1.294 255 255 255
-0.215786 0.0947746 1.567 255 255 255
0.0907624 0.311954 1.064 255 255 255
0.146586 -0.119215 1.336 255 255 255
-0.50359 0.446752 1.27 255 255 255
0.106073 -0.227167 1.319 255 255 255
-0.270552 -0.310885 1.876 0 0 0
-0.698577 0.171535 1.524 255 255 255
-0.695698 -0.238457 1.769 255 255 255
-0.600951 0.31253 1.39 255 255 255
-0.541086 -0.570402 1.48 255 255 255
-0.593738 -0.0611624 1.646 255 255 255
0.184543 0.386005 1.118 255 255 255
-0.0692264 -0.311819 1.599 255 255 255
-0.804819 -0.282699 1.794 255 255 255
-0.485005 -0.442309 1.659 255 255 255
-0.430994 -0.104841 1.659 0 0 0
-0.49158 0.157987 1.513 255 255 255
0.349703 -0.141374 0.879 255 255 255
-0.475671 0.0905902 1.583 255 255 255
0.478082 0.312248 1.141 255 255 255
-0.118076 0.109534 1.524 255 255 255
0.284151 -0.266599 0.854 255 255 255
-0.315591 -0.344704 1.753 255 255 255
0.313502 0.255257 1.362 255 255 255
-0.577854 -0.138674 1.71 255 255 255
-0.254467 -0.270331 1.87 255 255 255
-0.274826 0.324917 1.366 255 255 255
-0.01031 0.269468 1.378 255 255 255
-0.0381815 0.325745 1.333 255 255 255
0.415675 0.0184916 0.934 255 255 255
0.404437 0.0160308 0.969 255 255 255
0.310201 -0.294605 0.758 255 255 255
-0.682503 0.350904 1.372 255 255 255
-0.300954 -0.213322 1.642 0 0 0
0.212668 0.165988 0.453 255 255 255
-0.197671 -0.509721 1.65 255 255 255
-0.532644 0.286722 1.419 255 255 255
0.42257 0.208319 1.162 255 255 255
-0.575388 -0.527173 1.494 255 255 255
0.182689 -0.35733 0.981 255 255 255
-0.774169 -0.0486691 1.677 255 255 255
0.0835202 -0.346229 1.21 255 255 255
-0.305443 0.153571 1.494 255 255 255
-0.0514312 0.325032 1.339 255 255 255
-0.031339 -0.402869 1.416 255 255 255
-0.450318 -0.0573309 1.691 255 255 255
-0.584451 0.207527 1.48 255 255 255
-0.97285 -0.410314 1.87 255 255 255
0.378857 0.330229 1.283 255 255 255
-0.649737 -0.517901 1.659 255 255 255
0.11304 -0.321181 1.169 255 255 255
0.00104293 0.0443328 1.587 255 255 255
-0.109257 -0.126876 1.739 255 255 255
0.218417 -0.074233 1.273 255 255 255
-0.78053 -0.295621 1.876 255 255 255
-0.203805 0.166583 1.48 255 255 255
0.181089 0.339279 1.108 255 255 255
0.32982 -0.166503 0.891 255 255 255
0.254799 -0.271911 0.924 255 255 255
-0.0817708 -0.465095 1.452 255 255 255
-0.297664 0.109232 1.555 255 255 255
0.240462 -0.22632 1.009 255 255 255
0.457367 0.0721116 0.92 255 255 255
-0.12447 -0.35432 1.677 255 255 255
-0.121427 -0.446718 1.535 255 255 255
-0.166762 -0.0890513 1.719 255 255 255
-0.198497 0.120081 1.532 255 255 255
-0.0934054 -0.356327 1.612 255 255 255
-0.405822 0.206124 1.47 255 255 255
-0.642205 0.106315 1.587 255 255 255
0.333603 -0.240919 0.784 255 255 255
0.164253 -0.296471 1.092 255 255 255
0.108219 -0.291993 1.222 255 255 255
-0.43615 0.313433 1.384 255 255 255
-0.730348 0.242501 1.473 255 255 255
0.238156 0.221892 1.375 255 255 255
0.173117 -0.179781 1.203 255 255 255
-0.292951 -0.252799 1.789 255 255 255
-0.552122 0.253221 1.452 255 255 255
-0.705061 0.303527 1.422 255 255 255
-0.835912 -0.678895 2.017 255 255 255
-0.231333 -0.539 1.7 255 255 255
-0.517563 -0.558078 1.539 255 255 255
-0.836026 0.0919636 1.607 255 255 255
0.0610359 0.350594 1.03 255 255 255
0.199753 0.230573 1.132 255 255 255
-0.427349 -0.617319 1.595 255 255 255
-0.0468449 -0.132155 1.734 255 255 255
0.343866 0.35318 1.004 255 255 255
0.420679 0.0803295 1.004 255 255 255
0.104359 0.204885 1.412 255 255 255
0.318795 -0.07544 1.034 255 255 255
0.433594 0.247571 1.187 255 255 255
0.350628 0.0363612 1.108 255 255 255
0.342719 -0.164568 0.851 255 255 255
0.391817 -0.0651888 0.874 255 255 255
-0.0659025 -0.275449 1.646 255 255 255
-0.313401 0.224866 1.452 0 0 0
0.286143 -0.19513 0.938 255 255 255
0.363576 -0.154357 0.826 255 255 255
-0.836865 0.0534588 1.629 255 255 255
0.240535 -0.320565 0.888 255 255 255
-0.67538 -0.283055 1.815 255 255 255
0.170575 0.415757 1.11 255 255 255
-0.41805 0.380685 1.313 255 255 255
0.026679 0.308491 1.064 255 255 255
-0.249976 -0.226698 1.837 255 255 255
-0.554095 -0.147366 1.714 255 255 255
-0.314602 0.0267346 1.616 255 255 255
-0.753092 0.236428 1.48 255 255 255
-0.50882 0.162911 1.513 255 255 255
0.376796 -0.18973 0.753 255 255 255
-0.225039 0.113411 1.543 255 255 255
0.304973 0.0942099 1.254 255 255 255
-0.112778 0.388163 1.01 255 255 255
0.162464 0.411713 1.104 255 255 255
0.312108 -0.206928 0.866 255 255 255
-0.314631 0.425688 1.275 255 255 255
-0.465453 -0.0492205 1.696 255 255 255
0.0179513 0.326306 1.06 255 255 255
-0.759812 0.214926 1.498 255 255 255
0.333475 -0.280576 0.728 255 255 255
-0.570777 -0.201492 1.748 0 0 0
0.247109 0.0719742 1.375 255 255 255
0.355114 0.103476 1.196 255 255 255
-0.514619 0.0296732 1.633 0 0 0
0.422772 0.173395 1.108 255 255 255
-0.251376 0.129035 1.52 255 255 255
-0.341643 -0.170863 1.571 255 255 255
0.410416 -0.0728001 0.831 255 255 255
0.196207 -0.29129 1.018 255 255 255
0.300975 -0.156939 0.966 255 255 255
0.39507 -0.00750441 0.954 255 255 255
0.403461 0.197769 1.178 255 255 255
0.462905 0.377966 1.178 255 255 255
0.237311 0.130351 1.452 255 255 255
0.215431 0.171747 0.445 255 255 255
0.309162 -0.0564147 1.089 255 255 255
0.206317 0.404628 1.044 0 0 0
0.289884 0.1295 1.345 0 0 0
0.223704 -0.220925 1.062 255 255 255
0.128381 0.10572 1.505 255 255 255
-0.753023 -0.512756 1.947 255 255 255
0.113771 -0.351461 1.12 255 255 255
0.357684 0.00903756 1.075 255 255 255
0.234549 -0.126836 1.149 255 255 255
-0.128419 -0.267245 1.769 255 255 255
0.2679 0.0406089 1.302 255 255 255
-0.412724 0.317248 1.381 255 255 255
0.35363 -0.210849 0.772 255 255 255
-0.393302 -0.0182049 1.637 255 255 255
0.178801 0.420446 1.094 255 255 255
-0.127313 -0.244747 1.794 255 255 255
-0.446757 0.236093 1.463 255 255 255
-0.267393 -0.533593 1.774 255 255 255
0.316414 -0.198884 0.874 255 255 255
0.0152094 -0.422719 1.262 255 255 255
-0.199266 -0.120868 1.734 255 255 255
-0.693031 0.059979 1.591 255 255 255
0.188924 -0.350889 0.972 255 255 255
-0.161895 0.426056 1.234 255 255 255
-0.0246484 -0.367035 1.429 255 255 255
-0.237839 0.409089 1.275 255 255 255
-0.204304 0.385413 1.286 255 255 255
0.180717 -0.196797 1.176 255 255 255
0.173436 -0.00427348 1.432 255 255 255
-0.00794573 0.311367 1.062 255 255 255
-0.444063 0.17059 1.494 255 255 255
0.114149 -0.374065 1.106 255 255 255
-0.292032 0.429202 1.267 255 255 255
-0.202959 -0.591189 1.547 255 255 255
-0.0922043 -0.276655 1.686 255 255 255
-0.33331 0.425688 1.275 255 255 255
-0.301369 -0.21823 1.659 255 255 255
0.251443 0.0305913 1.327 255 255 255
-0.0416228 -0.458331 1.375 255 255 255
-0.676864 -0.0935999 1.7 0 0 0
0.37857 0.218203 1.275 255 255 255
-0.770079 0.166141 1.543 255 255 255
0.106683 0.281032 1.085 255 255 255
-0.435312 0.466907 1.252 255 255 255
-0.972911 -0.589225 2.071 255 255 255
-0.111499 0.184595 1.47 255 255 255
0.251509 -0.155084 1.085 255 255 255
0.453659 0.281863 1.169 255 255 255
0.0191925 -0.305562 1.403 255 255 255
0.0419139 -0.321402 1.327 255 255 255
-0.3952 -0.242943 1.591 0 0 0
0.324517 -0.276771 0.74 255 255 255
0.162252 0.0450529 1.524 255 255 255
0.111304 -0.347858 1.132 255 255 255
-0.241853 -0.561727 1.677 255 255 255
0.101754 0.230296 1.149 255 255 255
-0.613109 -0.105979 1.677 255 255 255
-0.537983 0.426271 1.283 255 255 255
0.227753 -0.228415 1.041 255 255 255
-0.576189 0.470817 1.257 255 255 255
0.368917 0.0158412 1.062 255 255 255
0.329265 0.202554 1.336 255 255 255
0.393881 -0.0939808 0.839 255 255 255
0.253171 0.381443 1.041 255 255 255
