ply
format ascii 1.0
comment Created by Open3D
element vertex 1282
property double x
property double y
property double z
property uchar red
property uchar green
property uchar blue
end_header
-0.00225259 0.0148893 0.533 255 255 255
0.0558475 0.035755 0.509 255 255 255
-0.0595994 0.116031 0.383 255 255 255
-0.0115234 -0.0053354 0.562 255 255 255
-0.163964 -0.0351852 0.587 255 255 255
-0.169791 0.0989134 0.347 255 255 255
0.0859602 0.120056 0.39 255 255 255
-0.17928 -0.144219 0.379 255 255 255
-0.0118356 -0.0508472 0.627 255 255 255
-0.136812 0.110465 0.381 255 255 255
-0.145718 0.120797 0.369 255 255 255
-0.244572 -0.220413 0.749 255 255 255
-0.178212 -0.139144 0.382 255 255 255
0.181465 -0.15497 0.875 255 255 255
-0.0786032 -0.174571 0.684 0 0 0
-0.178541 0.0934648 0.352 255 255 255
-0.158652 -0.230068 0.795 255 255 255
0.166662 -0.294422 0.823 255 255 255
0.241452 -0.17735 0.763 255 255 255
-0.182047 0.0661432 0.441 255 255 255
-0.022009 -0.0147644 0.573 255 255 255
0.0778095 0.114458 0.397 255 255 255
-0.0255997 0.0269053 0.514 255 255 255
-0.02193 0.0849411 0.401 255 255 255
-0.137132 -0.05023 0.442 255 255 255
0.245692 0.0353042 0.527 255 255 255
-0.1417 -0.223165 0.734 255 255 255
-0.143915 -0.0417531 0.599 255 255 255
0.179634 0.144186 0.38 255 255 255
0.143953 -0.313799 0.839 255 255 255
0.0687221 -0.189518 0.762 255 255 255
-0.041616 0.0629106 0.402 255 255 255
-0.0763764 -0.173458 0.684 0 0 0
0.265912 -0.187874 0.709 255 255 255
0.114357 -0.0425484 0.625 255 255 255
0.0185048 -0.124701 0.738 0 0 0
-0.146779 0.117329 0.332 255 255 255
-0.202273 0.0632181 0.384 255 255 255
-0.181601 -0.110891 0.392 255 255 255
0.0318654 -0.0081797 0.569 255 255 255
-0.0412314 -0.0206434 0.581 255 255 255
-0.0971701 -0.0116955 0.56 255 255 255
-0.0923258 0.0485117 0.431 255 255 255
-0.171847 -0.0106109 0.551 0 0 0
0.220162 0.00203395 0.577 255 255 255
0.023063 0.0630678 0.466 255 255 255
-0.18572 -0.0574084 0.411 255 255 255
-0.174179 0.09494 0.349 0 0 0
0.168615 0.109367 0.417 255 255 255
-0.0261027 0.0939548 0.395 255 255 255
0.149334 0.115354 0.407 255 255 255
-0.052478 0.0769181 0.4 255 255 255
-0.0623419 0.0326818 0.5 255 255 255
0.250212 -0.174793 0.752 255 255 255
0.203297 0.0442111 0.511 255 255 255
-0.215791 0.0027256 0.529 255 255 255
0.10746 0.111874 0.404 255 255 255
-0.0893658 0.112251 0.385 255 255 255
-0.0533853 0.130287 0.362 255 255 255
0.154842 0.122826 0.399 255 255 255
-0.181245 -0.105686 0.394 255 255 255
0.145268 -0.0340263 0.618 255 255 255
-0.19055 -0.210431 0.804 255 255 255
0.149786 -0.237014 0.873 255 255 255
0.0159572 0.0694383 0.458 255 255 255
-0.101468 -0.0222629 0.574 255 255 255
-0.026491 0.064319 0.411 255 255 255
-0.254919 -0.0015757 0.528 255 255 255
-0.158607 -0.0642609 0.43 255 255 255
0.149979 -0.101769 0.712 0 0 0
-0.00918739 -0.152146 0.743 255 255 255
0.0951308 -0.199819 0.736 255 255 255
0.1506 0.140594 0.377 255 255 255
0.0540067 0.0838939 0.44 255 255 255
-0.089446 0.0532437 0.424 255 255 255
0.260129 0.0132324 0.574 255 255 255
-0.155261 -0.051707 0.613 255 255 255
0.274728 -0.238924 0.674 255 255 255
-0.00519341 0.0923831 0.42 255 255 255
-0.0578636 0.0480766 0.483 255 255 255
-0.128218 0.00102666 0.541 255 255 255
0.125641 0.119667 0.395 255 255 255
0.0127692 -0.235381 0.754 255 255 255
0.0566813 0.110286 0.403 255 255 255
-0.0318088 0.0905112 0.394 255 255 255
0.234184 0.0755239 0.468 255 255 255
-0.162676 -0.12157 0.402 255 255 255
0.172517 -0.280996 0.819 255 255 255
-0.0279908 -0.0187525 0.581 255 255 255
0.0213041 -0.147871 0.752 255 255 255
0.00853535 0.0370441 0.504 255 255 255
-0.07483 0.135281 0.352 255 255 255
-0.168921 -0.0989945 0.406 255 255 255
-0.175719 -0.113956 0.396 255 255 255
0.24525 -0.25831 0.706 255 255 255
0.0806246 0.00555903 0.554 255 255 255
-0.0638445 -0.168973 0.693 255 255 255
-0.0119138 0.076908 0.441 255 255 255
0.0317666 0.0527926 0.483 255 255 255
-0.165601 0.105029 0.343 255 255 255
-0.105056 -0.236035 0.648 255 255 255
0.278887 -0.178909 0.701 255 255 255
0.0949621 0.0330791 0.519 255 255 255
0.0374587 -0.0178989 0.584 255 255 255
0.111891 0.0776975 0.454 255 255 255
0.0679222 -0.0325932 0.61 255 255 255
-0.0511758 0.0658522 0.4 255 255 255
-0.155819 0.109339 0.334 255 255 255
-0.0664823 0.0773027 0.402 255 255 255
-0.151897 -0.0278692 0.441 255 255 255
0.174793 -0.28221 0.811 255 255 255
0.195585 0.0388409 0.517 255 255 255
-0.170827 0.0853081 0.374 255 255 255
0.0464872 -0.0209632 0.59 255 255 255
-0.21187 0.0361363 0.481 255 255 255
0.0618679 -0.0857733 0.686 255 255 255
0.27275 0.00951261 0.575 255 255 255
0.105539 0.126035 0.385 255 255 255
-0.121223 -0.134592 0.733 255 255 255
0.313121 -0.19173 0.634 255 255 255
-0.00450096 0.132192 0.364 255 255 255
0.150781 -0.300145 0.839 255 255 255
0.336773 -0.0234273 0.691 255 255 255
0.31173 -0.231266 0.613 255 255 255
-0.0538254 0.130515 0.361 255 255 255
0.190113 0.11167 0.418 255 255 255
-0.0844896 -0.0658499 0.644 255 255 255
-0.135382 -0.129514 0.752 255 255 255
-0.176568 0.0119876 0.52 255 255 255
-0.0302825 0.0665053 0.408 255 255 255
0.261652 -0.179383 0.726 255 255 255
0.00787488 0.0644459 0.465 255 255 255
-0.156664 0.0573876 0.457 255 255 255
-0.248039 0.00774158 0.519 255 255 255
-0.186003 0.00273076 0.53 255 255 255
-0.200313 0.0494173 0.404 255 255 255
0.127889 0.121287 0.394 255 255 255
0.120674 0.0259196 0.528 255 255 255
0.0991309 0.0677629 0.467 255 255 255
0.152109 -0.249458 0.862 255 255 255
0.291918 -0.145501 0.694 255 255 255
0.293594 -0.0600922 0.741 255 255 255
0.182457 0.134018 0.39 255 255 255
0.151769 0.113536 0.41 255 255 255
0.232148 -0.210322 0.761 255 255 255
-0.128528 -0.0418229 0.6 255 255 255
0.082683 0.141045 0.367 255 255 255
0.108875 0.0169048 0.542 255 255 255
-0.184986 -0.0763424 0.405 255 255 255
0.0543256 0.108856 0.405 255 255 255
-0.197963 0.000143845 0.532 255 255 255
0.264854 -0.259764 0.674 255 255 255
-0.0394165 0.136814 0.353 255 255 255
-0.119404 -0.112598 0.722 255 255 255
0.105864 0.115394 0.398 255 255 255
0.207301 -0.0220291 0.62 255 255 255
-0.178988 0.0870211 0.414 255 255 255
-0.150959 0.0983069 0.397 0 0 0
0.230013 -0.230473 0.754 255 255 255
-0.139056 -0.115249 0.739 255 255 255
0.260969 -0.23041 0.705 255 255 255
0.313134 -0.168806 0.649 255 255 255
0.0070779 -0.0837931 0.679 255 255 255
0.11207 -0.0370434 0.618 255 255 255
-0.166048 -0.0549673 0.616 255 255 255
-0.122896 0.104086 0.392 255 255 255
0.139621 0.0976253 0.428 255 255 255
0.0103828 -0.159128 0.759 255 255 255
0.0116796 -0.20715 0.763 255 255 255
-0.176363 0.0557779 0.456 255 255 255
-0.153668 -0.134298 0.399 0 0 0
0.285738 -0.236092 0.654 255 255 255
0.148785 0.0170295 0.546 255 255 255
0.0488844 0.00643725 0.552 255 255 255
-0.024235 0.0941927 0.396 255 255 255
0.102546 0.109662 0.408 255 255 255
-0.03776 -0.0440119 0.617 255 255 255
0.269 -0.194016 0.702 255 255 255
0.0149158 0.101944 0.409 255 255 255
-0.030772 0.112785 0.389 255 255 255
0.212502 0.0643152 0.481 255 255 255
-0.0332738 0.069798 0.404 255 255 255
-0.158275 -0.0623062 0.431 255 255 255
-0.141908 -0.110514 0.412 255 255 255
-0.0782828 -0.142623 0.691 255 255 255
0.317764 -0.0323405 0.714 255 255 255
-0.0267121 0.0646417 0.461 255 255 255
-0.0350722 0.0687982 0.402 255 255 255
-0.188927 0.048555 0.465 255 255 255
0.176693 0.101782 0.425 255 255 255
-0.0220564 0.0432798 0.491 255 255 255
0.305292 -0.104063 0.704 255 255 255
-0.147992 -0.126463 0.403 255 255 255
0.136347 0.115974 0.4 255 255 255
-0.0342208 0.130179 0.365 255 255 255
0.199643 0.0357501 0.521 255 255 255
0.136083 0.109131 0.411 255 255 255
-0.0288744 -0.0945427 0.693 255 255 255
-0.105292 -0.244677 0.643 255 255 255
-0.145129 -0.122119 0.406 255 255 255
0.158693 0.033334 0.523 255 255 255
-0.213023 0.0134695 0.512 255 255 255
0.143892 0.134999 0.382 255 255 255
-0.15096 -0.158722 0.769 255 255 255
-0.176826 -0.0379239 0.425 255 255 255
0.0261813 0.00726909 0.547 255 255 255
-0.0148975 -0.0508472 0.627 255 255 255
-0.146041 0.0815332 0.424 255 255 255
-0.205288 0.00693687 0.522 255 255 255
0.150552 -0.0203082 0.599 255 255 255
0.0511155 -0.0444399 0.623 255 255 255
-0.180922 0.0842235 0.359 0 0 0
-0.165211 -0.13005 0.394 255 255 255
-0.238589 -0.00415338 0.528 255 255 255
-0.162651 0.0483123 0.47 255 255 255
-0.179284 -0.125851 0.387 255 255 255
0.312959 -0.183129 0.64 255 255 255
-0.0477118 -0.117298 0.722 255 255 255
-0.0943697 0.11849 0.375 255 255 255
0.208114 0.112204 0.42 255 255 255
-0.101914 0.074617 0.436 255 255 255
-0.206591 -0.0157469 0.406 255 255 255
-0.190524 -0.115201 0.383 255 255 255
-0.0563229 0.0939548 0.395 255 255 255
0.197804 -0.282458 0.772 255 255 255
0.303756 -0.202684 0.636 255 255 255
0.162355 -0.0214251 0.603 255 255 255
-0.112154 -0.0135664 0.562 0 0 0
-0.0633376 0.122385 0.372 255 255 255
0.119784 0.00653054 0.56 255 255 255
0.142282 0.0649219 0.474 255 255 255
-0.040146 0.0590568 0.407 255 255 255
0.145536 0.120479 0.402 255 255 255
-0.0573232 -0.201418 0.696 0 0 0
-0.114651 -0.220162 0.667 255 255 255
0.0501096 -0.285746 0.95 255 255 255
0.186184 -0.181186 0.851 255 255 255
0.108833 0.0694429 0.463 255 255 255
0.269062 0.0301906 0.543 255 255 255
-0.147781 -0.149804 0.392 255 255 255
0.058586 0.0142587 0.542 255 255 255
0.0479301 -0.0250559 0.596 255 255 255
0.337898 -0.00993352 0.691 255 255 255
0.0425967 0.0549222 0.481 255 255 255
0.0917498 -0.0810708 0.684 255 255 255
0.192963 0.0364574 0.519 255 255 255
0.278124 0.0121055 0.565 255 255 255
0.0908361 0.0863636 0.438 255 255 255
-0.192236 0.062395 0.379 255 255 255
0.141344 0.0971552 0.429 255 255 255
0.300426 -0.0431519 0.74 255 255 255
-0.154263 -0.051707 0.613 255 255 255
0.274809 -0.256905 0.661 255 255 255
0.159298 0.0885909 0.442 255 255 255
0.172378 0.124774 0.399 255 255 255
0.183349 0.102022 0.426 255 255 255
-0.174831 -0.123639 0.394 255 255 255
0.267475 -0.195714 0.704 255 255 255
0.20146 0.127691 0.4 255 255 255
0.1493 0.026116 0.532 255 255 255
0.0889381 0.127206 0.381 255 255 255
0.185101 -0.147343 0.872 255 255 255
-0.154517 0.0223694 0.506 255 255 255
-0.165783 -0.0946526 0.413 255 255 255
0.0880459 -0.0415978 0.626 255 255 255
-0.0153372 -0.198208 0.748 255 255 255
0.225093 -0.00758521 0.595 0 0 0
-0.173916 -0.0480786 0.605 255 255 255
0.308604 -0.221949 0.629 255 255 255
-0.24031 -0.113479 0.822 255 255 255
0.182499 0.0815708 0.455 255 255 255
-0.102043 0.133754 0.351 255 255 255
-0.0566766 0.12299 0.372 255 255 255
0.140909 0.0887913 0.443 255 255 255
0.167301 0.0798727 0.458 255 255 255
0.0101358 0.0385309 0.502 255 255 255
-0.195217 -0.108733 0.38 255 255 255
0.325969 -0.146906 0.641 255 255 255
0.142395 -0.0724221 0.676 255 255 255
0.0743419 0.119748 0.389 255 255 255
0.135542 0.0268296 0.529 255 255 255
-0.072133 -0.188477 0.686 255 255 255
-0.107251 0.131234 0.355 255 255 255
-0.0916482 0.132967 0.355 255 255 255
-0.173562 0.0398835 0.479 255 255 255
0.102018 -0.0933526 0.701 255 255 255
-0.0269942 0.00632063 0.542 255 255 255
0.0498129 0.0732647 0.454 255 255 255
-0.173367 -0.0534393 0.61 0 0 0
0.105028 -0.0360377 0.618 255 255 255
-0.00940892 0.109014 0.396 255 255 255
0.0367724 0.136767 0.362 255 255 255
0.215855 -0.261841 0.756 255 255 255
-0.102325 0.108986 0.389 255 255 255
0.178836 0.0911444 0.437 255 255 255
0.00189379 0.0497514 0.484 0 0 0
0.290544 -0.205433 0.665 255 255 255
0.1794 0.110837 0.42 255 255 255
-0.0954236 -0.0233182 0.577 255 255 255
0.22502 -0.045796 0.657 255 255 255
0.037247 0.100925 0.413 255 255 255
-0.0670104 -0.0424502 0.609 255 255 255
-0.177641 -0.0645646 0.414 255 255 255
-0.016045 -0.0533096 0.632 255 255 255
0.0588575 -0.127438 0.747 0 0 0
-0.160142 0.035074 0.488 255 255 255
-0.11348 -0.0967982 0.693 255 255 255
0.0946096 0.137041 0.374 255 255 255
-0.151593 -0.0153134 0.559 255 255 255
0.0597435 0.0432594 0.5 0 0 0
0.064231 0.117782 0.393 255 255 255
0.160887 -0.0453672 0.636 255 255 255
0.163831 0.00836807 0.561 255 255 255
0.16122 0.0153363 0.549 255 255 255
0.196084 -0.180211 0.84 255 255 255
-0.0443539 -0.0517021 0.625 255 255 255
-0.0914825 -0.019325 0.57 255 255 255
0.0557723 0.116206 0.392 255 255 255
-0.130518 0.049842 0.47 255 255 255
-0.0845953 0.108353 0.389 255 255 255
0.292045 -0.137056 0.697 255 255 255
0.0431617 0.0725259 0.454 255 255 255
0.280805 0.0129788 0.563 255 255 255
-0.118703 0.0185769 0.515 255 255 255
0.027748 0.108049 0.402 255 255 255
0.0533123 -0.0272675 0.602 0 0 0
0.0816097 -0.179176 0.755 255 255 255
0.297077 -0.230266 0.635 255 255 255
0.188573 0.0293566 0.528 255 255 255
-0.111399 -0.0698243 0.642 255 255 255
0.295607 -0.0563984 0.74 255 255 255
-0.142407 0.130613 0.337 255 255 255
0.179175 0.0417164 0.511 255 255 255
-0.000375635 0.116613 0.387 255 255 255
-0.191119 -0.0147098 0.414 255 255 255
-0.141582 -0.0910052 0.421 255 255 255
0.157251 -0.221894 0.875 255 255 255
0.300413 -0.237303 0.629 255 255 255
0.112218 0.052868 0.491 255 255 255
0.0901154 0.0750716 0.456 255 255 255
0.232872 0.0263615 0.537 255 255 255
-0.164833 0.0988759 0.377 255 255 255
-0.145925 0.12045 0.344 255 255 255
0.154352 0.0135742 0.55 255 255 255
0.145298 0.0891081 0.441 255 255 255
0.146481 0.0308985 0.525 255 255 255
-0.0625815 0.0862486 0.398 255 255 255
-0.0445445 -0.140569 0.709 255 255 255
-0.143679 0.0308681 0.497 255 255 255
-0.055676 -0.244034 0.676 255 255 255
-0.0872169 0.124662 0.368 255 255 255
-0.0214592 0.0653919 0.461 255 255 255
-0.0124384 0.128093 0.371 255 255 255
-0.233535 -0.201059 0.773 255 255 255
0.236167 -0.18428 0.766 255 255 255
0.154076 -0.191193 0.898 255 255 255
0.0964668 -0.111165 0.728 255 255 255
-0.155141 -0.0497755 0.438 255 255 255
-0.0413231 0.109686 0.387 255 255 255
0.0594751 0.126538 0.379 255 255 255
0.273147 -0.226999 0.681 255 255 255
-0.139158 0.045056 0.476 255 255 255
0.0930627 -0.223596 0.72 255 255 255
0.162812 -0.0549967 0.652 255 255 255
0.26277 -0.195895 0.713 255 255 255
0.242063 0.0281616 0.538 255 255 255
0.0638974 0.10963 0.403 255 255 255
-0.014801 -0.0207145 0.583 255 255 255
-0.0503359 0.0403286 0.494 255 255 255
0.21101 -0.239383 0.779 255 255 255
-0.00787365 0.118834 0.384 255 255 255
0.284852 -0.21197 0.672 255 255 255
-0.0617288 -0.0080647 0.561 255 255 255
-0.085473 0.103859 0.396 255 255 255
-0.0645003 0.0602331 0.406 255 255 255
-0.180544 -0.119553 0.387 255 255 255
-0.00832593 0.0148893 0.533 255 255 255
0.22988 -0.19652 0.77 255 255 255
0.157108 0.116872 0.41 255 255 255
0.261789 -0.241927 0.692 255 255 255
0.0405139 -0.0399308 0.616 255 255 255
0.20353 0.0793002 0.459 255 255 255
0.0834349 0.0743295 0.456 255 255 255
0.200122 -0.220453 0.812 255 255 255
-0.145865 -0.121316 0.762 255 255 255
-0.156282 0.0897346 0.411 255 255 255
-0.121708 0.0850669 0.421 255 255 255
0.196912 0.0773951 0.461 255 255 255
0.0864011 0.118758 0.392 255 255 255
0.0349807 0.113881 0.395 255 255 255
0.217776 -0.229621 0.776 255 255 255
0.172129 -0.21832 0.85 255 255 255
-0.0262994 -0.237169 0.715 255 255 255
0.265443 -0.241356 0.684 255 255 255
-0.203624 -0.0297674 0.408 0 0 0
0.259652 -0.203142 0.714 255 255 255
0.0828877 0.103012 0.416 255 255 255
0.174086 -0.098789 0.751 255 255 255
-0.180395 -0.127999 0.384 255 255 255
-0.193451 -0.0776136 0.398 255 255 255
0.0314221 -0.181284 0.791 255 255 255
0.172467 0.0839752 0.452 255 255 255
0.0484542 0.0567942 0.477 255 255 255
0.123535 -0.0351454 0.62 255 255 255
0.29318 -0.135921 0.697 255 255 255
0.166134 0.132016 0.386 255 255 255
-0.161371 -0.0837543 0.419 255 255 255
0.31522 -0.187011 0.632 255 255 255
-0.0759324 -0.0414591 0.609 255 255 255
0.163379 0.10425 0.421 255 255 255
-0.115426 0.134512 0.35 255 255 255
0.0271627 0.101597 0.413 255 255 255
0.11912 -0.0191398 0.593 255 255 255
-0.2047 -0.0442656 0.401 0 0 0
-0.176467 0.0847336 0.416 255 255 255
0.0853137 -0.246132 0.714 0 0 0
0.0265056 0.120708 0.384 255 255 255
-0.187021 -0.0629649 0.408 255 255 255
0.0927638 0.124458 0.384 255 255 255
0.156355 0.0832321 0.448 255 255 255
0.10818 0.121325 0.39 255 255 255
0.307647 -0.0562793 0.723 255 255 255
0.115168 0.0109089 0.551 255 255 255
-0.134862 0.0658706 0.444 255 255 255
-0.194423 -0.0682397 0.4 255 255 255
-0.111584 -0.0355449 0.593 255 255 255
0.120802 0.118681 0.396 255 255 255
-0.144319 -0.0973914 0.419 255 255 255
-0.215181 -0.136051 0.813 255 255 255
-0.031563 0.0773751 0.399 255 255 255
-0.0359595 0.120962 0.377 255 255 255
0.118012 -0.0734134 0.675 255 255 255
-0.00759175 0.0483752 0.486 255 255 255
0.127362 -0.318764 0.856 255 255 255
0.0989019 0.12385 0.386 255 255 255
-0.0129674 0.0532458 0.48 255 255 255
0.0756891 0.12351 0.383 255 255 255
-0.212005 -0.186183 0.801 255 255 255
-0.130415 0.00706976 0.532 255 255 255
0.0745897 0.121022 0.387 255 255 255
-0.199876 -0.271731 0.746 255 255 255
-0.0372707 -0.00994345 0.564 255 255 255
0.185592 0.0510877 0.497 255 255 255
-0.138062 0.130153 0.36 255 255 255
0.132707 0.0276381 0.528 255 255 255
-0.177431 -0.135769 0.383 255 255 255
-0.10754 0.110372 0.385 255 255 255
-0.0352174 -0.124708 0.731 255 255 255
-0.175113 -0.0608147 0.416 255 255 255
0.181377 -0.0826486 0.717 255 255 255
-0.0410185 -0.0195962 0.578 255 255 255
-0.173928 -0.0253549 0.423 255 255 255
0.076496 -0.0858983 0.687 255 255 255
0.103113 -0.0729784 0.671 255 255 255
0.050182 -0.146309 0.763 255 255 255
0.0872173 -0.13924 0.772 255 255 255
-0.0289746 0.118215 0.382 255 255 255
0.237705 0.00575972 0.574 0 0 0
-0.0652741 0.135091 0.353 255 255 255
-0.061552 0.0665108 0.404 255 255 255
-0.147759 -0.0528765 0.615 255 255 255
0.137408 0.11138 0.407 255 255 255
-0.155507 0.108493 0.368 255 255 255
0.0221007 0.0545797 0.478 255 255 255
0.222267 -0.182802 0.792 255 255 255
0.0463716 0.090174 0.429 255 255 255
-0.0524358 0.101651 0.39 255 255 255
0.0488178 0.0601666 0.473 255 255 255
-0.164363 -0.0614769 0.621 255 255 255
-0.158607 0.104052 0.351 255 255 255
-0.0914968 0.135651 0.35 255 255 255
-0.131156 -0.183094 0.722 255 255 255
0.100582 -0.00448377 0.57 255 255 255
0.164259 0.129877 0.389 255 255 255
-0.163776 0.0904075 0.408 255 255 255
-0.127542 -0.130207 0.742 255 255 255
-0.170119 0.114498 0.327 255 255 255
0.128941 -0.252078 0.886 0 0 0
-0.0874579 -0.0843979 0.675 255 255 255
0.250694 0.0322971 0.534 0 0 0
0.202469 0.0611549 0.487 255 255 255
-0.0582002 0.116972 0.382 255 255 255
0.183881 0.0332703 0.522 255 255 255
-0.0687218 0.135091 0.353 0 0 0
-0.0335048 0.120962 0.377 255 255 255
-0.203458 -0.0205223 0.409 255 255 255
0.272919 -0.226433 0.686 255 255 255
-0.22188 -0.174016 0.799 255 255 255
0.0263633 -0.023884 0.591 255 255 255
-0.0293919 0.0825931 0.396 255 255 255
-0.113231 -0.0869797 0.678 255 255 255
0.0527932 0.0982998 0.419 255 255 255
-0.0406186 -0.20971 0.701 255 255 255
-0.163882 0.0925283 0.355 255 255 255
-0.138309 -0.0775561 0.43 255 255 255
-0.151223 -0.140377 0.396 255 255 255
-0.14983 -0.0614686 0.435 255 255 255
0.0415426 0.0508523 0.487 255 255 255
-0.0151732 -0.126243 0.74 0 0 0
0.0351388 -0.10495 0.71 255 255 255
-0.206816 -0.00422418 0.537 0 0 0
-0.13981 -0.136638 0.404 255 255 255
-0.0746215 0.117281 0.377 255 255 255
-0.0603775 0.111232 0.388 255 255 255
0.243496 -0.00855347 0.595 255 255 255
0.014921 -0.126073 0.739 255 255 255
0.0664002 0.121022 0.387 255 255 255
-0.0354831 0.0351228 0.5 255 255 255
-0.116359 -0.120145 0.725 255 255 255
0.127861 0.0931287 0.433 255 255 255
-0.103949 -0.0813486 0.668 255 255 255
0.0247361 0.0149452 0.535 255 255 255
0.306046 -0.0291781 0.722 255 255 255
0.0585021 -0.030357 0.605 0 0 0
0.187564 -0.0184506 0.602 255 255 255
0.0020611 0.127833 0.372 255 255 255
0.261555 -0.12024 0.771 255 255 255
-0.0399993 -0.000747676 0.551 255 255 255
-0.040554 0.0726474 0.398 255 255 255
0.191882 -0.223168 0.822 255 255 255
-0.0224023 0.0621758 0.465 255 255 255
-0.0894863 0.1191 0.375 0 0 0
-0.176191 -0.0884234 0.406 255 255 255
0.0912245 -0.0905514 0.697 255 255 255
0.16146 0.140352 0.378 255 255 255
-0.0689786 -0.0671056 0.646 255 255 255
0.129831 0.142362 0.372 0 0 0
0.277431 -0.142365 0.724 255 255 255
0.279027 -0.155939 0.716 255 255 255
-0.0913433 -0.23498 0.648 255 255 255
0.241237 -0.247511 0.718 255 255 255
0.0349485 -0.0110538 0.574 255 255 255
-0.042864 0.123928 0.373 255 255 255
-0.0354371 -0.257696 0.689 0 0 0
-0.0058491 0.0919432 0.418 255 255 255
0.0651917 0.083024 0.443 0 0 0
0.117093 0.0549274 0.488 255 255 255
0.322467 -0.0407611 0.699 255 255 255
0.106716 -0.0483197 0.634 255 255 255
0.307083 -0.121082 0.69 255 255 255
0.192859 0.0221149 0.54 255 255 255
0.155288 0.033334 0.523 255 255 255
-0.0888984 0.090608 0.415 255 255 255
-0.177822 0.0847336 0.416 255 255 255
-0.0919239 -0.0164552 0.567 255 255 255
0.100704 -0.234005 0.716 255 255 255
-0.242575 -0.208259 0.758 255 255 255
-0.15559 -0.148003 0.394 255 255 255
-0.100213 0.127694 0.363 255 255 255
-0.102669 0.0154611 0.523 255 255 255
0.276281 -0.144121 0.721 255 255 255
-0.0990087 -0.0232778 0.576 255 255 255
0.0691624 0.0982998 0.419 255 255 255
-0.219734 -0.00957321 0.543 255 255 255
0.238634 -0.167311 0.774 255 255 255
-0.163997 0.0934198 0.354 255 255 255
0.140854 0.0348352 0.52 255 255 255
-0.0392038 0.0582243 0.476 255 255 255
0.0493105 -0.0282002 0.601 0 0 0
0.241667 -0.131867 0.788 255 255 255
0.328543 -0.137114 0.644 255 255 255
-0.162643 -0.0736453 0.63 255 255 255
-0.176346 0.0763784 0.378 255 255 255
-0.180931 -0.287067 0.748 255 255 255
0.263678 -0.134409 0.752 255 255 255
-0.185268 -0.0592704 0.41 255 255 255
0.216062 -0.280689 0.744 255 255 255
0.029373 0.138752 0.358 255 255 255
0.0353809 0.104757 0.407 255 255 255
0.0972129 0.0477563 0.496 255 255 255
-0.0674795 -0.226523 0.673 255 255 255
-0.103969 -0.103063 0.705 255 255 255
-0.170218 0.0889598 0.374 255 255 255
-0.130953 -0.0529625 0.616 0 0 0
0.00278199 -0.105098 0.711 255 255 255
0.0378017 -0.260149 0.675 255 255 255
-0.106574 0.135264 0.349 255 255 255
0.0591076 -0.154363 0.766 255 255 255
-0.176506 -0.0227524 0.563 255 255 255
0.147568 -0.0573815 0.655 255 255 255
-0.171167 0.05652 0.456 255 255 255
-0.203788 -0.0343307 0.407 255 255 255
-0.0673809 0.107913 0.392 255 255 255
0.140785 0.106816 0.415 255 255 255
0.130983 0.0219102 0.535 255 255 255
0.0339163 -0.058423 0.643 255 255 255
-0.177221 -0.12807 0.388 255 255 255
-0.0468009 0.0298979 0.508 255 255 255
-0.033938 0.10962 0.389 255 255 255
0.0986307 0.0512699 0.491 255 255 255
0.0736912 -0.104379 0.714 255 255 255
0.0367059 0.104757 0.407 255 255 255
-0.172442 -0.218552 0.805 255 255 255
0.184211 -0.263419 0.806 255 255 255
-0.0882655 0.1191 0.375 255 255 255
-0.201573 0.0465835 0.468 255 255 255
-0.203677 -0.215403 0.784 0 0 0
0.175567 -0.137725 0.874 255 255 255
-0.0167727 0.0676509 0.456 255 255 255
-0.193123 0.054883 0.396 255 255 255
-0.162859 -0.239744 0.772 255 255 255
-0.0906673 0.136399 0.349 255 255 255
0.204841 -0.196068 0.815 255 255 255
0.158897 0.142967 0.372 255 255 255
-0.103231 -0.13195 0.7 255 255 255
0.103014 -0.119179 0.741 0 0 0
-0.191329 -0.0415577 0.413 255 255 255
0.132104 -0.189476 0.918 255 255 255
-0.173084 -0.203588 0.808 255 255 255
-0.0100676 0.0432798 0.491 255 255 255
0.0686319 -0.192984 0.761 255 255 255
-0.156449 0.105521 0.366 255 255 255
-0.195623 -0.102467 0.382 255 255 255
0.209309 0.00388477 0.573 255 255 255
-0.160168 0.109339 0.334 255 255 255
0.0377892 0.0794195 0.443 255 255 255
0.103184 -0.00354995 0.569 255 255 255
-0.14675 0.0463115 0.473 255 255 255
0.152132 -0.0142423 0.59 255 255 255
0.0946344 0.0504709 0.491 255 255 255
0.134204 -0.109829 0.727 255 255 255
-0.178869 0.0767532 0.368 255 255 255
0.325448 -0.0935855 0.67 255 255 255
-0.169056 -0.0599795 0.616 255 255 255
0.0810247 -0.264429 0.707 0 0 0
-0.101747 0.130013 0.358 0 0 0
0.240923 -0.114782 0.794 255 255 255
0.273853 -0.232199 0.68 255 255 255
0.0470246 0.0200181 0.531 255 255 255
0.196251 0.125738 0.4 255 255 255
-0.224017 0.0189626 0.503 255 255 255
0.0070779 -0.084898 0.679 255 255 255
0.0940244 0.114672 0.4 255 255 255
0.0486389 0.0410633 0.503 255 255 255
-0.197533 -0.239123 0.77 255 255 255
-0.113274 0.0390446 0.488 255 255 255
-0.185438 -0.142925 0.374 255 255 255
-0.149748 0.00534831 0.533 255 255 255
0.197232 0.122442 0.402 255 255 255
-0.176811 -0.211216 0.807 255 255 255
-0.135981 0.0395122 0.484 255 255 255
-0.0455307 0.126543 0.37 255 255 255
0.271274 -0.175256 0.714 255 255 255
-0.141109 -0.0775561 0.43 255 255 255
0.0347723 0.110767 0.4 255 255 255
0.00626603 0.129554 0.37 255 255 255
-0.052386 0.00717607 0.54 255 255 255
0.299109 -0.0661461 0.728 255 255 255
0.190996 -0.256265 0.796 255 255 255
-0.181533 0.067408 0.376 255 255 255
0.16323 0.142289 0.375 255 255 255
0.027534 -0.150918 0.755 255 255 255
0.194423 -0.017471 0.602 255 255 255
-0.097582 0.0394447 0.493 0 0 0
-0.20882 0.0236365 0.498 255 255 255
-0.0760569 0.12032 0.375 0 0 0
0.0491508 -0.26097 0.68 255 255 255
-0.0427719 0.127906 0.367 255 255 255
-0.210697 -0.0229579 0.405 255 255 255
-0.0510957 -0.119316 0.72 255 255 255
0.173158 -0.0820722 0.712 255 255 255
0.0568268 0.0410633 0.503 255 255 255
-0.121955 0.106454 0.389 255 255 255
-0.153844 -0.0115702 0.554 255 255 255
-0.0865667 -0.0284985 0.587 0 0 0
-0.0550007 0.130515 0.361 255 255 255
0.00493834 0.135215 0.361 255 255 255
-0.19934 -0.278267 0.744 255 255 255
0.229101 -0.010631 0.603 255 255 255
0.0844973 0.0329516 0.517 255 255 255
0.324771 -0.0673177 0.68 255 255 255
0.184639 0.00383731 0.566 255 255 255
0.28063 -0.215113 0.675 255 255 255
0.122841 0.103689 0.416 255 255 255
0.0509727 0.131112 0.371 255 255 255
-0.0431685 0.0567942 0.477 255 255 255
0.308482 -0.148936 0.664 255 255 255
-0.0703455 -0.227354 0.669 255 255 255
0.14584 -0.287482 0.85 255 255 255
-0.119886 -0.0851164 0.672 255 255 255
-0.162576 -0.0388162 0.435 0 0 0
0.176136 -0.146494 0.884 255 255 255
0.0659363 -0.0335859 0.61 255 255 255
-0.176163 0.101977 0.344 255 255 255
0.167668 0.0856099 0.449 255 255 255
-0.0365148 0.0328779 0.503 255 255 255
-0.233281 0.00606408 0.52 255 255 255
-0.0785891 -0.234679 0.656 255 255 255
-0.0475136 -0.1133 0.719 255 255 255
0.0844845 -0.156422 0.77 255 255 255
0.135358 0.136406 0.379 255 255 255
0.159038 -0.14248 0.877 0 0 0
0.0431358 -0.253092 0.967 255 255 255
0.108195 -0.00449163 0.571 255 255 255
0.125463 -0.0958413 0.711 255 255 255
-0.0875071 -0.195197 0.667 255 255 255
0.112871 0.140994 0.37 255 255 255
-0.179411 -0.272043 0.757 255 255 255
-0.0614818 0.112205 0.387 255 255 255
-0.167007 -0.0152783 0.43 255 255 255
0.147246 0.104867 0.418 255 255 255
0.216458 -0.0265694 0.632 255 255 255
-0.225377 -0.238954 0.746 255 255 255
0.259296 -0.0779104 0.787 255 255 255
-0.175434 -0.0115076 0.551 255 255 255
0.121645 -0.190767 0.896 255 255 255
0.197466 0.0204705 0.543 255 255 255
0.269439 0.00584 0.582 255 255 255
0.185275 0.14008 0.384 255 255 255
0.299561 -0.0581711 0.732 255 255 255
-0.134318 -0.0435241 0.447 255 255 255
-0.00933578 -0.195149 0.755 255 255 255
-0.0402704 -0.262735 0.676 255 255 255
0.0682842 0.0454262 0.497 255 255 255
0.316723 -0.114301 0.67 255 255 255
-0.111796 -0.19233 0.676 255 255 255
0.00289603 0.1053 0.404 0 0 0
-0.14916 -0.0832689 0.427 255 255 255
0.00239854 -0.0407339 0.613 255 255 255
-0.122052 0.0800254 0.427 255 255 255
-0.096849 0.13239 0.355 255 255 255
-0.151271 0.0604375 0.452 255 255 255
-0.186609 -0.0806073 0.4 255 255 255
0.118143 -0.0519015 0.64 255 255 255
0.0277474 -0.241137 0.671 255 255 255
-0.141929 -0.0948899 0.42 255 255 255
0.119272 0.0983242 0.425 255 255 255
0.237049 -0.0188797 0.616 255 255 255
0.309436 -0.0833228 0.703 255 255 255
0.253379 -0.197104 0.726 255 255 255
-0.198202 -0.0105339 0.547 255 255 255
-0.159139 0.103645 0.381 255 255 255
0.0552722 -0.0282471 0.602 0 0 0
-0.198483 0.0520522 0.399 0 0 0
0.177386 0.12209 0.403 255 255 255
0.0884139 0.0971731 0.423 255 255 255
0.194699 -0.137997 0.858 0 0 0
-0.13243 -0.0436215 0.448 255 255 255
-0.15748 -0.0504613 0.61 255 255 255
-0.189882 -0.125999 0.378 255 255 255
-0.0794409 0.0885819 0.415 255 255 255
-0.157157 0.0604375 0.452 255 255 255
-0.0413427 -0.222297 0.694 0 0 0
-0.0661987 0.132926 0.358 255 255 255
0.080432 0.108731 0.407 255 255 255
0.315295 -0.200247 0.622 255 255 255
0.174793 -0.28485 0.811 255 255 255
-0.244568 0.0134169 0.51 255 255 255
0.250305 0.00301929 0.586 255 255 255
-0.204209 0.0547444 0.395 255 255 255
-0.148355 0.00953978 0.525 255 255 255
-0.103059 -0.0283043 0.583 255 255 255
0.0543441 -0.000762602 0.562 255 255 255
-0.0166633 0.0556656 0.474 255 255 255
-0.0500998 -0.25246 0.675 255 255 255
0.0314768 0.130405 0.369 255 255 255
0.144752 0.14153 0.373 255 255 255
-0.0231196 0.0864653 0.399 255 255 255
-0.146149 -0.117121 0.407 255 255 255
-0.20798 -0.275275 0.736 255 255 255
-0.241963 -0.127371 0.784 255 255 255
0.0857016 -0.00921767 0.576 255 255 255
0.0758778 0.0917837 0.43 255 255 255
0.059104 0.0509567 0.488 255 255 255
0.0180197 0.0578574 0.473 255 255 255
0.142245 0.0332703 0.522 255 255 255
0.219858 0.0287672 0.533 255 255 255
-0.134733 -0.0701838 0.432 255 255 255
0.0724176 -0.152393 0.775 255 255 255
0.0914747 -0.211282 0.726 255 255 255
-0.0722921 -0.244659 0.657 255 255 255
0.0637221 0.0482697 0.493 255 255 255
0.0907986 0.142448 0.366 255 255 255
-0.00200599 -0.171904 0.772 255 255 255
-0.151281 0.118361 0.358 255 255 255
0.0405918 -0.086763 0.685 255 255 255
-0.0100258 0.0694174 0.453 255 255 255
-0.172792 -0.0415767 0.427 0 0 0
-0.10253 -0.0453487 0.608 255 255 255
0.175381 -0.0422623 0.636 255 255 255
0.315816 -0.167492 0.648 255 255 255
0.337261 -0.00544345 0.692 255 255 255
-0.209657 -0.00251429 0.403 255 255 255
-0.110532 -0.200833 0.675 255 255 255
-0.148534 0.120354 0.357 255 255 255
-0.223952 0.00941258 0.518 255 255 255
-0.177897 -0.147691 0.38 255 255 255
-0.194216 -0.00159957 0.536 255 255 255
0.23446 -0.136748 0.794 255 255 255
-0.227843 0.0340691 0.485 255 255 255
-0.13788 -0.111725 0.414 255 255 255
0.18326 0.0947563 0.434 255 255 255
0.0519538 0.00376951 0.556 255 255 255
-0.192177 0.0440023 0.473 255 255 255
0.338929 -0.0298686 0.684 255 255 255
-0.157982 -0.0254247 0.436 255 255 255
-0.153802 -0.141666 0.396 255 255 255
-0.110696 -0.19343 0.676 255 255 255
-0.167689 0.017601 0.511 255 255 255
0.0699019 0.0893986 0.432 255 255 255
-0.164459 0.0455418 0.473 255 255 255
0.0161417 0.049957 0.486 255 255 255
0.0818259 0.0125408 0.544 255 255 255
0.0928804 0.0756473 0.455 255 255 255
-0.0906277 -0.00163538 0.548 255 255 255
0.0126414 -0.245839 0.681 0 0 0
-0.17278 0.113966 0.327 255 255 255
-0.117438 0.0865014 0.418 255 255 255
-0.16996 -0.0702847 0.42 0 0 0
0.0343537 -0.292538 0.942 255 255 255
-0.187822 0.0634207 0.393 255 255 255
0.276921 -0.124879 0.732 255 255 255
-0.184071 -0.0341414 0.421 255 255 255
0.19437 0.0964286 0.432 255 255 255
-0.179216 -0.216201 0.806 255 255 255
0.216955 0.10668 0.428 255 255 255
0.333089 -0.0957539 0.655 255 255 255
-0.142639 0.11203 0.38 0 0 0
-0.185304 0.0737716 0.427 255 255 255
0.0431272 0.0792315 0.446 255 255 255
-0.0574055 -0.152935 0.697 255 255 255
0.0624479 0.0817664 0.444 255 255 255
0.138771 -0.1076 0.72 255 255 255
0.321792 -0.0307856 0.705 255 255 255
-0.0635562 0.0980592 0.396 0 0 0
0.12985 0.033989 0.52 255 255 255
0.275464 -0.219094 0.684 255 255 255
-0.147124 0.122569 0.355 255 255 255
0.158506 0.13024 0.392 255 255 255
0.143708 0.0584153 0.484 255 255 255
-0.0198834 -0.266891 0.736 255 255 255
-0.0295814 0.109267 0.39 255 255 255
0.297077 -0.2313 0.635 255 255 255
0.143813 0.0169672 0.544 255 255 255
0.269439 -0.109788 0.751 255 255 255
0.28251 -0.0742475 0.75 255 255 255
-0.194219 0.0570253 0.393 255 255 255
0.21037 -0.253563 0.772 255 255 255
-0.0330076 0.0890023 0.393 255 255 255
-0.184465 -0.0840717 0.401 255 255 255
0.0246945 0.119143 0.385 255 255 255
-0.105243 0.128848 0.358 255 255 255
-0.158553 0.0342798 0.488 255 255 255
-0.186505 -0.117682 0.385 255 255 255
-0.179892 -0.246982 0.775 255 255 255
-0.202326 0.0566342 0.451 255 255 255
-0.163533 -0.149674 0.39 255 255 255
-0.0536458 0.0838681 0.399 255 255 255
0.153459 -0.0409032 0.631 255 255 255
0.325568 -0.058809 0.684 255 255 255
-0.147538 -0.0409719 0.443 255 255 255
-0.175519 0.0168023 0.512 255 255 255
-0.119873 0.086973 0.417 255 255 255
-0.175663 0.0175666 0.51 255 255 255
0.0501861 0.027167 0.519 255 255 255
0.138158 0.0446901 0.507 255 255 255
-0.191267 -0.00783469 0.545 0 0 0
0.190034 0.123096 0.402 255 255 255
-0.249399 0.0205997 0.503 255 255 255
0.298423 -0.0940534 0.715 255 255 255
0.098236 -0.0415978 0.626 255 255 255
0.291056 -0.0534991 0.75 255 255 255
0.11485 0.0994728 0.424 255 255 255
-0.211327 0.0382445 0.478 0 0 0
0.2444 -0.0184506 0.602 255 255 255
0.179742 0.131181 0.391 255 255 255
0.000356845 0.00809958 0.543 255 255 255
0.138723 0.0293566 0.528 255 255 255
-0.145732 0.112649 0.38 255 255 255
0.294301 -0.147816 0.689 255 255 255
0.233158 0.0741589 0.469 255 255 255
0.0379598 -0.160805 0.767 255 255 255
0.315547 -0.0866363 0.684 255 255 255
-0.0448586 -0.107865 0.714 255 255 255
0.0179746 -0.0320589 0.6 0 0 0
-0.199622 0.0480039 0.467 255 255 255
-0.162774 -0.0884253 0.664 255 255 255
0.309195 -0.0682641 0.713 255 255 255
0.108969 0.143434 0.367 255 255 255
0.208715 0.0197312 0.547 255 255 255
-0.122351 0.119641 0.371 255 255 255
-0.220102 -0.173364 0.802 255 255 255
0.0645973 -0.16311 0.772 255 255 255
-0.0721919 -0.0224568 0.579 255 255 255
0.173793 0.116872 0.41 255 255 255
0.267847 -0.156612 0.73 255 255 255
-0.116087 -0.0242572 0.577 255 255 255
-0.179748 -0.117336 0.388 255 255 255
0.0199945 0.105957 0.404 255 255 255
-0.0929517 0.0912833 0.415 255 255 255
-0.107138 0.0834059 0.423 255 255 255
0.200621 0.137257 0.392 255 255 255
-0.196867 0.0516606 0.401 255 255 255
0.270409 -0.220212 0.691 255 255 255
-0.0784693 -0.238585 0.655 0 0 0
-0.179505 -0.113732 0.393 255 255 255
0.282789 -0.0697355 0.754 255 255 255
-0.00545463 0.032378 0.508 255 255 255
0.146583 0.104002 0.42 255 255 255
0.0611055 -0.260316 0.69 255 255 255
0.0474479 -0.136896 0.759 0 0 0
-0.143315 0.120797 0.369 255 255 255
0.0631059 0.120056 0.39 255 255 255
-0.0571529 0.0465901 0.42 255 255 255
0.168769 -0.217958 0.854 255 255 255
0.0213625 0.10556 0.405 255 255 255
0.162816 -0.199269 0.882 255 255 255
0.222968 0.0593808 0.492 255 255 255
-0.10878 0.0952499 0.406 255 255 255
0.224675 0.0351032 0.524 255 255 255
-0.180336 -0.0605223 0.414 255 255 255
-0.0565878 0.0188294 0.522 255 255 255
-0.153365 -0.0539287 0.437 0 0 0
-0.0449154 0.129585 0.365 255 255 255
-0.161772 -0.13488 0.395 255 255 255
-0.178655 -0.0264641 0.564 255 255 255
-0.138276 -0.0904494 0.671 255 255 255
0.0369748 -0.0828099 0.68 255 255 255
-0.113308 0.00795041 0.533 255 255 255
-0.0630784 -0.0973569 0.697 255 255 255
0.109373 0.120672 0.392 255 255 255
0.229131 -0.0845282 0.789 255 255 255
0.150685 -0.0396867 0.628 255 255 255
0.0752874 0.083745 0.443 255 255 255
0.204324 0.118494 0.411 255 255 255
0.0635406 -0.0805967 0.68 255 255 255
0.128045 -0.10043 0.719 255 255 255
-0.1965 0.0477973 0.407 255 255 255
0.142622 0.139367 0.377 255 255 255
-0.105537 0.128624 0.359 255 255 255
-0.16589 -0.200212 0.805 255 255 255
0.124682 0.120646 0.394 255 255 255
-0.0357971 -0.228601 0.696 255 255 255
0.0859612 0.0799573 0.446 255 255 255
-0.215589 0.0423731 0.472 255 255 255
0.319236 -0.0861296 0.68 255 255 255
-0.117438 0.0858212 0.418 255 255 255
0.193738 0.0221149 0.54 255 255 255
0.0989925 -0.0360377 0.618 255 255 255
-0.00946953 0.00104185 0.549 255 255 255
-0.238409 0.0181801 0.504 255 255 255
-0.13918 -0.00340646 0.546 255 255 255
-0.149634 0.0216737 0.509 255 255 255
-0.260344 0.0230095 0.502 255 255 255
-0.108539 -0.0507922 0.614 255 255 255
0.179336 0.139351 0.382 0 0 0
-0.0500013 0.0567226 0.483 255 255 255
0.180239 0.117157 0.411 255 255 255
0.133105 0.142583 0.371 255 255 255
0.197088 -0.202992 0.827 255 255 255
0.184993 -0.293069 0.787 255 255 255
-0.161268 0.124545 0.32 255 255 255
0.269853 -0.155211 0.729 255 255 255
-0.197567 0.0432326 0.473 255 255 255
0.0359368 0.0835125 0.438 255 255 255
-0.147841 0.125819 0.326 255 255 255
0.0198468 0.133149 0.365 255 255 255
0.275515 -0.161272 0.719 255 255 255
0.00850927 0.116248 0.39 255 255 255
0.140056 0.101303 0.423 255 255 255
0.214878 -0.119263 0.844 255 255 255
0.172963 0.00836807 0.561 255 255 255
-0.177639 -0.0170542 0.422 255 255 255
-0.157244 0.103844 0.375 255 255 255
-0.210097 0.0205997 0.503 255 255 255
-0.193029 0.0252066 0.497 255 255 255
-0.117723 0.123389 0.366 255 255 255
-0.0568839 0.0396047 0.495 255 255 255
0.0831054 -0.104525 0.715 0 0 0
0.0885993 0.108998 0.408 255 255 255
0.143389 0.055265 0.491 255 255 255
-0.154949 -0.148644 0.394 0 0 0
-0.115705 0.0331605 0.495 255 255 255
-0.111995 0.0871816 0.418 255 255 255
0.0141455 0.10516 0.406 255 255 255
0.171801 -0.0669901 0.688 255 255 255
-0.130197 0.113901 0.378 255 255 255
-0.158035 0.0541389 0.461 255 255 255
0.256202 -0.174648 0.741 255 255 255
0.0848242 0.0305453 0.519 255 255 255
0.186247 -0.195035 0.845 255 255 255
-0.0927543 0.0480321 0.433 255 255 255
0.022177 0.112237 0.396 255 255 255
-0.0230616 0.0907824 0.398 255 255 255
0.0307884 0.10984 0.399 255 255 255
0.095777 -0.192736 0.741 255 255 255
-0.178848 0.0828144 0.42 255 255 255
0.148587 0.0906402 0.438 255 255 255
-0.182499 0.0665363 0.378 255 255 255
-0.012971 -0.193149 0.752 255 255 255
-0.0497146 0.0592789 0.404 255 255 255
0.222387 0.046523 0.509 255 255 255
0.310745 -0.228018 0.615 255 255 255
-0.199556 -0.0853239 0.386 255 255 255
-0.127097 0.0890422 0.414 255 255 255
0.125253 0.00653054 0.56 255 255 255
0.272757 -0.190365 0.697 255 255 255
-0.0643163 -0.0902387 0.686 0 0 0
-0.180577 0.0506066 0.463 255 255 255
0.220703 0.103938 0.434 255 255 255
-0.20161 -0.134061 0.817 255 255 255
-0.058409 -0.0565735 0.634 255 255 255
-0.142861 0.0610377 0.451 255 255 255
-0.165102 -0.28585 0.748 255 255 255
0.141086 -0.072315 0.675 255 255 255
-0.0263488 0.138167 0.355 255 255 255
0.227523 0.042881 0.515 255 255 255
-0.153716 -0.0519138 0.438 255 255 255
-0.0783748 -0.00618323 0.556 255 255 255
0.184153 0.128023 0.395 255 255 255
-0.190737 -0.160455 0.816 255 255 255
0.265194 -0.216554 0.701 255 255 255
-0.0703637 0.0297214 0.505 255 255 255
-0.0305363 -0.071347 0.656 255 255 255
-0.143153 0.0414425 0.479 255 255 255
0.273667 0.0113444 0.573 255 255 255
-0.107098 0.0756872 0.434 255 255 255
0.0149792 0.0727805 0.451 255 255 255
-0.0437906 -0.21305 0.697 0 0 0
-0.172563 0.0446774 0.472 255 255 255
-0.191329 -0.0140022 0.413 255 255 255
0.297442 -0.228239 0.638 255 255 255
0.0510035 -0.300454 0.938 255 255 255
-0.156576 -0.131703 0.772 255 255 255
-0.00652886 0.0181866 0.528 255 255 255
-0.00500952 0.136421 0.358 255 255 255
0.0244153 0.107781 0.401 255 255 255
-0.17105 -0.075708 0.416 255 255 255
-0.177515 -0.289888 0.749 255 255 255
-0.218367 -0.0104761 0.544 255 255 255
0.28207 -0.156722 0.709 255 255 255
-0.223132 0.0060874 0.522 255 255 255
0.130289 0.103689 0.416 255 255 255
-0.221252 -0.142315 0.811 255 255 255
-0.163974 0.110426 0.334 255 255 255
-0.0334275 0.0778288 0.398 255 255 255
0.324134 -0.134573 0.652 255 255 255
0.0121761 0.0706192 0.456 255 255 255
-0.116089 0.0840943 0.423 255 255 255
-0.0505894 -0.00712627 0.559 255 255 255
0.22239 -0.117426 0.831 255 255 255
-0.13192 0.0753384 0.432 255 255 255
-0.152547 -0.0903201 0.421 255 255 255
-0.165064 0.0238738 0.503 255 255 255
0.284086 -0.184012 0.686 255 255 255
0.294369 -0.0862859 0.728 255 255 255
-0.176252 0.10361 0.342 255 255 255
-0.179228 -0.155705 0.812 255 255 255
0.131124 -0.222622 0.901 255 255 255
-0.173312 -0.0873166 0.407 255 255 255
0.00173336 0.0772568 0.443 255 255 255
-0.16077 -0.0827839 0.421 255 255 255
0.10431 0.113283 0.402 0 0 0
-0.173312 -0.0886412 0.407 255 255 255
-0.101591 -0.186277 0.674 255 255 255
0.323398 -0.0135958 0.706 255 255 255
-0.225573 0.021333 0.501 255 255 255
0.186202 0.0815708 0.455 255 255 255
-0.197237 -0.252179 0.764 255 255 255
0.00608616 0.035474 0.505 255 255 255
-0.0970948 0.0202924 0.516 255 255 255
0.0139496 0.0937501 0.42 255 255 255
-0.13622 -0.0344632 0.591 255 255 255
-0.205323 -0.0635228 0.391 255 255 255
-0.0728211 0.110315 0.387 255 255 255
-0.0635491 -0.00255022 0.553 255 255 255
-0.163986 -0.0675041 0.424 255 255 255
0.25938 -0.125421 0.772 255 255 255
-0.220899 0.0259631 0.496 0 0 0
-0.0390256 0.117278 0.383 255 255 255
-0.133233 -0.0580106 0.441 255 255 255
0.0918907 -0.231797 0.72 255 255 255
0.165178 -0.0183587 0.599 255 255 255
-0.123508 0.125575 0.362 255 255 255
0.079986 -0.220459 0.729 255 255 255
-0.0135312 0.0735899 0.447 255 255 255
-0.0281623 -0.0372487 0.605 255 255 255
-0.138258 0.0682962 0.441 255 255 255
0.131174 0.0952824 0.43 255 255 255
0.0382808 -0.0597468 0.646 255 255 255
0.0730917 0.0937029 0.426 255 255 255
-0.044037 0.0545797 0.478 255 255 255
-0.202626 -0.00649718 0.406 255 255 255
0.0631465 0.00732225 0.551 255 255 255
-0.238275 -0.198509 0.768 255 255 255
-0.0515129 0.0139694 0.531 255 255 255
-0.140226 0.0904035 0.411 255 255 255
-0.161464 0.0994824 0.351 255 255 255
-0.162803 -0.0171634 0.56 255 255 255
0.191396 0.0756335 0.464 255 255 255
-0.191813 0.0634161 0.442 255 255 255
-0.164278 -0.0892474 0.416 255 255 255
0.0673363 0.102692 0.412 255 255 255
-0.155195 -0.151465 0.393 0 0 0
-0.0697884 -0.0527192 0.625 255 255 255
0.20375 -0.0649391 0.69 0 0 0
-0.10441 0.0954845 0.407 255 255 255
-0.0504969 0.0567894 0.405 255 255 255
0.0213471 0.0770542 0.446 255 255 255
-0.164936 -0.0895058 0.664 255 255 255
0.173647 0.0615658 0.484 255 255 255
-0.159639 0.106082 0.341 255 255 255
0.296392 -0.0398064 0.745 255 255 255
-0.190884 -0.0105724 0.549 255 255 255
-0.179322 0.0756786 0.426 255 255 255
0.201659 0.12209 0.403 255 255 255
-0.191107 0.0691123 0.372 255 255 255
0.0838357 -0.0425484 0.625 255 255 255
0.0471174 0.138941 0.36 255 255 255
-0.00947298 0.0640301 0.462 255 255 255
0.302393 -0.128381 0.687 255 255 255
0.157727 0.0482377 0.501 255 255 255
0.151764 -0.21338 0.893 255 255 255
-0.17702 -0.161387 0.814 255 255 255
-0.194971 0.0221925 0.502 255 255 255
0.103876 -0.00830908 0.578 255 255 255
-0.203369 0.0324906 0.485 255 255 255
-0.0632391 -0.257682 0.663 255 255 255
-0.174402 -0.0848753 0.408 255 255 255
0.219411 -0.198018 0.791 255 255 255
0.0713024 -0.127949 0.75 255 255 255
-0.00687104 0.1316 0.364 255 255 255
-0.190976 -0.0980146 0.389 255 255 255
-0.037469 -0.010919 0.567 255 255 255
-0.111363 0.00880123 0.532 255 255 255
-0.198337 0.0432326 0.473 255 255 255
0.164219 0.135352 0.383 255 255 255
0.13799 0.0177868 0.542 255 255 255
0.231293 0.0666634 0.481 255 255 255
0.0963507 0.0638799 0.472 255 255 255
0.0236682 0.130405 0.369 255 255 255
0.0329475 0.00105513 0.556 255 255 255
0.0458786 0.0695899 0.459 255 255 255
-0.185261 0.0412695 0.477 255 255 255
0.259314 -0.149918 0.75 255 255 255
0.158362 -0.265909 0.843 255 255 255
-0.184321 0.0127844 0.518 255 255 255
-0.177211 -0.0704574 0.413 255 255 255
0.209241 -0.11997 0.849 255 255 255
-0.194599 -0.113062 0.38 255 255 255
-0.0961368 -0.0368793 0.599 255 255 255
-0.210115 0.0393797 0.409 255 255 255
0.133079 -0.292893 0.866 255 255 255
-0.186428 -0.12824 0.381 255 255 255
-0.0296572 0.101911 0.391 255 255 255
0.304291 -0.0918505 0.707 255 255 255
-0.146165 0.125673 0.327 255 255 255
0.0320686 -0.241868 0.67 255 255 255
-0.172819 -0.0670683 0.417 255 255 255
0.308286 -0.0629883 0.719 255 255 255
0.193338 -0.160602 0.852 255 255 255
0.0358916 0.034858 0.508 255 255 255
-0.148897 -0.0755156 0.646 255 255 255
-0.0305602 0.0268529 0.513 255 255 255
-0.0633405 0.00973966 0.536 255 255 255
0.125831 0.0541332 0.488 255 255 255
-0.0682693 -0.233145 0.67 255 255 255
0.175572 -0.176127 0.867 255 255 255
-0.169317 -0.0464408 0.427 255 255 255
-0.024578 0.0173274 0.528 0 0 0
-0.168708 -0.0644388 0.422 255 255 255
0.127084 0.064648 0.472 0 0 0
-0.0350159 0.031365 0.505 255 255 255
-0.103303 0.119963 0.372 255 255 255
-0.0439562 0.108706 0.388 255 255 255
-0.0790917 0.036152 0.503 255 255 255
0.18721 0.0510877 0.497 255 255 255
0.177246 0.00748172 0.563 255 255 255
-0.00941884 0.128093 0.371 255 255 255
-0.157604 0.0307439 0.495 255 255 255
0.220853 0.0222788 0.544 255 255 255
0.241743 -0.0884208 0.801 255 255 255
-0.146969 0.117159 0.33 255 255 255
-0.156006 -0.132682 0.4 255 255 255
0.0121288 0.119459 0.384 255 255 255
-0.193613 0.0713415 0.371 255 255 255
0.0752856 0.0636092 0.47 255 255 255
-0.173346 -0.124595 0.395 255 255 255
-0.0531426 0.120349 0.377 255 255 255
-0.135597 -0.0616348 0.633 255 255 255
0.144965 -0.195629 0.905 255 255 255
-0.0298327 -0.153608 0.716 255 255 255
0.327875 -0.115298 0.651 255 255 255
0.140924 0.0557215 0.488 255 255 255
-0.0195599 0.0760897 0.406 255 255 255
-0.0309549 -0.192954 0.715 255 255 255
-0.16224 0.0703599 0.436 255 255 255
-0.119761 -0.0645206 0.631 255 255 255
0.00243766 -0.0474814 0.623 255 255 255
-0.16129 0.0231011 0.504 255 255 255
-0.168408 -0.132878 0.391 255 255 255
0.140916 -0.184792 0.917 255 255 255
-0.192878 -0.0153092 0.412 0 0 0
-0.243449 -0.157223 0.793 255 255 255
0.0411832 0.122865 0.381 255 255 255
-0.178249 -0.0568893 0.417 255 255 255
-0.113898 0.0855483 0.42 255 255 255
0.17435 0.0714092 0.471 255 255 255
0.165119 -0.21348 0.864 255 255 255
-0.132165 0.103712 0.393 255 255 255
-0.0183614 0.13604 0.357 255 255 255
-0.209209 0.0252066 0.497 255 255 255
0.0468412 0.108974 0.403 255 255 255
0.177149 0.137581 0.384 255 255 255
-0.0826026 -0.120386 0.699 255 255 255
-0.187426 -0.0672812 0.406 255 255 255
0.240316 -0.126093 0.792 255 255 255
-0.151968 0.0879416 0.412 255 255 255
0.200594 -0.163028 0.836 255 255 255
0.0382584 -0.0356878 0.612 255 255 255
0.249016 0.0306736 0.536 0 0 0
0.275306 -0.20927 0.692 255 255 255
-0.186804 0.0426424 0.475 255 255 255
-0.190167 -0.141615 0.369 255 255 255
-0.169085 0.118193 0.324 255 255 255
0.0798738 -0.257526 0.707 255 255 255
0.0666781 -0.271695 0.966 255 255 255
-0.128701 0.0755128 0.433 255 255 255
-0.113224 0.0978252 0.403 255 255 255
-0.173368 -0.104301 0.401 255 255 255
-0.144716 -0.135124 0.756 255 255 255
-0.20063 -0.0496094 0.402 255 255 255
-0.0641826 0.0651959 0.404 255 255 255
0.216193 -0.216678 0.784 255 255 255
-0.186866 0.00359324 0.53 255 255 255
0.195577 0.13028 0.396 255 255 255
-0.119448 -0.0577121 0.624 0 0 0
0.13056 -0.266732 0.868 255 255 255
0.192491 0.076224 0.463 255 255 255
0.0669599 0.116158 0.394 255 255 255
-0.0853937 0.0440067 0.435 255 255 255
-0.0587386 0.0304827 0.504 255 255 255
0.243814 -0.105871 0.795 255 255 255
-0.11669 0.059702 0.452 255 255 255
-0.14912 -0.0951158 0.421 255 255 255
-0.228608 -0.116951 0.809 255 255 255
-0.21215 -0.0215863 0.404 255 255 255
-0.164297 -0.127485 0.398 255 255 255
0.173553 0.0852573 0.451 255 255 255
0.108841 -0.135488 0.765 255 255 255
0.0892616 -0.198891 0.737 255 255 255
0.289517 -0.115158 0.716 255 255 255
-0.130405 0.0436896 0.478 255 255 255
-0.0103129 -0.236071 0.737 255 255 255
-0.00191505 -0.125732 0.737 255 255 255
0.176787 -0.16456 0.873 255 255 255
-0.0725692 -0.100197 0.701 255 255 255
0.169495 -0.0342466 0.622 255 255 255
-0.209131 0.0282129 0.493 255 255 255
0.227635 0.0704697 0.475 0 0 0
0.144498 0.0983218 0.428 255 255 255
-0.0853363 0.115425 0.381 255 255 255
0.114743 0.084123 0.445 255 255 255
0.230688 0.0636629 0.488 255 255 255
0.326504 -0.0716386 0.679 255 255 255
0.109848 0.140546 0.372 255 255 255
-0.171828 -0.125883 0.393 255 255 255
0.340415 0.00130373 0.687 0 0 0
-0.147078 -0.0842621 0.425 255 255 255
-0.0166246 0.100101 0.399 255 255 255
0.1095 0.0990036 0.422 255 255 255
-0.00472353 0.120701 0.382 255 255 255
-0.244441 0.0378401 0.493 255 255 255
0.22304 0.0517044 0.503 255 255 255
-0.193286 0.0198204 0.504 255 255 255
-0.0599002 0.0334954 0.5 255 255 255
-0.20438 -0.0788205 0.388 255 255 255
-0.211625 -0.0103841 0.403 255 255 255
-0.226738 -0.261261 0.727 255 255 255
0.235624 -0.236071 0.737 255 255 255
0.0198103 0.0255269 0.52 255 255 255
0.234796 -0.114919 0.804 255 255 255
-0.194142 -0.0923173 0.389 255 255 255
-0.0520499 -0.112985 0.717 255 255 255
0.240718 0.00486767 0.579 0 0 0
0.0842383 -0.265975 0.705 255 255 255
0.292294 -0.220516 0.652 255 255 255
0.219053 0.0957096 0.445 255 255 255
-0.214122 -0.152496 0.809 255 255 255
-0.175367 -0.0707986 0.415 255 255 255
-0.152961 0.0677318 0.442 255 255 255
-0.0611286 -0.0687899 0.652 255 255 255
