ply
format ascii 1.0
comment Created by Open3D
element vertex 1389
property double x
property double y
property double z
property uchar red
property uchar green
property uchar blue
end_header
-0.135059 0.222987 0.688 19 41 21
0.131739 0.204066 0.72 40 62 33
0.101123 -0.0249005 0.858 176 222 215
-0.019151 -0.0681441 0.934 144 190 164
-0.217136 -0.160781 0.526 14 33 23
0.198731 -0.0693236 0.628 84 117 89
-0.206095 -0.0571842 0.542 1 8 2
-0.0706712 -0.149485 0.582 6 13 5
0.370611 -0.295021 0.955 70 75 38
0.148139 -0.0550479 0.944 179 239 197
0.148216 0.122252 0.75 238 255 253
-0.141507 0.226798 0.676 20 40 23
-0.197675 -0.00255022 0.553 1 8 2
0.0875598 0.251667 0.669 94 138 111
-0.136258 -0.0277218 0.571 2 9 1
0.419196 0.105562 0.863 179 239 199
-0.101476 0.0729027 0.596 8 24 15
-0.102072 -0.179508 0.552 5 12 4
0.115291 -0.201893 0.927 93 110 73
0.37795 -0.339855 0.95 68 74 34
0.228407 0.227114 0.609 36 48 20
-0.235373 0.104389 0.557 3 28 21
0.23104 0.0497277 0.95 162 203 177
-0.0620702 0.0519753 0.963 41 45 24
0.312687 0.144866 0.823 145 195 163
-0.232572 -0.114135 0.528 5 17 7
-0.085472 -0.182435 0.561 7 12 2
0.190991 0.172742 0.613 54 25 11
0.125251 0.235411 0.73 11 16 2
0.405568 -0.264128 0.855 72 86 48
-0.0996926 -0.312411 0.821 66 67 29
0.426943 -0.0680252 0.856 156 196 167
0.0957592 0.11919 0.86 80 129 112
0.231356 -0.0557704 0.625 158 198 167
-0.0829872 -0.0907647 0.582 149 219 213
-0.0300827 0.223432 0.722 62 101 77
-0.25526 0.128371 0.551 3 26 18
0.0485248 0.204389 0.842 25 20 2
-0.136182 -0.0740588 0.563 7 14 8
0.227616 0.183821 0.594 51 56 23
-0.122101 -0.0796175 0.57 10 21 17
0.170601 0.140193 0.711 76 93 65
-0.200376 0.0127483 0.553 52 103 108
-0.0354214 0.0378712 0.963 43 50 26
-0.246611 0.011527 0.538 12 69 74
-0.143428 0.218784 0.696 13 33 18
-0.122336 0.0509596 0.589 2 9 3
-0.0470674 -0.166819 0.583 6 13 5
0.0230182 0.0286321 0.918 60 72 44
-0.194075 -0.00614987 0.553 1 8 2
-0.200912 -0.00434217 0.552 1 8 2
-0.270882 0.104032 0.541 4 29 22
0.369057 -0.194004 0.955 82 96 56
-0.0846744 -0.305397 0.831 67 69 33
0.198415 -0.0923284 0.661 85 113 88
-0.253028 0.149265 0.552 3 42 58
0.389696 0.28111 0.863 117 162 130
-0.15078 -0.132855 0.556 5 12 4
0.402276 -0.282151 0.872 74 84 43
-0.190602 0.00738869 0.556 21 70 71
-0.22758 -0.169501 0.511 167 238 218
0.195971 -0.0746974 0.639 102 131 101
-0.158148 -0.17398 0.535 128 195 183
0.100417 0.248338 0.69 75 113 85
-0.171287 -0.0413956 0.555 1 8 2
-0.234234 -0.171996 0.511 168 236 213
-0.124551 0.134749 0.595 10 30 27
0.207451 0.185678 0.6 48 19 5
0.0225919 -0.00855372 0.901 108 148 119
0.125005 0.2457 0.715 40 63 38
0.270456 0.173258 0.901 202 255 248
-0.17639 -0.0467303 0.554 6 10 5
-0.231728 -0.09473 0.53 159 252 247
0.0777667 0.157361 0.847 8 32 18
-0.147689 -0.119712 0.558 5 12 4
0.0403548 0.242882 0.681 87 126 100
-0.0906521 0.0272722 0.595 6 25 29
0.251302 -0.0693375 0.619 96 130 99
0.175686 0.253852 0.699 59 105 79
-0.0446213 0.240398 0.659 56 97 71
0.186697 -0.234567 0.937 78 90 51
0.137028 0.158513 0.705 40 62 31
0.26845 0.100481 0.88 249 255 250
0.187343 0.132962 0.722 62 131 132
0.166221 0.0412403 1.007 120 149 117
0.0162241 -0.255775 0.874 70 75 38
0.397739 -0.326314 0.884 70 80 39
0.10348 -0.0369113 0.878 67 118 109
0.170895 -0.230776 0.934 78 90 51
0.200638 -0.0394337 0.938 126 185 169
-0.0507153 0.213505 0.749 41 78 55
0.184661 0.257166 0.658 53 102 75
-0.253596 -0.118329 0.52 4 16 8
0.21438 0.0246766 0.938 169 213 188
0.392624 -0.271308 0.902 74 83 45
-0.210339 -0.162728 0.524 57 94 81
-0.301389 0.203316 0.618 3 17 6
-0.158288 0.0251987 0.57 38 87 88
0.188207 0.237505 0.744 67 106 73
0.190898 -0.0044917 0.974 103 128 93
-0.0598738 0.0623948 0.607 4 11 3
0.179489 0.147041 0.705 60 93 65
-0.0769044 -0.142119 0.579 5 13 2
-0.0598738 0.105857 0.607 1 8 2
0.286437 -0.299303 0.944 69 76 36
0.177545 0.17259 0.711 52 92 63
-0.0956384 0.117721 0.602 8 27 17
0.00635836 -0.22205 0.887 72 77 40
0.0817291 0.247292 0.684 99 140 114
0.229581 -0.254754 0.944 75 84 46
0.386564 -0.113156 0.905 139 178 145
-0.182328 0.0230978 0.564 66 113 112
-0.0511491 0.0913406 0.609 6 10 5
0.0528583 -0.040403 0.892 179 225 197
0.29503 0.0370454 0.942 155 195 166
-0.198576 -0.172486 0.52 161 225 205
-0.217288 0.149232 0.569 9 51 52
-0.0436361 0.235947 0.677 58 92 68
-0.189643 0.223167 0.675 12 14 0
0.373233 -0.364586 0.942 69 71 24
-0.162585 -0.144056 0.547 5 14 5
0.139572 0.256457 0.673 108 152 125
0.105313 0.0211757 0.858 93 149 132
-0.0754978 0.218689 0.718 30 62 43
-0.12282 0.122367 0.596 7 28 17
0.340718 -0.341286 0.954 65 70 33
0.167785 -0.301189 0.917 74 80 43
-0.183283 -0.104506 0.545 6 15 8
-0.141077 -0.0750824 0.557 6 15 8
-0.197233 0.215073 0.562 1 5 0
0.0535796 -0.267555 0.88 70 75 40
-0.154066 0.212597 0.698 10 26 15
-0.199456 -0.0167956 0.548 1 8 2
-0.138646 0.0820291 0.585 6 25 15
-0.24676 -0.295161 0.779 62 68 33
-0.271132 0.0789407 0.538 4 29 20
-0.28313 0.204284 0.56 10 49 83
-0.149817 0.104698 0.584 5 26 15
-0.210282 -0.0105146 0.546 0 7 1
0.103594 0.219838 0.754 15 24 6
-0.21299 -0.175195 0.518 129 187 176
-0.16418 0.116451 0.581 9 25 14
0.0293113 -0.0918689 0.928 164 208 183
-0.250218 -0.195497 0.503 22 27 15
-0.257892 -0.191023 0.502 6 19 6
-0.168818 -0.112901 0.547 5 14 7
0.193793 -0.340332 0.906 67 73 36
-0.284446 0.130202 0.54 1 28 21
-0.303628 0.188927 0.58 3 15 7
0.199277 0.145644 0.596 145 178 150
-0.263376 -0.19189 0.5 8 21 6
-0.0588874 -0.0134398 0.597 8 20 12
0.209817 0.20854 0.604 46 60 24
0.0444657 0.0619606 0.843 9 21 13
-0.0536919 0.231374 0.693 43 80 57
0.392624 -0.262501 0.902 74 84 43
-0.142572 -0.17802 0.542 4 17 12
-0.143189 -0.17329 0.541 146 212 192
0.300369 -0.0168889 0.877 162 203 177
0.0488129 0.191819 0.847 0 7 0
-0.0608711 -0.0859592 0.588 8 21 16
-0.187123 -0.305104 0.795 65 70 33
0.0175235 0.0432688 0.944 50 65 38
-0.100795 0.0396586 0.592 2 9 3
-0.225877 0.209785 0.565 0 6 0
0.18559 0.24875 0.65 40 91 65
-0.0907274 -0.089985 0.577 150 223 218
-0.0640668 -0.000814166 0.6 16 36 29
-0.228272 -0.0829671 0.532 5 24 14
0.304434 0.0378411 0.924 152 197 167
0.170191 -0.198543 0.947 95 118 84
0.168994 -0.0242361 1.004 155 197 168
0.111307 0.207326 0.74 39 54 27
0.393075 -0.160152 0.88 83 100 63
-0.210616 0.14511 0.571 6 41 42
0.0174864 0.0370454 0.942 50 65 38
-0.113303 -0.0254145 0.582 4 11 3
-0.173925 -0.180978 0.53 6 15 6
0.397508 -0.0594997 0.874 178 223 193
0.197709 -0.059104 0.628 118 145 116
0.0173765 0.237013 0.693 91 130 104
0.0935562 -0.188596 0.921 109 133 101
-0.167037 -0.142276 0.547 4 13 4
-0.239429 0.139082 0.558 0 13 10
-0.0951302 0.124215 0.605 8 27 17
-0.0589568 -0.108924 0.588 8 15 7
0.245291 0.164341 0.59 58 52 28
-0.15051 0.100723 0.583 7 26 16
0.0999589 0.144381 0.86 19 47 34
-0.0798265 0.0353714 0.601 8 14 14
-0.0139182 -0.191152 0.891 81 90 52
-0.10881 0.224283 0.692 22 47 28
0.324165 -0.355388 0.942 64 70 35
-0.105181 0.242358 0.636 29 54 35
0.206272 0.0830833 0.909 234 255 254
0.243277 0.218194 0.609 35 46 25
-0.168977 0.161939 0.578 5 14 5
-0.0389169 0.0603698 0.972 43 47 24
0.406868 -0.255367 0.849 76 88 49
0.0416701 0.21105 0.79 92 141 114
-0.148622 -0.0200749 0.565 2 9 3
0.279883 0.149063 0.871 132 174 143
-0.23934 -0.137999 0.524 6 15 6
-0.201542 0.160343 0.569 6 18 8
0.349536 -0.055296 0.875 176 218 189
-0.289631 0.204099 0.562 0 6 0
0.35788 0.0916803 0.878 170 222 189
-0.136882 0.235182 0.639 20 37 23
-0.113273 0.212525 0.713 18 40 24
0.110938 -0.290074 0.892 72 77 40
-0.0289997 0.0205258 0.958 49 59 32
0.197337 0.153403 0.596 63 71 42
0.380999 -0.275486 0.931 71 81 40
-0.048096 0.051614 0.608 7 11 4
-0.27623 0.209713 0.588 0 7 1
-0.191354 0.107564 0.569 7 28 17
0.164065 0.140206 0.723 43 60 46
-0.149411 -0.0109383 0.568 1 8 2
-0.0539868 -0.13144 0.586 6 13 5
0.223773 -0.016114 0.914 172 216 189
-0.28041 0.114173 0.539 2 29 20
-0.171878 0.0681054 0.572 9 23 14
-0.095496 -0.293227 0.831 65 70 33
0.109634 0.18448 0.745 40 59 33
0.052849 -0.328883 0.868 67 72 35
-0.152238 0.126989 0.586 8 33 26
0.173368 0.118318 0.764 136 196 184
-0.0547239 -0.0336716 0.594 7 16 9
-0.111325 -0.29621 0.828 66 71 34
0.207523 -0.341083 0.908 67 72 35
0.362676 -0.259387 0.967 70 76 36
0.0709566 0.174106 0.848 8 22 13
-0.101518 0.171602 0.602 1 8 2
-0.153792 0.0319141 0.574 3 12 5
-0.136544 -0.134 0.557 5 12 6
0.139414 -0.0851358 0.937 186 242 201
0.224459 -0.0633958 0.62 47 57 32
-0.11698 0.0559414 0.591 1 8 2
0.294448 0.147798 0.817 188 232 207
-0.0380361 0.000256866 0.95 87 117 92
0.297055 0.261392 0.723 28 56 41
-0.123232 0.146133 0.598 12 41 42
-0.147042 -0.0311633 0.566 1 8 2
0.0126263 0.175986 0.923 9 17 6
0.227467 0.0511657 0.948 164 203 177
-0.188409 0.145696 0.577 2 21 23
-0.0370892 0.229965 0.699 56 95 71
-0.101334 -0.0511615 0.584 6 10 5
-0.186685 -0.118043 0.542 6 13 5
-0.15539 0.0290612 0.573 3 14 10
0.107928 0.197923 0.75 38 61 36
-0.162288 -0.147347 0.546 5 14 5
-0.0110175 -0.199852 0.891 76 82 45
0.32002 -0.226425 0.981 72 84 45
-0.00227883 -0.242381 0.877 69 74 39
-0.00737711 0.106167 0.986 39 46 24
0.218129 -0.131439 0.941 116 149 121
-0.201071 -0.134682 0.538 6 13 5
0.183466 -0.176273 0.96 101 129 93
-0.162759 -0.0117582 0.563 1 7 5
-0.267654 0.172837 0.547 1 8 2
-0.0867545 0.22276 0.705 34 63 43
-0.235308 0.141151 0.559 0 14 9
0.118526 -0.231052 0.917 79 85 50
-0.268762 -0.107972 0.515 5 17 7
-0.287549 0.205484 0.551 1 5 0
-0.21349 -0.292354 0.792 62 67 30
-0.0569096 0.0999308 0.607 4 8 3
-0.249576 -0.103037 0.524 6 18 10
-0.125733 0.224571 0.686 21 43 23
0.0701259 -0.0380781 0.872 109 160 149
0.405611 -0.286999 0.861 71 83 44
0.410983 0.114201 0.824 178 237 200
0.0036428 -0.0815606 0.931 153 199 173
0.347851 0.00437952 0.85 186 244 205
-0.251508 0.0468067 0.541 0 7 4
0.0488287 0.00156372 0.824 19 38 26
-0.215711 -0.304209 0.786 64 66 30
-0.262271 0.0298014 0.536 2 13 9
0.372524 -0.198753 0.948 81 95 55
0.0079783 0.244724 0.662 70 107 82
-0.264425 -0.114502 0.518 5 17 7
-0.20442 0.219464 0.684 15 14 0
-0.00382475 -0.155865 0.905 111 138 107
-0.213054 -0.0450015 0.544 1 8 2
-0.200324 -0.138543 0.536 7 14 6
0.357476 -0.198093 0.983 83 96 54
-0.240848 -0.0553673 0.533 0 9 2
0.218288 0.23897 0.614 36 46 21
0.389723 -0.131852 0.892 113 143 106
-0.192026 0.16834 0.571 1 8 2
-0.239853 -0.0744689 0.527 3 11 8
-0.039441 -0.219797 0.878 68 73 36
-0.0591834 0.0275014 0.6 5 14 7
0.208628 0.179289 0.595 57 17 2
-0.161431 0.00662384 0.568 0 13 12
-0.12497 0.14686 0.597 12 38 40
-0.252749 -0.119175 0.52 4 16 8
-0.252995 -0.0102643 0.533 0 5 3
-0.0528519 -0.147148 0.584 6 13 5
-0.164806 -0.167571 0.534 167 238 218
0.133455 -0.147811 0.938 164 204 175
0.033487 -0.287277 0.879 67 72 35
0.33042 -0.26602 0.974 69 75 38
-0.0512331 0.140131 0.61 2 9 1
0.0619625 -0.335147 0.877 66 71 36
-0.254298 0.156814 0.547 6 17 13
0.121917 -0.290564 0.898 72 78 43
0.420192 0.102347 0.848 183 246 203
-0.0614635 0.117877 0.613 1 10 3
-0.0496576 -0.176343 0.58 6 10 3
-0.240948 0.0577955 0.545 0 6 4
0.0215707 0.0301916 0.92 57 69 41
-0.155086 -0.0968656 0.552 3 40 43
0.000475793 0.228764 0.724 66 101 89
-0.166638 0.215352 0.57 2 6 1
-0.0153553 0.177829 0.983 16 21 9
0.0784913 0.0371349 0.84 58 119 118
-0.0953285 -0.0266334 0.588 4 11 3
-0.215679 0.0388458 0.553 0 7 4
0.271199 -0.224348 0.972 80 92 53
-0.0287728 -0.149477 0.902 109 133 101
0.253196 -0.106672 0.684 100 117 76
0.0115877 0.218249 0.757 82 123 99
-0.236167 -0.18752 0.508 10 20 8
0.387637 0.241194 0.871 126 173 140
-0.136855 -0.0739273 0.562 6 15 8
-0.231251 -0.156204 0.525 15 28 15
-0.248972 0.10021 0.549 5 29 17
-0.161361 -0.167639 0.537 167 238 218
0.414962 -0.264032 0.816 70 87 46
-0.159255 -0.130574 0.554 5 12 4
-0.174622 0.13278 0.578 5 26 15
0.0370059 0.193589 0.861 4 13 4
0.0569665 0.234331 0.723 80 126 100
0.117224 0.112039 0.747 89 142 135
0.394184 0.316665 0.831 107 149 120
-0.187958 0.226627 0.669 23 18 0
-0.0812388 -0.000810095 0.597 6 13 7
0.290805 0.0229929 0.874 156 197 171
0.43258 -0.0594316 0.873 163 210 179
-0.0285312 -0.28505 0.851 67 72 35
-0.0676668 0.0662367 0.606 9 25 16
0.0905191 0.20966 0.825 56 97 73
0.19947 0.125274 0.732 100 159 152
-0.191096 -0.126863 0.542 6 13 7
0.0183577 0.251148 0.648 74 111 86
-0.204895 -0.18384 0.521 8 18 6
-0.250989 0.018531 0.538 46 110 115
0.423339 -0.037554 0.86 181 239 198
0.412824 -0.088385 0.825 127 167 127
0.214277 0.158868 0.584 59 48 25
-0.213164 0.166898 0.563 1 8 2
-0.0803578 0.174426 0.605 20 40 25
0.361848 -0.313537 0.969 62 68 31
0.203909 0.0292871 0.939 131 185 167
0.270641 -0.227043 0.97 79 91 54
-0.0750597 0.0168169 0.602 141 211 209
0.286431 0.15569 0.735 252 255 251
-0.23601 -0.0806248 0.528 6 18 10
-0.269943 0.209822 0.591 0 7 0
-0.242153 0.144531 0.558 4 43 50
0.379496 -0.344493 0.95 66 73 31
-0.149396 -0.0464078 0.561 2 9 3
-0.151139 -0.139589 0.554 5 12 4
-0.134296 0.123264 0.591 6 26 19
-0.006978 0.213364 0.766 70 114 91
-0.254965 0.0282139 0.539 4 17 14
0.376615 0.119467 0.862 168 217 188
-0.10782 -0.0703884 0.578 5 12 6
0.0560226 0.222238 0.758 79 118 94
0.279569 0.143878 0.857 138 176 146
0.367502 -0.189342 0.955 83 100 61
0.0231937 -0.145762 0.925 132 168 136
-0.185522 -0.0713238 0.549 3 12 5
0.400812 -0.294513 0.875 72 81 43
-0.214997 0.158652 0.563 10 19 10
0.0465991 0.152245 0.857 1 8 2
0.323214 -0.2376 0.981 70 82 43
0.1143 0.121168 0.736 36 63 54
0.412306 -0.0143863 0.816 187 255 210
-0.0247361 0.247502 0.644 66 100 76
0.166216 0.0118599 1.017 148 189 163
-0.0880918 -0.315275 0.825 67 69 33
-0.271869 0.063819 0.536 3 23 16
-0.111306 -0.140096 0.567 5 12 4
-0.0560644 0.198296 0.828 26 20 5
-0.104782 -0.318314 0.819 68 69 31
0.0902819 0.171346 0.848 19 33 24
0.195267 -0.260726 0.927 73 85 46
0.298097 -0.227511 0.972 75 89 49
-0.175359 0.224266 0.675 10 12 3
-0.123583 0.115384 0.595 8 27 17
0.409985 -0.122843 0.822 87 108 68
0.0118469 0.099445 0.983 40 52 26
0.058119 0.133138 0.842 16 30 21
0.044858 0.210079 0.801 86 137 109
-0.0613632 0.116689 0.612 2 9 3
-0.160949 0.131083 0.583 13 38 31
-0.132228 -0.170396 0.543 158 224 204
-0.00479447 0.197473 0.819 23 25 9
-0.0868189 0.0589419 0.602 4 11 5
0.180314 -0.302174 0.92 71 80 42
-0.0586607 0.146284 0.615 1 8 2
-0.184817 0.0572593 0.566 0 6 0
0.0430455 -0.140647 0.931 144 184 153
-0.244458 -0.109859 0.524 3 16 11
0.23675 -0.307999 0.924 68 74 39
0.0286742 0.207813 0.823 32 34 16
-0.0316534 0.236993 0.68 63 102 76
-0.186755 -0.0249122 0.55 1 8 2
-0.0652603 0.0168169 0.602 13 31 25
-0.173432 -0.00803594 0.559 1 8 2
-0.149066 -0.0610445 0.553 4 11 5
-0.122071 -0.179426 0.549 6 13 7
-0.151459 0.164288 0.583 2 9 1
-0.067122 -0.185635 0.568 8 13 3
0.400252 0.257679 0.824 127 177 145
-0.252974 -0.141203 0.517 4 16 6
-0.12137 -0.299779 0.823 65 70 33
0.3157 0.25846 0.728 52 70 49
0.184566 0.183239 0.632 79 118 94
0.36867 -0.141017 0.954 122 152 113
0.2625 0.0268721 0.909 157 198 172
-0.0903027 -0.192011 0.557 15 20 8
0.186182 0.221993 0.634 62 89 58
0.375427 -0.00267391 0.896 190 253 208
0.32339 0.267127 0.701 49 70 48
-0.242684 0.104539 0.553 5 28 20
-0.203608 0.0163184 0.552 9 33 33
-0.201172 -0.0634752 0.543 1 9 6
-0.185884 0.132091 0.575 6 26 19
-0.0672264 -0.120744 0.585 5 12 4
-0.255031 0.0617732 0.541 0 18 12
0.252785 0.172745 0.906 150 230 205
0.187785 0.230478 0.629 65 85 50
0.0630727 0.0749608 0.835 38 73 61
-0.248147 -0.13297 0.521 4 16 8
-0.230678 0.036711 0.548 0 7 6
0.236364 0.211488 0.604 50 61 31
0.0362685 -0.176558 0.913 110 134 102
-0.176098 -0.152442 0.542 6 18 8
0.109656 0.150117 0.737 32 58 32
-0.19678 -0.0283887 0.548 1 8 2
-0.0023256 0.189582 0.895 13 15 0
-0.212951 -0.299329 0.79 63 68 31
-0.136496 -0.012877 0.572 2 9 3
0.36115 0.120393 0.879 167 214 183
0.0904123 -0.11995 0.935 176 217 191
0.0331822 0.0498446 0.871 55 62 40
0.406042 -0.267223 0.856 73 86 44
-0.0720672 -0.157864 0.578 12 25 20
-0.12648 0.22503 0.684 20 42 24
-0.0456437 -0.187638 0.577 11 13 4
-0.244497 0.157961 0.551 6 18 8
-0.185187 0.218191 0.687 16 15 0
0.372494 0.0479813 0.889 184 244 204
0.319525 0.0919425 0.867 165 205 176
-0.0994332 -0.0578141 0.584 4 11 3
-0.279023 0.0695334 0.533 4 27 19
0.348148 0.12073 0.861 173 215 186
0.34748 -0.185191 0.991 91 112 74
-0.135298 0.0937724 0.587 7 26 16
0.212348 -0.0684405 0.62 46 52 33
-0.108761 -0.0609825 0.578 4 11 5
0.0234946 0.0886922 0.937 52 64 38
-0.129079 -0.115492 0.564 6 13 7
0.404633 0.28782 0.822 111 161 129
0.122898 -0.0700369 0.939 188 248 204
-0.0269555 0.200398 0.804 33 28 8
-0.247488 -0.0921276 0.525 137 224 219
-0.119708 0.162829 0.595 4 13 6
0.409149 -0.296465 0.848 74 83 45
-0.185738 0.0462064 0.566 0 5 3
0.137129 -0.33744 0.883 67 76 40
-0.158393 -0.14242 0.551 4 13 4
0.119841 -0.071565 0.939 186 246 202
0.404951 -0.130405 0.845 89 113 72
-0.23962 0.0603452 0.544 1 14 9
-0.074695 0.10487 0.607 7 26 16
0.197362 0.137998 0.605 141 182 156
-0.0740712 0.125241 0.61 8 24 15
-0.0558946 -0.130487 0.586 6 13 5
0.179247 0.0880296 0.93 201 255 250
-0.231043 0.0467752 0.551 0 7 4
-0.237412 0.0240051 0.543 41 108 112
-0.179503 -0.0826359 0.547 11 24 21
0.405056 -0.195035 0.851 79 96 55
0.365448 -0.0259162 0.893 184 240 199
0.406319 0.263176 0.812 120 169 140
-0.174956 0.125759 0.576 5 24 14
-0.255105 0.215682 0.646 3 17 6
0.216385 -0.0694495 0.62 48 55 33
-0.190916 -0.104314 0.544 5 17 7
-0.163897 0.168162 0.58 1 8 2
0.0475408 -0.138983 0.93 148 188 157
0.37331 -0.290384 0.95 71 77 40
-0.128788 -0.00920167 0.575 2 9 3
0.101715 -0.0671235 0.941 186 246 204
-0.0512843 0.016733 0.599 7 14 6
0.194702 0.177561 0.609 21 19 9
-0.0201402 -0.143398 0.91 116 145 113
0.00818046 -0.114768 0.93 143 185 156
-0.18645 0.117234 0.571 5 26 15
-0.138883 0.0869374 0.586 6 25 15
0.0546486 0.15413 0.852 1 10 3
0.413001 -0.2783 0.839 72 86 46
-0.168618 0.135127 0.58 5 21 12
0.395536 0.308551 0.831 104 148 121
-0.100181 0.211973 0.719 24 51 33
-0.246722 0.0827801 0.546 4 27 19
-0.261758 0.111691 0.544 3 28 19
-0.0504554 0.108821 0.981 37 41 20
-0.216297 0.111208 0.564 4 27 19
0.206094 -0.234286 0.942 76 88 51
-0.274863 -0.29655 0.776 63 68 31
0.019855 -0.00863916 0.91 109 149 120
-0.154328 0.0582709 0.576 0 6 4
-0.0473903 -0.111605 0.587 8 12 5
0.026872 0.0367354 0.897 64 76 48
-0.263126 0.161562 0.545 3 12 5
-0.0733426 0.0306334 0.604 120 195 201
0.416348 -0.31087 0.824 71 83 46
0.222406 0.180616 0.593 58 63 30
0.202415 0.152117 0.591 82 94 55
-0.0984931 -0.107078 0.573 16 32 21
-0.0638261 0.0604192 0.607 8 27 17
0.285126 0.149 0.802 237 255 252
-0.0981453 -0.0784524 0.582 11 19 16
-0.0861946 -0.0190752 0.591 5 12 4
0.245673 -0.320938 0.918 67 72 35
-0.037964 -0.124445 0.589 31 33 20
-0.073466 0.216083 0.721 31 63 44
-0.0596587 -0.0308235 0.595 12 33 22
-0.0609702 -0.177324 0.571 5 12 6
0.118916 0.111268 0.75 91 149 140
0.0626794 -0.123849 0.93 165 204 178
-0.0869631 0.163055 0.603 4 11 3
0.368605 0.126104 0.85 161 210 181
0.176934 -0.294048 0.918 73 79 42
0.0202477 0.148247 0.928 52 59 33
-0.212559 -0.0362153 0.545 0 7 1
0.243343 0.0699953 0.893 152 194 165
0.14124 -0.1388 0.939 168 209 183
-0.149009 -0.000773458 0.57 1 8 2
-0.233026 -0.179831 0.512 8 20 10
-0.104777 -0.0462508 0.582 6 10 5
-0.0545756 0.236699 0.676 44 81 58
0.111959 -0.136979 0.937 171 210 186
-0.164671 -0.13704 0.551 5 12 4
-0.142182 0.0482932 0.58 1 8 2
-0.0364398 -0.182006 0.58 25 28 10
-0.279891 0.0764723 0.533 2 27 18
-0.158304 -0.0832402 0.557 14 29 26
-0.245978 -0.142023 0.52 5 17 7
0.00220957 0.0285867 0.967 48 60 34
-0.109702 -0.0619231 0.578 5 12 6
-0.254165 -0.155205 0.516 6 18 8
-0.0174608 -0.0479188 0.925 147 193 167
0.383061 -0.300806 0.925 69 79 38
-0.169486 0.219255 0.561 8 16 17
0.184648 -0.205356 0.95 82 96 58
-0.137633 -0.0331803 0.569 2 9 3
0.0791454 0.0622546 0.847 44 91 88
0.0182727 -0.17501 0.905 103 127 97
0.317068 -0.0181281 0.868 171 212 186
-0.245532 -0.0585056 0.53 0 8 5
0.0525116 0.100015 0.84 8 22 13
-0.0222206 0.160388 1.004 31 35 14
0.211679 -0.0705721 0.621 46 52 33
0.260815 -0.347094 0.924 66 72 32
0.248086 0.0547358 0.905 156 198 169
0.410114 -0.326212 0.85 68 82 42
-0.201889 -0.187591 0.522 7 17 5
0.198285 -0.271285 0.927 71 80 42
-0.0453473 0.241767 0.654 59 98 72
-0.198302 -0.107941 0.54 5 17 7
0.143962 -0.221504 0.927 80 89 53
-0.099944 -0.0313643 0.587 4 11 3
-0.252855 0.0627694 0.542 0 20 13
0.253808 -0.300134 0.937 69 76 34
0.203536 0.121677 0.91 208 255 246
-0.281385 0.174298 0.546 0 9 2
-0.243605 -0.111565 0.524 3 17 8
-0.0347612 -0.138192 0.905 113 140 109
-0.180388 -0.0116538 0.558 0 7 1
0.194983 0.207657 0.613 59 75 41
0.334349 -0.30686 0.958 65 71 36
-0.167648 -0.0784711 0.549 8 16 13
-0.0984144 0.15958 0.601 8 17 8
0.305992 -0.222322 0.977 75 89 49
0.270601 0.136617 0.864 161 210 183
-0.0498332 0.240737 0.657 58 97 71
-0.0841527 -0.136933 0.577 6 16 4
-0.261429 -0.00502211 0.529 0 7 1
-0.0699626 -0.308844 0.833 68 70 34
-0.239474 -0.185866 0.508 6 19 6
-0.226148 0.0296847 0.55 3 11 10
-0.0451231 -0.128024 0.906 112 143 113
-0.198576 -0.169102 0.52 170 238 217
-0.26917 -0.157028 0.511 13 31 25
0.401106 0.160938 0.823 162 211 184
0.146291 -0.0579972 0.942 184 242 201
0.154043 -0.0508667 0.952 176 229 191
0.231232 -0.00124839 0.92 171 216 186
-0.0579997 -0.102226 0.588 9 16 8
0.161744 -0.339543 0.9 67 76 40
-0.137089 0.229233 0.599 4 18 9
-0.0138252 0.117637 0.988 36 43 21
-0.10597 0.0581586 0.594 1 8 2
0.0987195 0.229337 0.745 20 31 10
0.0565124 -0.217479 0.904 76 82 45
0.0604214 -0.0579972 0.942 179 229 197
-0.198295 0.209958 0.573 13 18 6
-0.261214 -0.12933 0.52 3 15 7
0.355808 0.0692882 0.866 178 230 197
-0.121621 0.00677544 0.581 0 10 8
-0.0177977 0.195163 0.868 26 19 2
-0.00559062 0.00336642 0.955 71 98 69
0.0384576 -0.0875267 0.93 169 213 188
0.165562 0.00357087 1.013 152 197 167
-0.234291 -0.125305 0.528 5 14 5
0.0562586 -0.166655 0.924 126 160 129
-0.195404 0.0696584 0.562 5 24 12
0.2348 -0.0722425 0.618 50 60 33
-0.119191 -0.115697 0.565 6 13 5
0.401669 -0.334862 0.88 69 78 40
0.207606 0.00938212 0.935 123 182 164
0.234489 0.16446 0.587 56 33 14
-0.131368 -0.0157243 0.574 3 7 2
0.378159 -0.239652 0.939 73 86 44
-0.267071 0.155954 0.544 3 18 13
-0.0921757 0.148828 0.605 17 58 66
-0.244364 -0.012044 0.535 0 5 3
0.0464189 0.251429 0.657 80 119 95
0.123884 0.116377 0.736 151 226 211
-0.0961368 0.0752192 0.599 8 24 15
0.394683 -0.33222 0.9 72 79 37
-0.0872516 0.102555 0.605 7 26 16
0.198427 -0.223555 0.942 80 89 51
0.173275 0.262637 0.672 109 163 134
0.169277 -0.286266 0.917 73 82 46
-0.233818 0.0651288 0.547 3 24 13
-0.231713 -0.113276 0.528 4 16 6
0.198655 -0.338128 0.908 67 73 36
0.236338 0.221167 0.609 45 60 31
-0.18393 -0.164964 0.534 160 219 201
0.131231 -0.00837334 0.882 98 150 134
0.202568 0.177867 0.6 8 23 7
0.362301 -0.244971 0.966 73 80 40
-0.0961391 0.0416556 0.593 2 8 6
0.300296 -0.226394 0.974 75 89 49
0.148192 0.184796 0.709 52 75 41
-0.259833 0.061659 0.54 0 18 14
-0.206318 -0.159976 0.529 14 28 19
0.401393 -0.190386 0.855 79 93 53
0.000565168 -0.295063 0.86 67 72 35
0.211006 0.190242 0.599 57 17 2
-0.17562 -0.0842619 0.546 22 40 38
0.407485 -0.0923489 0.862 139 182 148
0.203027 -0.223555 0.942 79 88 50
-0.0444615 0.201319 0.813 29 28 11
-0.0838427 -0.0649081 0.588 6 13 7
0.0368643 -0.0948892 0.928 165 209 184
0.400947 0.165207 0.831 158 212 183
-0.123621 0.0392566 0.586 2 8 6
-0.211737 -0.168967 0.517 168 238 221
0.423204 -0.068364 0.843 153 195 164
-0.0780521 0.216955 0.72 28 60 39
-0.187145 0.138882 0.576 2 13 9
0.304652 -0.0240247 0.877 164 205 179
-0.184921 -0.140093 0.542 4 13 4
-0.0556908 -0.058804 0.594 5 17 7
-0.00719006 0.0252816 0.961 47 59 31
-0.0136265 0.205908 0.79 49 93 68
-0.0580884 0.0576452 0.609 6 10 3
-0.259654 0.0114842 0.536 23 86 85
-0.0530566 0.0234778 0.597 7 14 8
-0.00965727 0.209917 0.781 66 112 86
0.229549 0.136459 0.863 142 203 186
-0.221358 -0.192329 0.512 12 22 10
-0.240504 0.0177868 0.542 51 125 125
-0.0688946 -0.137409 0.583 6 13 5
0.262418 -0.247344 0.963 77 86 48
0.408422 -0.0480663 0.873 183 236 198
0.057984 -0.216008 0.904 74 83 45
-0.223283 0.0641591 0.554 3 22 12
-0.178998 0.0398995 0.568 0 8 5
-0.108558 0.134598 0.603 11 38 31
0.189918 -0.116427 0.969 106 137 103
0.113242 -0.147338 0.935 165 202 177
-0.109846 -0.123923 0.569 5 12 4
-0.0917186 0.111843 0.602 8 27 17
0.0248329 -0.0784462 0.93 165 209 184
-0.167963 0.210999 0.581 18 29 8
-0.149817 0.160769 0.584 6 15 6
0.227197 0.158596 0.583 78 87 49
0.1787 0.124296 0.755 237 255 250
0.144758 -0.062596 0.942 184 244 200
-0.123375 0.161588 0.594 6 15 8
-0.0263519 -0.10006 0.92 129 171 142
0.072935 0.0193415 0.839 66 120 106
-0.049005 0.0456024 0.607 8 12 5
0.402722 -0.183524 0.849 80 97 56
0.0133097 0.232386 0.717 78 119 93
-0.05034 -0.182943 0.577 7 12 2
0.40071 -0.174535 0.839 79 96 55
0.0240853 -0.189109 0.902 88 104 70
0.189993 0.172742 0.613 38 28 14
-0.240431 -0.0372223 0.534 0 6 4
0.357374 -0.242244 0.974 70 75 38
0.011516 0.240312 0.68 84 121 96
0.302829 -0.0355633 0.88 160 201 175
-0.0419411 -0.046966 0.591 14 21 13
0.408351 -0.269694 0.855 71 85 45
0.398609 -0.166733 0.855 81 98 59
-0.106763 -0.305507 0.824 67 69 35
0.361655 -0.203243 0.977 76 94 50
0.215359 0.206232 0.603 42 53 23
-0.0581097 0.0264807 0.599 5 14 7
0.00700177 0.206176 0.796 23 44 31
0.407336 0.127648 0.833 175 229 198
0.198285 0.0825916 0.92 240 255 254
-0.0984456 0.229758 0.675 25 52 32
-0.074811 0.240658 0.651 40 69 49
0.238973 0.240684 0.621 45 58 27
-0.260054 0.115655 0.546 7 32 25
-0.238948 0.153887 0.559 3 33 36
0.105029 -0.341633 0.879 68 74 37
-0.0847361 -0.0991181 0.581 7 21 12
0.172969 -0.223893 0.937 80 92 55
-0.276939 0.0375111 0.534 48 126 129
-0.226556 -0.123586 0.528 6 15 6
-0.00888192 0.0637295 0.975 44 51 27
-0.0467169 -0.0592773 0.938 132 176 149
-0.0889953 0.238574 0.654 29 58 38
0.149739 0.115832 0.764 207 255 255
-0.112713 0.159049 0.599 10 19 10
-0.236383 0.0865411 0.553 3 26 18
0.0986566 0.211729 0.783 49 79 54
-0.265435 -0.0434298 0.525 0 8 1
0.332221 -0.277555 0.97 64 73 35
0.178219 -0.175722 0.957 110 139 105
0.363426 -0.234693 0.969 72 79 39
0.120542 -0.226065 0.921 77 86 50
-0.0534953 0.187294 0.898 25 17 3
0.41597 0.108801 0.834 176 239 198
0.206841 -0.117761 0.967 93 116 82
0.406358 -0.135006 0.831 83 103 58
-0.0404233 -0.0357846 0.597 91 108 92
-0.0691248 -0.166041 0.577 148 212 194
0.300906 0.0637512 0.887 163 203 174
-0.0125436 0.200149 0.803 34 27 8
0.02143 0.178733 0.914 13 21 10
0.411323 -0.235207 0.822 75 89 53
0.343104 -0.277115 0.974 65 71 36
-0.0686456 -0.17235 0.573 139 203 183
-0.196922 -0.290672 0.798 61 67 32
-0.0828799 -0.179102 0.562 8 12 5
0.0532375 0.0123806 0.83 20 45 38
-0.102668 0.15128 0.603 17 52 55
-0.228767 0.0738087 0.552 4 25 14
-0.265847 0.213739 0.634 5 14 7
0.097986 0.0517117 0.855 46 91 91
0.380172 -0.207132 0.944 79 92 50
-0.0367823 0.180904 1 19 21 8
-0.229666 0.0513515 0.552 0 5 3
0.0198331 -0.158033 0.909 118 149 119
-0.0201557 0.105844 0.983 37 44 20
-0.0674071 -0.0376013 0.595 0 39 50
-0.0669966 -0.153537 0.583 8 15 7
0.0848603 0.00437436 0.849 44 85 78
-0.237186 0.12433 0.557 1 24 18
-0.194975 -0.00704978 0.553 1 8 2
-0.100966 0.0493756 0.593 2 9 3
-0.276303 0.206918 0.543 3 12 3
-0.232415 0.211376 0.55 23 22 26
-0.0430055 0.062292 0.606 32 35 19
-0.181802 0.0865704 0.571 5 26 15
0.286431 0.149 0.802 240 255 252
0.213601 -0.110083 0.955 115 151 119
-0.0757056 0.221717 0.709 30 62 41
0.196172 -0.0404006 0.961 105 135 98
0.187608 0.203585 0.625 56 67 35
0.399594 0.292324 0.831 104 154 122
-0.031314 -0.0742238 0.934 137 181 154
0.209943 -0.0560543 0.887 152 213 196
0.192615 0.201329 0.615 59 77 42
0.0965993 0.238648 0.729 25 41 18
-0.203608 0.0109287 0.552 5 47 48
0.25579 0.160062 0.901 187 250 205
-0.19568 0.00376273 0.555 1 8 2
-0.134165 0.017087 0.578 13 30 33
-0.144768 0.214561 0.697 14 30 19
0.184118 0.181755 0.634 90 146 115
-0.248079 0.150076 0.555 3 43 54
-0.0612565 0.189074 0.975 8 13 3
0.188626 0.19138 0.625 61 76 47
0.0557619 -0.0701861 0.941 180 227 196
-0.0812184 0.242932 0.643 41 70 50
-0.132302 -0.012922 0.574 1 8 2
0.285523 -0.340633 0.931 67 73 36
0.355362 -0.348119 0.96 62 67 30
0.146833 0.127157 0.743 203 255 241
0.396689 -0.151967 0.866 83 102 62
-0.156868 0.0357126 0.575 1 7 5
0.17324 0.232871 0.737 33 45 19
-0.170434 0.22201 0.64 3 12 3
0.403721 -0.322191 0.869 68 81 39
-0.00728732 0.174615 0.974 19 28 10
-0.278463 0.206525 0.549 1 10 3
0.122374 -0.151902 0.935 161 201 172
0.294933 -0.240165 0.972 75 87 48
-0.163016 -0.191689 0.531 15 20 6
0.142969 0.144952 0.706 41 63 32
-0.192436 0.141448 0.575 1 12 8
0.416488 -0.304986 0.819 71 83 44
0.0645863 0.121451 0.837 22 58 54
0.175639 0.221762 0.732 42 66 38
0.285943 0.154556 0.797 218 252 228
-0.0512975 -0.0318015 0.938 133 177 150
-0.113152 -0.118874 0.567 5 12 4
0.0597016 0.147363 0.845 12 28 19
-0.219712 -0.16966 0.514 166 233 217
0.0349576 -0.286172 0.88 68 73 36
0.400867 -0.148808 0.848 83 100 61
0.015884 0.228843 0.728 88 129 105
0.367097 -0.197732 0.958 82 96 56
0.197362 0.178364 0.605 11 21 7
-0.0880256 -0.0815731 0.584 13 31 29
0.406955 -0.180497 0.835 81 98 57
-0.097274 0.083156 0.6 7 26 16
0.3455 -0.31473 0.963 64 70 33
0.250696 0.190531 0.603 58 66 35
0.175248 -0.32208 0.917 71 78 38
0.0423114 -0.257263 0.884 70 75 38
0.401404 -0.209205 0.858 80 93 51
-0.237413 0.208496 0.564 0 6 0
-0.0396446 0.206176 0.796 19 27 14
-0.10465 0.0338783 0.592 4 12 9
-0.060979 -0.30187 0.84 65 70 35
-0.243908 -0.0337464 0.534 0 6 4
-0.0803578 0.0769572 0.605 9 25 16
-0.088132 0.243882 0.64 35 64 44
-0.227576 0.218181 0.68 12 13 0
-0.232584 -0.0455494 0.54 0 8 1
0.0128877 0.218164 0.761 81 121 102
0.0485248 0.0851807 0.842 9 21 13
0.237502 0.225245 0.612 45 60 31
-0.0366563 0.218183 0.736 57 96 72
0.06297 0.165222 0.852 9 23 14
-0.0311495 0.209111 0.778 50 89 63
-0.155793 -0.312336 0.807 64 71 29
0.191004 -0.0577886 0.991 96 123 90
0.385237 -0.303159 0.923 72 79 39
0.113561 0.152245 0.857 28 56 41
0.18052 -0.334435 0.906 69 79 38
-0.161027 -0.183738 0.533 8 13 3
0.0980629 -0.0336658 0.868 63 114 103
-0.16 0.15575 0.583 4 15 13
-0.0544405 0.240052 0.661 56 93 68
0.30307 0.123887 0.826 156 198 169
0.212626 0.0139766 0.937 144 197 173
0.158314 0.196281 0.713 48 79 49
-0.0893109 -0.0885651 0.58 143 216 211
0.294724 -0.279672 0.961 71 80 42
-0.271593 -0.00157271 0.527 50 123 120
0.410226 0.16836 0.883 159 208 179
-0.126701 0.141765 0.596 2 13 11
-0.155419 -0.146636 0.55 6 13 5
0.0702487 -0.164711 0.93 132 171 138
0.320315 -0.0466457 0.873 167 208 184
0.0540573 -0.0745417 0.938 178 224 196
0.42555 -0.0290214 0.856 183 246 201
-0.0319327 0.235735 0.686 63 102 76
0.189205 0.146307 0.707 75 119 92
-0.115638 0.133705 0.599 19 48 49
-0.0779151 0.114135 0.609 10 29 17
0.150311 -0.336902 0.893 70 79 41
-0.0542632 -0.0908979 0.589 7 14 6
-0.0746502 -0.0527365 0.591 116 131 126
0.406441 0.155334 0.851 158 209 181
0.212256 -0.134512 0.963 97 117 82
-0.108761 -0.0647448 0.578 4 11 5
0.406484 -0.236025 0.854 77 90 48
-0.207996 -0.011424 0.547 0 6 4
0.172168 -0.0995158 0.958 152 194 165
0.201892 0.141267 0.598 128 159 125
0.391753 -0.282424 0.9 72 82 41
0.136195 0.233799 0.725 15 17 4
0.20223 0.13663 0.599 117 141 109
-0.0329398 -0.0714126 0.937 137 181 154
-0.0364137 -0.0966652 0.595 99 118 88
0.0793629 0.214703 0.794 58 95 70
0.168197 0.25732 0.687 110 162 129
0.396964 0.26895 0.834 115 165 133
0.198657 -0.0875373 0.981 95 118 84
0.39369 -0.113676 0.875 126 162 126
-0.0578023 0.0711675 0.606 4 11 3
-0.17746 0.172327 0.575 0 7 1
0.0687348 -0.135956 0.93 161 201 172
-0.101682 -0.0446614 0.586 4 11 3
-0.191744 0.0403925 0.562 0 5 3
0.174892 0.100885 0.923 203 255 252
-0.240417 -0.171659 0.51 166 234 213
0.199782 -0.0544648 0.934 120 170 147
-0.202893 0.219929 0.634 10 12 1
-0.0018293 0.232755 0.704 58 86 73
-0.0661275 0.135168 0.61 0 11 3
-0.24941 0.173153 0.548 3 12 5
0.0160385 -0.280969 0.864 68 73 36
-0.169786 -0.0315175 0.556 1 8 2
-0.203433 -0.135672 0.535 6 13 5
-0.119708 0.163797 0.595 3 12 5
-0.133432 -0.118036 0.563 5 12 6
0.11798 0.0963971 0.869 88 151 138
-0.183394 0.15388 0.576 0 15 14
-0.0416572 -0.13453 0.587 8 13 3
0.147356 0.173428 0.705 58 82 52
0.387106 0.282947 0.873 114 159 129
0.0719895 0.250538 0.666 95 139 112
0.411737 -0.31218 0.842 73 83 42
-0.0722396 0.0502083 0.603 36 111 119
-0.252387 -0.121948 0.521 4 16 6
-0.142471 0.156394 0.589 4 15 13
-0.270613 0.140905 0.544 0 24 24
0.0094233 -0.163048 0.904 108 135 104
-0.00241655 -0.126875 0.93 134 172 142
-0.135565 -0.029632 0.572 2 9 3
-0.165939 0.214061 0.574 2 9 3
-0.200269 -0.168255 0.52 169 240 220
-0.0601465 -0.163411 0.581 131 191 177
0.18944 0.19824 0.621 62 77 48
-0.0677785 0.098943 0.607 10 29 17
-0.262739 -0.111973 0.518 5 17 9
-0.0164792 -0.241276 0.873 69 74 37
-0.154958 -0.00631668 0.568 1 8 2
-0.0577069 0.0759727 0.605 2 9 3
0.401147 -0.318399 0.882 70 80 39
-0.26071 -0.163805 0.514 23 46 42
0.0579825 0.236029 0.721 88 129 105
-0.178998 0.0491427 0.568 0 6 4
0.387324 -0.321413 0.928 72 79 39
-0.100728 -0.0265428 0.586 4 11 3
0.107282 -0.202524 0.923 91 105 67
0.0248329 -0.110228 0.93 152 196 169
-0.068689 -0.3065 0.834 67 70 31
0.183087 0.241419 0.68 121 175 144
0.182544 0.247554 0.717 104 149 119
0.109545 0.251371 0.677 88 130 101
-0.194132 0.213122 0.569 6 10 3
0.109634 0.216001 0.745 19 22 6
0.164199 -0.060478 0.957 164 203 177
-0.190884 -0.0177196 0.549 2 6 1
-0.22459 0.0733066 0.555 5 26 15
-0.261795 -0.0221972 0.528 0 7 1
0.190144 0.178751 0.62 11 24 11
-0.0768803 -0.1076 0.586 6 13 5
-0.208754 0.0960095 0.561 4 28 16
-0.0496115 -0.0408291 0.935 135 181 155
-0.0349685 -0.13453 0.587 66 72 39
-0.240193 -0.123503 0.524 6 15 6
-0.163966 0.217674 0.564 0 7 5
0.246024 0.206272 0.606 31 47 24
-0.12995 -0.00453096 0.576 1 8 2
0.199991 0.196734 0.607 60 71 39
-0.100907 -0.291874 0.831 65 70 33
0.140455 0.0523054 0.914 144 189 157
-0.0841578 0.07683 0.604 9 25 14
-0.229521 -0.0498507 0.539 0 8 1
0.302938 0.0821609 0.868 162 202 173
-0.131606 -0.289345 0.82 65 67 31
0.143981 0.189945 0.711 53 77 47
-0.0391871 -0.0866902 0.593 49 65 44
0.420178 -0.284354 0.821 71 86 43
0.38372 -0.0481764 0.875 185 235 201
0.211347 -0.0799238 0.623 87 89 44
0.0203786 -0.127421 0.934 142 182 151
-0.209829 -0.0900313 0.538 165 252 252
0.365538 -0.345835 0.958 65 71 31
-0.212208 0.0207721 0.551 3 45 44
-0.0826529 0.246222 0.63 35 64 42
0.213956 -0.00275448 0.923 143 197 179
-0.22346 -0.16933 0.513 167 238 218
-0.170977 0.0297843 0.569 4 12 11
0.373721 -0.329211 0.955 68 74 34
-0.027784 0.0523531 0.97 42 49 25
-0.0638024 0.226202 0.705 34 68 46
-0.180889 0.160818 0.574 8 15 7
-0.0562055 0.0776092 0.97 39 43 22
0.247011 0.206272 0.606 33 49 26
0.18992 0.171583 0.616 57 24 9
-0.222551 -0.0610261 0.537 1 7 5
0.361743 0.116135 0.913 169 211 182
0.417505 -0.184151 0.821 79 97 53
0.395736 -0.188825 0.867 82 97 54
0.00220957 0.0348813 0.967 48 60 34
0.187509 0.23681 0.635 60 89 55
0.131429 0.117894 0.738 212 255 254
0.163841 -0.275225 0.92 72 84 47
0.411248 -0.221483 0.841 76 90 50
-0.101682 -0.016053 0.586 4 11 5
0.116894 0.0464701 0.861 39 81 69
-0.173842 -0.132242 0.546 5 12 4
-0.273309 -0.0135791 0.527 0 7 1
0.344853 -0.287026 0.97 66 71 36
0.070586 0.251567 0.663 95 136 112
-0.168767 0.224266 0.675 22 24 11
0.439685 -0.0523283 0.873 168 215 184
-0.26953 -0.0153234 0.528 0 6 4
0.404807 -0.175901 0.839 81 98 59
0.0240804 -0.330362 0.85 70 72 36
-0.149277 0.220428 0.564 0 18 33
-0.218406 -0.159372 0.527 25 49 37
0.298563 0.14585 0.821 140 189 160
-0.00848109 -0.0558049 0.931 153 199 175
0.377666 -0.35845 0.934 71 74 35
-0.108378 0.15005 0.602 19 63 66
-0.168202 -0.189961 0.531 9 17 4
0.0983368 -0.0745417 0.938 188 244 203
-0.263015 -0.0384496 0.527 0 7 1
0.405772 -0.128419 0.841 91 115 74
-0.106305 -0.0659127 0.58 4 11 5
0.105313 -0.0137305 0.858 88 152 155
0.0167067 -0.193083 0.9 84 96 59
-0.169663 -0.156545 0.544 20 36 25
-0.157474 0.212597 0.698 8 24 15
0.087088 -0.162032 0.932 142 180 150
0.365824 -0.267255 0.967 70 76 36
0.381114 -0.192984 0.935 82 96 56
-0.142344 0.225927 0.68 20 40 23
0.301526 0.0793359 0.868 161 201 172
-0.11179 0.0346651 0.589 3 11 8
0.00219586 0.0112069 0.961 57 72 45
0.0448481 -0.0729374 0.937 178 224 196
0.363801 -0.233357 0.97 73 80 40
0.0318099 -0.169129 0.913 114 141 108
0.196913 -0.203755 0.957 82 96 56
-0.25462 0.0627694 0.542 0 20 13
0.185225 -0.0623107 0.986 106 135 101
-0.159725 0.174425 0.582 2 9 1
-0.0772933 0.220647 0.713 31 63 42
0.0877276 0.055559 0.85 43 84 77
-0.188633 -0.142213 0.54 5 14 7
-0.227731 -0.0121791 0.541 0 6 4
-0.230853 -0.125305 0.528 6 15 6
0.391662 -0.0989722 0.91 150 192 163
-0.186587 0.0258054 0.563 34 72 68
0.203164 -0.105715 0.972 92 115 81
-0.151761 0.220037 0.563 4 12 9
0.372166 -0.330765 0.955 67 73 33
-0.268762 -0.10043 0.515 6 21 16
-0.0262258 0.228769 0.713 63 102 78
0.249307 0.174448 0.595 48 61 30
0.169411 0.242137 0.736 30 46 25
0.159424 0.209342 0.718 42 81 46
0.0213363 0.157218 0.91 30 36 17
-0.25252 -0.0327542 0.532 0 7 1
-0.114276 -0.12463 0.568 5 12 4
-0.0478747 -0.0693201 0.593 8 15 7
0.153234 -0.160016 0.947 148 188 157
-0.0556399 0.188723 0.934 20 17 3
0.187758 -0.120783 0.966 114 143 109
0.370997 -0.176353 0.952 94 113 71
-0.064213 0.227038 0.697 36 70 50
-0.19902 -0.29383 0.796 63 68 31
-0.144815 0.0646714 0.583 4 18 9
0.280212 0.130516 0.834 143 185 154
0.166237 -0.243605 0.925 79 88 52
-0.0617643 0.149529 0.616 1 8 2
0.193945 0.140014 0.716 101 150 123
0.361549 0.0464299 0.887 181 234 196
0.398124 -0.168293 0.863 82 99 60
-0.188082 0.152005 0.576 3 22 24
-0.0688946 -0.150691 0.583 6 13 5
-0.0442835 0.197792 0.861 29 20 3
-0.140764 -0.0868854 0.563 136 199 198
0.0474342 0.0457145 0.847 13 25 15
0.0752373 -0.322705 0.882 68 74 34
-0.0841279 -0.0353651 0.59 5 12 4
-0.111178 0.101029 0.596 7 26 16
0.131686 0.250015 0.701 66 106 77
-0.235192 0.0187377 0.544 35 100 100
0.0611655 -0.145036 0.93 149 189 158
-0.198606 0.218191 0.687 9 10 0
0.410894 0.15143 0.808 168 224 195
0.280823 0.0597558 0.892 160 255 84
-0.190009 0.0727886 0.565 5 24 12
0.311416 -0.0181281 0.868 168 209 183
0.296251 0.1273 0.822 147 192 160
0.207122 -0.188968 0.961 83 97 59
-0.169381 0.213688 0.573 4 8 1
-0.242289 -0.117309 0.523 6 15 6
-0.107359 0.0376681 0.591 3 12 5
0.198 0.205648 0.61 62 73 41
-0.167672 -0.0279987 0.558 1 8 2
-0.00496795 0.243302 0.664 65 102 79
-0.273309 -0.0152943 0.527 0 7 1
0.412624 -0.257756 0.83 75 88 46
-0.221772 0.214066 0.557 0 4 0
-0.25252 -0.0310228 0.532 0 7 1
0.379186 -0.271814 0.934 70 83 41
0.13394 0.181197 0.713 62 78 46
0.291768 -0.257565 0.972 72 84 47
0.11067 -0.115879 0.939 180 225 195
0.401862 -0.210111 0.856 79 92 50
-0.173761 0.0222587 0.566 5 49 52
0.388665 -0.215301 0.883 79 93 46
0.08225 -0.219404 0.912 75 84 48
-0.0468303 -0.0480089 0.592 8 15 7
-0.262239 0.163336 0.545 2 9 3
-0.200263 0.165607 0.568 1 8 0
0.215065 -0.19116 0.941 89 103 65
0.0175977 0.0527084 0.948 48 63 36
0.121925 0.113103 0.746 95 164 156
0.0392408 -0.181015 0.913 105 129 97
0.20088 0.163797 0.595 25 42 16
0.403649 0.264435 0.82 118 167 138
-0.0911901 -0.143694 0.574 12 22 8
0.193242 0.209012 0.617 60 78 43
0.18916 0.243393 0.729 99 146 113
-0.158968 -0.119539 0.553 5 12 6
-0.110521 0.141467 0.603 30 72 73
-0.149304 0.0882382 0.582 6 24 18
-0.256135 -0.120021 0.52 4 16 8
-0.113323 0.0541093 0.592 1 8 2
-0.238088 -0.148515 0.525 7 16 7
-0.193907 -0.137819 0.54 5 14 5
0.0572564 0.223471 0.758 74 113 89
0.331707 0.0123358 0.827 186 239 201
-0.226613 0.100395 0.56 5 28 20
-0.0666618 -0.0192689 0.597 9 31 30
0.0329917 -0.0194956 0.866 66 82 59
0.157525 -0.107392 0.945 174 221 188
-0.180816 -0.0608238 0.551 2 9 3
0.124534 0.1406 0.719 39 61 34
0.125005 0.167743 0.715 60 78 45
-0.096021 0.241214 0.644 28 57 37
0.0643548 -0.00113169 0.834 225 255 253
0.000588827 -0.179102 0.896 90 111 73
-0.19228 0.114972 0.569 6 27 16
0.290291 0.121151 0.864 149 189 160
-0.169676 0.0795526 0.574 6 25 15
-0.0186589 -0.141917 0.91 117 146 116
-0.158528 -0.0272363 0.561 1 8 2
-0.106217 0.0184019 0.59 10 23 22
-0.160159 -0.188074 0.533 9 14 4
0.0203046 -0.29853 0.866 70 72 36
-0.240948 0.053361 0.545 0 6 3
0.0933564 -0.128941 0.934 173 212 186
0.090093 0.236701 0.734 26 42 19
-0.0641416 0.134175 0.61 0 9 2
-0.198709 0.0658827 0.561 6 22 13
-0.141238 0.0482932 0.58 1 8 2
-0.210247 0.141146 0.57 2 13 9
-0.249326 0.0504212 0.542 0 6 3
0.351023 0.118479 0.897 165 210 180
-0.122777 0.0172053 0.582 10 29 29
-0.261795 -0.0179011 0.528 0 7 1
-0.135746 -0.0853552 0.565 30 64 70
-0.0740797 0.0599215 0.602 130 200 198
0.375562 -0.268579 0.944 73 80 40
0.120168 0.213442 0.728 30 33 15
-0.208391 0.153204 0.57 2 37 38
0.229477 0.00476594 0.925 169 213 186
0.429246 -0.0636206 0.872 161 205 178
-0.192505 -0.0861314 0.541 69 112 108
-0.238285 -0.00946743 0.537 0 6 4
-0.0596066 0.242338 0.647 58 93 66
-0.00570117 0.21473 0.762 74 118 95
0.322787 -0.0267258 0.872 168 212 185
0.217083 -0.0737223 0.622 49 56 32
0.40049 0.316091 0.819 100 146 118
-0.236994 -0.193306 0.508 12 22 6
-0.206927 0.214691 0.561 1 5 0
-0.257743 -0.0733319 0.525 1 12 8
0.389554 -0.305483 0.912 70 80 39
-0.157084 0.0205247 0.569 3 14 12
0.124222 0.212269 0.724 38 55 27
-0.0205998 -0.260781 0.867 68 73 38
0.39549 0.106089 0.879 180 235 199
-0.021574 -0.146038 0.908 112 141 107
0.408692 -0.105509 0.833 112 142 105
0.0875562 0.219655 0.775 34 55 31
0.195775 -0.217885 0.944 78 90 53
0.17391 -0.325545 0.91 67 76 38
0.204913 -0.188774 0.854 63 72 38
-0.0737159 0.230353 0.68 39 71 50
-0.0668754 0.243014 0.646 51 86 59
-0.00240096 -0.0343342 0.924 151 200 175
-0.199576 0.144005 0.574 3 26 22
-0.175304 0.211138 0.603 8 10 1
0.0754836 -0.188391 0.92 105 127 96
-0.0321655 0.23408 0.691 60 99 73
0.412619 -0.0418011 0.861 184 237 199
-0.195961 -0.144648 0.536 5 14 7
0.0157667 -0.0042934 0.931 95 128 100
0.410854 -0.219266 0.843 78 92 52
0.217706 0.149109 0.583 130 156 116
-0.237729 -0.0909356 0.528 153 241 238
-0.222971 0.0306354 0.551 0 10 6
-0.172534 0.019461 0.565 4 15 13
-0.128524 0.0867174 0.591 6 25 15
-0.183359 -0.156273 0.54 15 29 20
-0.25561 0.209839 0.546 0 8 1
0.422177 -0.0681112 0.875 164 209 179
-0.25685 -0.00851354 0.532 0 6 0
-0.25067 0.0734889 0.543 3 26 18
-0.0913416 0.135268 0.606 10 28 24
0.372299 0.0307243 0.892 186 244 205
0.107799 0.245946 0.709 52 87 60
0.0736342 -0.300492 0.88 69 74 37
-0.273788 -0.0390089 0.523 0 7 4
-0.182205 -0.00802157 0.558 0 7 1
0.130401 -0.146284 0.938 164 206 177
0.163249 0.11876 0.775 138 200 192
-0.259987 0.104609 0.544 6 31 24
0.0746549 0.0743072 0.843 189 248 228
0.280847 0.0770397 0.874 100 177 46
0.405094 -0.236025 0.854 76 89 47
0.0717399 0.0754995 0.841 196 255 240
-0.0673629 -0.165389 0.578 146 210 192
0.0293605 0.148411 0.884 26 39 22
0.418331 -0.302689 0.82 72 84 45
-0.170053 -0.0724803 0.551 6 14 11
-0.12454 -0.00641677 0.577 2 9 3
-0.0509811 0.0594314 0.607 7 11 4
0.258752 0.149586 0.891 189 253 203
-0.0513171 0.127435 0.611 4 8 1
-0.179003 0.14551 0.58 5 19 21
-0.288525 0.20867 0.625 4 18 9
-0.230003 -0.191202 0.509 12 22 8
0.0980538 -0.203584 0.921 86 100 62
-0.215959 -0.0690193 0.538 4 11 5
-0.0771565 -0.173313 0.567 134 195 178
-0.214002 0.0153922 0.551 9 42 44
0.197396 -0.0563891 0.967 101 126 91
-0.201542 -0.0591658 0.544 2 8 6
-0.156117 -0.181621 0.537 6 13 5
-0.141238 0.0464055 0.58 1 8 2
0.149358 -0.117782 0.942 178 223 193
0.0773076 0.022151 0.842 73 124 113
-0.209693 0.172393 0.566 2 6 1
-0.156066 -0.0263702 0.562 1 8 2
-0.235909 0.167836 0.554 0 7 0
-0.278293 0.164474 0.54 0 7 0
0.186831 -0.333695 0.908 67 76 38
-0.215558 -0.0854946 0.537 19 37 35
-0.235373 0.108015 0.557 4 29 22
-0.228436 0.103129 0.56 5 28 20
-0.0459441 -0.056775 0.593 8 15 7
0.0407797 0.0834194 0.852 10 19 12
-0.0478587 0.0680964 0.605 7 11 4
-0.0487307 -0.304967 0.841 68 70 34
-0.197857 -0.0088176 0.551 1 8 2
-0.197292 0.217692 0.557 0 7 1
-0.203395 0.122379 0.569 5 28 20
0.391753 -0.108137 0.9 137 177 146
0.307748 0.154446 0.817 241 255 248
-0.266479 0.0714575 0.541 3 26 20
0.290376 0.0972845 0.877 151 191 162
-0.128775 0.241305 0.62 19 36 22
0.210664 -0.176606 0.817 84 87 46
-0.269619 0.165965 0.542 0 7 1
0.38568 -0.331446 0.935 69 76 36
0.175554 -0.196287 0.951 94 118 86
-0.200348 -0.0364147 0.548 1 8 2
-0.245186 -0.0241421 0.533 0 6 4
-0.264228 -0.0418005 0.526 0 8 1
-0.121441 0.162555 0.594 5 14 7
-0.0157653 -0.138079 0.914 120 151 121
0.37663 -0.261045 0.939 70 83 41
0.334664 0.142217 0.831 159 204 174
0.0637288 -0.230209 0.902 71 80 44
-0.202361 0.0850543 0.561 6 27 16
0.170282 -0.209091 0.939 83 95 58
-0.237186 0.117985 0.557 4 29 22
-0.172143 0.110762 0.576 6 27 16
0.114356 0.00163773 0.863 61 123 117
0.405005 -0.157996 0.831 80 97 58
-0.25712 0.0342901 0.538 0 8 7
0.200186 -0.169275 0.84 83 99 65
0.0407799 -0.259552 0.882 69 74 37
0.186026 0.233409 0.637 65 92 63
0.364436 -0.0488371 0.887 178 228 196
-0.151284 -0.295408 0.811 63 68 31
0.382636 -0.319273 0.935 66 75 39
0.423119 -0.0766924 0.892 161 202 176
0.223078 0.204229 0.6 51 60 26
0.337776 0.132911 0.832 162 203 177
0.135414 -0.0625295 0.941 188 248 204
0.393366 -0.0336658 0.868 187 250 207
0.131605 -0.219521 0.925 79 88 52
-0.182043 -0.0474599 0.552 3 7 2
-0.257497 -0.0479741 0.528 0 8 5
0.315453 -0.276697 0.967 71 81 40
0.290186 -0.227511 0.972 76 89 47
-0.235582 -0.29578 0.784 62 67 30
-0.0647074 0.0721536 0.606 12 31 19
0.116565 0.111953 0.869 200 255 253
-0.0935731 -0.0285956 0.589 5 12 4
0.0501879 -0.160467 0.923 129 165 133
0.157358 -0.10267 0.944 174 221 188
-0.209341 -0.0840588 0.539 12 30 26
0.409942 0.27395 0.801 118 167 138
0.11008 -0.1487 0.934 163 200 175
0.199642 -0.104776 0.978 92 115 81
0.0977506 0.245614 0.695 72 107 80
-0.0323868 0.0458492 0.966 44 48 25
-0.225592 -0.0532602 0.538 0 8 1
-0.049005 0.0594314 0.607 7 11 4
0.307387 -0.32183 0.947 65 74 36
0.00499761 -0.164155 0.902 107 134 101
0.400001 -0.148645 0.855 84 101 62
0.060788 0.139823 0.841 13 32 22
-0.0912094 -0.175695 0.557 6 17 15
0.0781176 -0.0160993 0.836 244 255 254
-0.0369424 -0.126148 0.588 46 50 25
0.0618706 -0.184994 0.918 106 130 98
0.130487 0.0972845 0.877 42 81 70
0.383061 -0.29629 0.925 72 78 41
-0.164947 -0.0270906 0.558 1 8 2
0.400936 -0.217329 0.857 78 93 50
-0.247486 0.015029 0.538 36 75 80
-0.106397 0.0405534 0.591 1 10 3
0.0202913 -0.0769327 0.93 164 208 183
-0.230004 -0.089893 0.532 159 248 238
0.383985 -0.258757 0.92 74 84 43
0.316432 -0.27282 0.97 70 80 39
0.232991 0.0621005 0.927 158 197 171
-0.02585 0.238934 0.673 70 111 87
-0.198033 -0.0346943 0.549 3 7 2
0.286186 0.129659 0.82 147 189 158
0.0566848 -0.096711 0.931 175 219 192
-0.168742 0.0646072 0.574 5 18 13
0.20238 -0.0700369 0.939 118 154 122
0.288275 0.121706 0.858 148 188 159
0.360271 -0.255193 0.969 72 78 38
-0.00965727 0.208646 0.781 66 110 85
-0.238739 0.0213148 0.542 23 75 82
-0.22028 0.0189788 0.551 0 38 39
-0.0665813 0.234152 0.675 38 70 49
0.395818 0.0798181 0.858 186 254 207
0.350335 -0.0425779 0.877 179 226 195
0.353932 -0.207768 0.991 75 88 46
0.387835 -0.224501 0.891 78 91 47
-0.0795609 -0.000812809 0.599 11 18 12
-0.205068 -0.107341 0.537 4 16 6
0.032437 -0.113376 0.931 155 196 170
-0.200834 0.109031 0.567 7 27 20
0.299082 -0.293476 0.95 69 75 38
-0.220686 -0.0447533 0.541 1 8 2
0.419352 -0.290051 0.822 71 86 43
-0.159543 -0.0856508 0.555 37 77 77
-0.0659676 0.23146 0.68 40 72 53
-0.166873 0.0767503 0.574 5 24 14
-0.249951 -0.107947 0.523 5 17 7
0.396538 -0.101256 0.891 141 183 152
0.398031 0.230423 0.842 132 179 146
-0.119102 -0.163618 0.556 147 211 193
-0.253722 -0.102644 0.522 6 18 8
0.338125 0.000227935 0.843 186 238 203
0.135843 -0.0458114 0.913 183 243 199
0.0301909 -0.180222 0.909 100 122 91
0.0353233 0.238577 0.691 91 130 104
0.105012 -0.325998 0.891 68 74 37
-0.0786473 0.0979552 0.607 7 26 16
-0.0464348 -0.109694 0.587 9 14 4
-0.00358808 -0.314776 0.849 68 73 36
-0.175691 -0.0963391 0.549 135 200 200
0.0218052 -0.104174 0.93 153 197 170
-0.180621 -0.0947503 0.545 167 251 249
0.314709 0.269793 0.702 48 66 43
-0.205478 0.213939 0.611 8 10 1
0.157014 0.256202 0.687 108 159 129
0.281563 -0.309613 0.938 69 78 40
-0.0898076 0.221185 0.711 32 61 43
-0.262239 0.161562 0.545 4 13 6
0.128176 -0.0281126 0.871 73 124 115
0.1973 0.218986 0.614 53 66 33
-0.0939931 -0.0904512 0.574 152 225 220
-0.194904 0.139334 0.574 3 14 10
0.385791 0.103698 0.883 176 231 195
-0.102224 -0.124795 0.573 16 30 19
-0.210481 -0.129961 0.533 4 13 4
0.201972 -0.1465 0.764 62 86 56
-0.0961219 -0.0409167 0.587 4 11 3
0.398873 0.100139 0.877 178 236 197
-0.211818 -0.130583 0.532 5 14 5
