ply
format ascii 1.0
comment Created by Open3D
element vertex 1281
property double x
property double y
property double z
property uchar red
property uchar green
property uchar blue
end_header
0.170644 -0.0854993 0.941 0 0 0
0.123043 0.139222 0.724 255 255 255
0.347326 0.140835 0.745 255 255 255
-0.254874 -0.0752804 0.493 255 255 255
0.183378 0.0910824 0.665 255 255 255
0.0526805 -0.18349 0.889 255 255 255
-0.234741 0.171174 0.562 255 255 255
0.136797 0.177498 0.681 255 255 255
-0.0396497 0.210088 0.6 255 255 255
-0.127976 -0.0125727 0.602 255 255 255
-0.257124 -0.0101872 0.529 255 255 255
0.0877661 -0.00820246 0.864 255 255 255
-0.201142 -0.168585 0.467 255 255 255
-0.146062 -0.0418057 0.573 255 255 255
-0.196062 0.0248247 0.583 255 255 255
0.208852 0.128737 0.681 255 255 255
0.036748 0.0169276 0.855 255 255 255
-0.140905 -0.104233 0.539 255 255 255
0.153958 -0.0273383 0.942 255 255 255
-0.111568 0.0291973 0.637 255 255 255
0.0670006 -0.340412 0.887 255 255 255
0.387886 0.119371 0.832 255 255 255
-0.296377 0.122095 0.59 255 255 255
-0.180815 0.0987262 0.696 255 255 255
0.136216 0.0295937 0.695 255 255 255
0.18426 0.13403 0.697 255 255 255
-0.228059 -0.146045 0.463 255 255 255
0.431908 -0.0731112 0.92 255 255 255
-0.207088 -0.0723542 0.518 255 255 255
0.00042059 -0.0602334 0.64 255 255 255
0.129661 0.137491 0.715 255 255 255
-0.223376 -0.169055 0.452 255 255 255
0.300418 0.173978 0.698 255 255 255
-0.210218 0.0654715 0.599 255 255 255
0.0827897 -0.129524 0.886 255 255 255
0.269374 -0.259408 0.709 255 255 255
0.206963 -0.0870159 0.851 255 255 255
-0.196087 0.176082 0.572 255 255 255
-0.267532 0.0390565 0.556 255 255 255
-0.146995 0.190377 0.573 255 255 255
0.00154921 0.00900995 0.678 255 255 255
0.323939 0.139998 0.747 255 255 255
0.331604 0.212786 0.65 255 255 255
-0.203789 0.0236712 0.578 255 255 255
-0.0340524 -0.203598 0.542 255 255 255
0.319146 -0.233522 0.84 255 255 255
-0.0585654 0.169027 0.614 255 255 255
-0.108287 0.0229416 0.636 255 255 255
-0.210085 -0.153607 0.47 255 255 255
0.0834783 -0.201484 0.849 255 255 255
-0.214997 0.17606 0.563 255 255 255
-0.0695334 -0.186153 0.53 255 255 255
-0.174534 0.177875 0.584 255 255 255
-0.180812 0.193235 0.565 255 255 255
-0.19982 -0.0346943 0.549 255 255 255
0.166712 0.171871 0.672 255 255 255
0.383409 -0.209663 0.843 255 255 255
-0.103922 -0.0921162 0.567 255 255 255
0.276068 0.121121 0.766 255 255 255
0.22639 0.189496 0.661 255 255 255
-0.228926 -0.102521 0.489 255 255 255
-0.0986569 -0.0129695 0.621 255 255 255
0.110383 0.0828971 0.726 255 255 255
-0.113688 -0.0349298 0.599 255 255 255
-0.219656 -0.0140429 0.545 255 255 255
0.0842904 0.111075 0.757 255 255 255
-0.161071 0.0586864 0.62 255 255 255
0.379065 0.0361438 1.002 255 255 255
-0.227937 0.146959 0.582 255 255 255
0.414387 -0.100169 0.921 255 255 255
0.123771 0.164182 0.695 255 255 255
0.142268 0.108471 0.686 255 255 255
0.136083 0.0581406 0.672 255 255 255
-0.120423 -0.182519 0.488 255 255 255
-0.0358025 -0.108398 0.601 255 255 255
-0.20077 0.0497087 0.597 255 255 255
0.192249 -0.272794 0.927 255 255 255
0.423525 -0.272696 0.869 255 255 255
0.017577 0.145066 0.701 255 255 255
0.288681 0.0847886 0.812 255 255 255
0.370005 -0.125293 0.897 255 255 255
-0.163416 0.0362284 0.599 255 255 255
-0.161596 -0.165725 0.49 255 255 255
-0.28667 0.148707 0.567 255 255 255
-0.207681 -0.149057 0.475 255 255 255
0.340922 0.0761583 0.864 255 255 255
0.382595 -0.102967 1.007 255 255 255
-0.117143 -0.0456929 0.587 255 255 255
-0.203687 0.201472 0.545 255 255 255
-0.033375 -0.0643161 0.629 255 255 255
0.198434 0.1512 0.703 255 255 255
-0.142327 -0.116712 0.528 255 255 255
0.41348 -0.0365265 0.983 255 255 255
-0.203131 -0.103206 0.504 255 255 255
0.394857 -0.131626 0.862 255 255 255
-0.0854708 -0.155694 0.538 255 255 255
-0.301946 0.0993412 0.575 255 255 255
-0.246942 -0.0835936 0.49 255 255 255
0.42057 -0.0781736 0.945 255 255 255
0.168364 -0.125109 0.963 255 255 255
-0.00457787 0.0740206 0.782 255 255 255
-0.126757 0.0264002 0.62 0 0 0
-0.195923 0.00672879 0.577 255 255 255
0.202863 0.0835072 0.665 255 255 255
0.330078 -0.227198 0.847 255 255 255
0.447814 -0.0923177 0.875 255 255 255
-0.0779267 -0.199255 0.517 255 255 255
-0.262037 -0.0518354 0.499 255 255 255
0.185241 0.160289 0.688 255 255 255
-0.0272557 0.102698 0.741 255 255 255
-0.104882 -0.00985779 0.616 0 0 0
0.390241 -0.03681 1.036 255 255 255
0.376132 -0.177422 0.827 255 255 255
-0.0819594 0.0921718 0.734 255 255 255
0.2882 -0.144257 0.925 255 255 255
-0.0319954 -0.108759 0.603 255 255 255
-0.297615 0.146344 0.565 255 255 255
-0.216693 -0.00792094 0.551 255 255 255
0.280297 -0.239927 0.696 255 255 255
0.105482 0.232069 0.609 255 255 255
-0.059883 -0.00828636 0.65 255 255 255
-0.0350004 -0.0435695 0.64 255 255 255
-0.229558 -0.0410224 0.527 255 255 255
0.238622 -0.249953 0.831 255 255 255
-0.193864 -0.125528 0.495 255 255 255
0.419336 -0.0922649 0.932 255 255 255
-0.236834 -0.122259 0.473 255 255 255
-0.00750549 0.137827 0.699 255 255 255
-0.147928 -0.0399408 0.573 0 0 0
0.138918 -0.202768 0.904 255 255 255
-0.00446664 0.0871219 0.763 255 255 255
0.0738655 -0.0491066 0.739 255 255 255
-0.14183 -0.121565 0.523 255 255 255
0.0979862 -0.168744 0.88 0 0 0
-0.241752 0.199517 0.535 255 255 255
-0.201574 -0.074183 0.519 255 255 255
-0.249871 0.095243 0.615 255 255 255
0.205267 -0.175985 0.967 255 255 255
0.389732 0.136399 0.797 255 255 255
0.296017 0.0995685 0.814 255 255 255
-0.201185 -0.0807837 0.518 255 255 255
-0.100884 0.212932 0.576 255 255 255
-0.0455936 0.0923408 0.745 255 255 255
-0.274418 0.109662 0.623 255 255 255
-0.112174 -0.0665946 0.586 255 255 255
0.234751 0.130568 0.709 255 255 255
0.376494 0.0071797 1.059 255 255 255
-0.139488 -0.182519 0.488 255 255 255
-0.104387 -0.0434838 0.596 255 255 255
-0.234343 -0.136838 0.465 255 255 255
0.14039 -0.328866 0.954 255 255 255
0.0598946 0.124932 0.73 255 255 255
-0.252289 -0.064016 0.499 255 255 255
-0.202583 -0.089187 0.513 255 255 255
-0.0886828 0.125934 0.644 255 255 255
0.182715 -0.0676781 0.888 255 255 255
-0.218663 0.17606 0.563 255 255 255
-0.212894 0.108843 0.63 255 255 255
0.228441 0.140848 0.631 255 255 255
-0.22499 -0.129459 0.474 255 255 255
-0.19621 -0.147026 0.481 255 255 255
-0.220216 0.0186072 0.567 255 255 255
0.368768 0.0796291 0.887 255 255 255
-0.251855 -0.0563437 0.503 255 255 255
-0.150943 -0.0651885 0.55 255 255 255
-0.0986001 -0.162728 0.524 255 255 255
0.392375 -0.113191 0.955 255 255 255
-0.0186182 -0.0400193 0.65 255 255 255
0.143084 0.203453 0.654 255 255 255
-0.19524 0.0653582 0.607 255 255 255
-0.177041 -0.0876644 0.529 255 255 255
0.211863 -0.277717 0.854 255 255 255
-0.108359 0.184206 0.586 255 255 255
-0.23631 0.0442875 0.577 255 255 255
0.305053 0.186646 0.678 255 255 255
0.306967 0.125074 0.791 255 255 255
-0.127766 0.0264002 0.62 0 0 0
-0.263635 0.189776 0.537 255 255 255
0.264301 -0.242647 0.714 0 0 0
-0.18273 -0.0504981 0.546 255 255 255
0.211863 -0.220488 0.983 255 255 255
-0.128367 -0.184902 0.488 255 255 255
0.0508001 0.0736783 0.792 255 255 255
-0.260115 0.175828 0.548 255 255 255
0.0670726 0.201113 0.63 255 255 255
0.0211834 0.219815 0.608 255 255 255
-0.0783882 0.171472 0.605 255 255 255
0.0937549 -0.0326574 0.842 255 255 255
-0.0821425 -0.134906 0.557 255 255 255
0.432061 -0.0557449 0.93 255 255 255
-0.227529 -0.118064 0.481 255 255 255
-0.0307851 0.184229 0.639 255 255 255
-0.176229 -0.103743 0.519 255 255 255
0.185574 0.219858 0.625 255 255 255
0.273963 -0.25878 1.083 255 255 255
-0.0649281 -0.137763 0.565 255 255 255
0.22202 0.171601 0.684 255 255 255
-0.250387 0.0853203 0.588 255 255 255
0.101486 0.0320902 0.816 255 255 255
-0.175583 -0.142497 0.498 255 255 255
-0.248627 -0.113551 0.472 255 255 255
-0.129048 0.204938 0.572 255 255 255
-0.181894 0.105364 0.64 255 255 255
0.0746402 -0.146426 0.875 255 255 255
0.204737 0.136715 0.705 255 255 255
-0.125655 -0.137736 0.523 255 255 255
0.177871 0.116963 0.677 255 255 255
-0.210884 -0.139593 0.477 255 255 255
-0.034075 -0.156225 0.572 255 255 255
-0.154007 -0.0708042 0.545 255 255 255
-0.20986 -0.175326 0.453 255 255 255
-0.0906107 0.113681 0.658 255 255 255
-0.257836 -0.0725779 0.491 255 255 255
-0.136611 0.215604 0.561 255 255 255
0.237935 0.190531 0.603 255 255 255
-0.111057 -0.0986622 0.552 255 255 255
0.0165965 -0.0332254 0.98 255 255 255
-0.0868197 -0.0935784 0.576 255 255 255
-0.0721578 -0.118245 0.564 255 255 255
-0.124761 -0.0844423 0.553 255 255 255
-0.164592 0.1953 0.563 255 255 255
0.181538 -0.0863832 0.934 0 0 0
-0.184407 0.0909237 0.68 255 255 255
-0.0515691 0.176022 0.614 255 255 255
-0.269984 0.155904 0.563 255 255 255
-0.0958579 -0.169226 0.523 255 255 255
0.0636688 0.0898691 0.776 255 255 255
0.420192 -0.143288 0.848 255 255 255
0.459144 0.0397874 0.9 255 255 255
0.27513 0.162185 0.706 255 255 255
-0.204775 -0.108896 0.5 255 255 255
-0.0951042 -0.137701 0.543 255 255 255
0.417033 -0.17544 0.85 255 255 255
0.144012 0.0315807 0.689 255 255 255
0.395315 -0.123353 0.863 255 255 255
-0.226148 -0.000746319 0.55 255 255 255
0.293787 0.0640135 0.834 255 255 255
0.212884 -0.0645533 0.847 255 255 255
0.330011 -0.203617 1.027 255 255 255
-0.235571 -0.0809063 0.498 255 255 255
-0.211271 0.180853 0.558 255 255 255
0.0257534 0.162994 0.676 255 255 255
-0.252484 0.158491 0.569 255 255 255
-0.159292 -0.0926641 0.533 255 255 255
-0.00451156 -0.126422 0.603 255 255 255
-0.217712 0.154004 0.58 255 255 255
-0.237378 0.206577 0.533 255 255 255
0.070175 -0.0841235 0.751 255 255 255
0.0457862 0.102998 0.752 255 255 255
0.420081 -0.318793 0.845 255 255 255
-0.161683 -0.0817295 0.541 255 255 255
0.260415 0.2362 0.612 255 255 255
0.386747 -0.118554 0.869 255 255 255
0.164955 -0.307528 0.98 255 255 255
0.127173 0.227045 0.628 255 255 255
0.0934095 -0.339047 0.891 255 255 255
-0.196048 0.0900217 0.642 255 255 255
0.287939 -0.224302 0.857 255 255 255
0.0391606 -0.0444353 0.947 255 255 255
-0.214689 -0.16795 0.457 255 255 255
-0.304151 0.126851 0.581 255 255 255
0.0600769 0.224877 0.611 255 255 255
-0.110726 -0.145955 0.513 255 255 255
-0.126698 0.154029 0.61 255 255 255
-0.00441981 0.0960375 0.755 255 255 255
0.131036 -0.342969 0.921 255 255 255
0.0620331 -0.122639 0.878 255 255 255
0.399469 -0.0566861 1 255 255 255
0.287989 -0.210911 0.69 255 255 255
-0.000558114 -0.17108 0.575 255 255 255
-0.185911 0.0329705 0.593 255 255 255
-0.13869 -0.128619 0.524 255 255 255
0.426616 -0.0638566 0.938 255 255 255
-0.168326 0.0644268 0.617 255 255 255
-0.206726 -0.081154 0.515 255 255 255
-0.109702 0.203325 0.578 255 255 255
0.127901 0.0682862 0.675 255 255 255
-0.236537 0.162403 0.573 255 255 255
0.0124602 0.049232 0.814 255 255 255
0.439846 -0.105614 0.879 255 255 255
0.0911714 0.0277965 0.807 255 255 255
0.329218 -0.147681 0.874 255 255 255
0.144855 0.146832 0.704 255 255 255
0.127396 0.203266 0.65 255 255 255
-0.19106 -0.127687 0.494 255 255 255
-0.0311167 -0.107151 0.605 255 255 255
-0.180166 -0.141639 0.495 255 255 255
-0.19825 -0.133528 0.486 255 255 255
0.0941146 -0.153687 0.884 0 0 0
-0.024945 0.0663851 0.782 255 255 255
-0.114861 -0.0478467 0.59 255 255 255
-0.076319 0.079429 0.749 255 255 255
-0.19438 0.0152058 0.578 255 255 255
0.405122 -0.135046 0.857 255 255 255
0.00859389 -0.028354 0.977 255 255 255
-0.262721 0.180517 0.546 255 255 255
-0.141692 0.187335 0.578 255 255 255
0.10153 0.158359 0.675 255 255 255
-0.249729 -0.0327984 0.519 255 255 255
-0.126322 -0.119552 0.533 255 255 255
0.0697842 0.0527888 0.788 255 255 255
0.00592864 0.163608 0.674 255 255 255
0.0655658 -0.29423 0.928 255 255 255
-0.270548 0.133208 0.584 255 255 255
0.149394 -0.335923 0.952 255 255 255
-0.301999 0.122221 0.586 255 255 255
0.398472 0.0729938 0.951 255 255 255
-0.109717 -0.00784017 0.615 255 255 255
-0.125188 -0.0593058 0.58 255 255 255
0.329646 0.0362982 0.923 255 255 255
0.246477 -0.0409758 0.844 255 255 255
0.37034 -0.169317 0.854 255 255 255
-0.174983 0.194729 0.564 255 255 255
0.11077 -0.23267 0.857 255 255 255
-0.063309 0.208287 0.584 255 255 255
0.434287 -0.174876 0.854 255 255 255
-0.0457343 -0.0480149 0.63 255 255 255
-0.181339 -0.119025 0.505 255 255 255
-0.22386 -0.0883771 0.499 255 255 255
-0.0477094 -0.0499858 0.629 255 255 255
-0.190286 -0.130372 0.492 255 255 255
0.138546 -0.0353746 0.952 255 255 255
-0.238092 -0.153608 0.452 255 255 255
0.274649 -0.166836 0.925 255 255 255
-0.220941 -0.121447 0.482 255 255 255
-0.0347817 0.183364 0.636 255 255 255
0.357263 -0.147263 0.88 255 255 255
0.0268567 -0.181783 0.948 255 255 255
0.259908 -0.0358182 0.852 255 255 255
0.15641 -0.086953 0.957 255 255 255
-0.101098 -0.176694 0.515 255 255 255
0.452091 0.0963162 0.937 255 255 255
0.367885 0.0845363 0.878 255 255 255
-0.143764 -0.0410159 0.575 255 255 255
0.0271693 0.108101 0.745 255 255 255
0.0431031 0.155468 0.672 255 255 255
-0.197467 -0.0588368 0.533 255 255 255
-0.188444 0.174769 0.58 255 255 255
0.410739 -0.324452 0.86 255 255 255
-0.0414339 0.181789 0.627 255 255 255
0.0845599 -0.180303 0.86 0 0 0
-0.218816 0.0253313 0.573 255 255 255
0.137417 0.144006 0.707 255 255 255
-0.0961546 -0.174179 0.52 0 0 0
0.36539 -0.227014 0.862 255 255 255
-0.16569 0.103837 0.65 255 255 255
0.383362 -0.167462 0.831 255 255 255
-0.309468 0.118856 0.593 255 255 255
-0.172004 -0.107966 0.519 255 255 255
0.408904 -0.338524 0.871 255 255 255
0.4286 -0.0379477 0.939 255 255 255
0.165498 0.12539 0.719 255 255 255
-0.236066 -0.0266941 0.532 255 255 255
0.236018 -0.232432 0.841 255 255 255
-0.126893 -0.174337 0.501 255 255 255
0.0621417 0.20278 0.632 255 255 255
0.157031 0.00313779 0.609 255 255 255
-0.192507 0.206285 0.546 255 255 255
0.266074 -0.0320675 0.863 255 255 255
0.345678 0.100914 0.825 255 255 255
0.19066 0.212739 0.625 255 255 255
-0.0869956 -0.104846 0.571 255 255 255
-0.0413096 0.0331359 0.675 255 255 255
-0.265957 -0.0168159 0.521 255 255 255
0.105491 -0.192531 0.871 0 0 0
-0.156602 -0.108154 0.524 255 255 255
0.163129 -0.0236025 0.916 255 255 255
0.0463646 0.000237669 0.879 255 255 255
-0.287289 0.154437 0.561 255 255 255
0.43963 -0.00126196 0.93 255 255 255
0.336245 0.241807 0.657 255 255 255
0.167316 -0.208815 0.966 255 255 255
0.210786 -0.225732 0.978 255 255 255
0.237971 -0.255561 0.752 255 255 255
-0.128319 0.11946 0.643 255 255 255
0.0361342 0.210359 0.627 255 255 255
-0.2133 -0.0989336 0.499 255 255 255
-0.114796 -0.12288 0.54 255 255 255
-0.284092 0.0586439 0.553 255 255 255
-0.248248 -0.0296468 0.523 255 255 255
0.152319 0.159823 0.686 255 255 255
-0.0458048 -0.203581 0.535 255 255 255
-0.23672 0.0453049 0.578 255 255 255
0.106695 0.00430738 0.836 255 255 255
0.0857757 0.208008 0.617 255 255 255
-0.20577 0.134282 0.606 255 255 255
-0.0758707 0.00335419 0.651 255 255 255
0.427838 -0.0666242 0.934 255 255 255
0.418156 -0.0677655 0.95 255 255 255
0.0655894 -0.193422 0.85 255 255 255
0.0370195 0.104885 0.748 255 255 255
-0.159629 -0.0855662 0.543 255 255 255
0.209631 -0.0451496 0.845 255 255 255
0.168931 0.158509 0.69 255 255 255
0.0615013 -0.333248 0.891 255 255 255
0.343101 0.177131 0.697 255 255 255
0.404325 -0.0817307 0.988 255 255 255
-0.19968 0.165414 0.577 255 255 255
-0.202004 0.190718 0.555 255 255 255
0.0416121 -0.329291 0.9 255 255 255
-0.106672 -0.074664 0.582 255 255 255
-0.243949 -0.127274 0.466 255 255 255
0.406345 -0.0560626 0.989 255 255 255
0.0535694 -0.0585998 0.904 255 255 255
-0.139142 -0.150848 0.507 255 255 255
-0.0301588 -0.072159 0.626 255 255 255
0.143267 0.0153182 0.843 0 0 0
-0.215621 0.151694 0.582 255 255 255
0.325193 0.160762 0.715 255 255 255
-0.192824 0.0935272 0.667 255 255 255
-0.224024 -0.00430284 0.547 255 255 255
-0.0991862 -0.0169296 0.618 255 255 255
0.224824 -0.264509 0.83 255 255 255
0.0685454 0.132778 0.721 255 255 255
-0.219475 0.131654 0.603 255 255 255
-0.0750426 0.15806 0.618 255 255 255
0.121519 0.121202 0.729 255 255 255
-0.149046 0.0248998 0.608 255 255 255
-0.0452307 0.156717 0.668 255 255 255
-0.0872447 0.107315 0.665 255 255 255
-0.119686 -0.174085 0.505 255 255 255
0.221344 0.18655 0.662 255 255 255
-0.210136 0.0564146 0.596 255 255 255
0.422269 -0.184821 0.855 255 255 255
0.0412177 -0.277926 0.924 255 255 255
0.220112 -0.0464146 0.843 255 255 255
0.400031 0.00690173 1.018 255 255 255
0.235747 0.227702 0.595 255 255 255
-0.225611 -0.10765 0.487 255 255 255
0.171547 0.18728 0.657 255 255 255
0.222344 0.128378 0.685 0 0 0
0.306422 -0.208379 1.145 255 255 255
0.398143 -0.149861 0.854 255 255 255
0.237541 0.195114 0.602 255 255 255
-0.144347 -0.151897 0.505 255 255 255
0.0189604 0.00447741 0.869 255 255 255
0.146011 0.0153182 0.843 0 0 0
-0.26685 0.0776844 0.574 255 255 255
0.453877 0.0505956 0.91 255 255 255
-0.132696 -0.151258 0.514 255 255 255
-0.0795025 -0.114574 0.564 255 255 255
0.0026333 -0.0118651 0.673 255 255 255
-0.0520732 0.0857517 0.751 255 255 255
0.0846612 0.16326 0.655 255 255 255
-0.011995 -0.155968 0.585 255 255 255
-0.0371131 0.189754 0.623 255 255 255
-0.0394465 -0.0854841 0.612 255 255 255
0.121318 -0.0126936 0.883 255 255 255
-0.0034773 0.226353 0.594 255 255 255
0.0412609 -0.0653543 0.96 255 255 255
0.0328393 0.0114551 0.862 255 255 255
-0.167673 -0.00361858 0.58 255 255 255
-0.0566585 -0.0648862 0.615 255 255 255
-0.0457343 -0.0469896 0.63 255 255 255
0.16972 0.216436 0.642 255 255 255
-0.0993199 0.0285143 0.645 255 255 255
-0.262186 0.161114 0.562 255 255 255
0.235202 -0.0779579 0.858 0 0 0
-0.0735351 -0.177999 0.534 255 255 255
-0.128581 0.106767 0.655 255 255 255
-0.128327 -0.100806 0.549 255 255 255
-0.157818 0.0897859 0.715 255 255 255
-0.0552155 0.130814 0.698 255 255 255
0.316527 -0.23483 0.691 255 255 255
-0.0872649 -0.0386756 0.612 255 255 255
0.185191 0.0508621 0.692 255 255 255
0.167835 -0.294615 0.969 255 255 255
0.30463 -0.226763 0.687 255 255 255
-0.0247177 0.00346239 0.672 255 255 255
-0.228744 0.174228 0.563 255 255 255
-0.179919 0.213554 0.551 255 255 255
0.169689 0.115947 0.684 255 255 255
0.0768609 0.213373 0.618 255 255 255
-0.0935083 -0.14061 0.544 255 255 255
-0.0164524 -0.110832 0.609 255 255 255
0.121931 -0.152116 0.909 255 255 255
0.277581 0.224285 0.626 255 255 255
0.0378793 0.114756 0.741 255 255 255
0.433036 0.00945236 0.942 255 255 255
-0.0734388 0.198568 0.589 255 255 255
0.356639 -0.146163 0.882 255 255 255
-0.202113 -0.00169507 0.568 255 255 255
-0.0164512 -0.0451687 0.648 255 255 255
0.0283699 -0.184674 0.947 255 255 255
0.0738655 0.121662 0.739 255 255 255
-0.0464602 -0.0237812 0.64 255 255 255
-0.158778 -0.012155 0.582 255 255 255
-0.0716426 0.197945 0.59 255 255 255
-0.264821 0.121033 0.599 255 255 255
0.049886 -0.0893882 0.798 255 255 255
-0.0600783 -0.170448 0.546 255 255 255
0.412367 -0.0222421 0.988 255 255 255
0.0705975 -0.323453 0.896 255 255 255
-0.246285 0.179232 0.553 255 255 255
0.0481579 -0.316218 0.913 255 255 255
-0.220411 -0.0789123 0.506 255 255 255
0.297934 0.111216 0.812 255 255 255
0.284572 -0.0147707 0.923 255 255 255
-0.247188 0.182171 0.551 255 255 255
0.263523 -0.249193 1.022 255 255 255
0.319456 -0.178124 0.863 255 255 255
-0.122614 -0.0298552 0.595 255 255 255
0.0597441 0.133813 0.714 255 255 255
-0.202794 0.0354422 0.586 255 255 255
-0.136513 -0.0476487 0.576 255 255 255
-0.0685283 -0.0974417 0.588 255 255 255
0.0295008 -0.218617 0.934 255 255 255
-0.189298 -0.0407989 0.547 255 255 255
-0.0147074 0.202638 0.619 255 255 255
-0.206014 -0.00897763 0.561 255 255 255
-0.210117 0.106439 0.634 255 255 255
0.44904 0.0551464 0.937 255 255 255
0.270781 -0.0116901 0.917 255 255 255
-0.0371386 -0.167212 0.562 255 255 255
0.24088 0.199363 0.603 0 0 0
0.130606 0.0193876 0.841 0 0 0
-0.214676 -0.114127 0.491 255 255 255
-0.263091 0.0742057 0.576 255 255 255
-0.146379 0.204069 0.567 255 255 255
0.211841 0.0847165 0.666 255 255 255
0.373785 0.12106 0.816 255 255 255
-0.131247 -0.100095 0.55 255 255 255
-0.261748 -0.050312 0.5 255 255 255
-0.217106 -0.150346 0.467 255 255 255
-0.165598 0.146357 0.607 255 255 255
0.209083 -0.0887124 0.854 255 255 255
-0.228527 -0.161699 0.452 255 255 255
-0.225738 0.030046 0.574 255 255 255
-0.226889 -0.018274 0.539 255 255 255
0.21907 -0.0804681 0.855 0 0 0
-0.147569 0.152033 0.606 255 255 255
-0.225584 -0.164642 0.452 255 255 255
0.260312 0.178727 0.657 255 255 255
-0.298555 0.12539 0.583 255 255 255
-0.205051 0.152997 0.587 255 255 255
0.310768 0.0926027 0.811 255 255 255
0.277538 0.21472 0.64 255 255 255
-0.17062 0.0994829 0.678 255 255 255
0.424323 -0.124612 0.862 255 255 255
-0.233815 -0.0400124 0.525 0 0 0
0.30098 0.116953 0.806 255 255 255
-0.145042 -0.0881377 0.548 255 255 255
-0.113119 0.0947978 0.684 255 255 255
-0.207955 -0.132937 0.481 255 255 255
-0.249747 0.121261 0.605 255 255 255
-0.264645 0.1711 0.55 255 255 255
0.0303306 0.182725 0.656 255 255 255
0.137784 0.152344 0.703 255 255 255
-0.115897 0.124761 0.638 255 255 255
0.210786 -0.227324 0.978 255 255 255
-0.0765835 0.114591 0.676 255 255 255
-0.229568 -0.036013 0.529 255 255 255
-0.223541 0.189205 0.548 255 255 255
-0.170947 0.136607 0.612 255 255 255
0.205695 -0.27803 0.9 255 255 255
0.0828968 0.222424 0.618 255 255 255
0.0443844 0.105025 0.749 255 255 255
-0.217166 0.138389 0.594 255 255 255
0.138372 -0.172278 0.93 255 255 255
0.437067 -0.251312 0.854 255 255 255
0.118417 0.185077 0.653 255 255 255
-0.0319074 0.105741 0.737 255 255 255
-0.165152 0.0437706 0.609 255 255 255
-0.223513 0.0185744 0.566 255 255 255
0.45289 0.0599384 0.917 255 255 255
-0.164325 -0.0641218 0.541 255 255 255
-0.218925 -0.11343 0.488 255 255 255
-0.0723977 0.138575 0.63 255 255 255
0.163674 0.169937 0.673 255 255 255
-0.00189686 0.117804 0.73 255 255 255
-0.144826 -0.0701703 0.554 255 255 255
0.112516 -0.171237 0.893 255 255 255
-0.0789448 -0.0283093 0.625 255 255 255
-0.186337 -0.178847 0.468 255 255 255
0.0110258 0.0566179 0.806 255 255 255
-0.218333 -0.14686 0.468 255 255 255
0.165237 -0.0385538 0.954 255 255 255
-0.169145 0.130321 0.62 255 255 255
-0.177821 0.16767 0.595 255 255 255
-0.302073 0.121681 0.588 255 255 255
-0.108385 0.206371 0.576 255 255 255
-0.0619648 0.161077 0.618 255 255 255
0.187257 0.137667 0.704 255 255 255
0.455136 0.0104372 0.895 255 255 255
-0.260356 0.0495381 0.562 255 255 255
-0.25048 0.106791 0.624 255 255 255
0.318925 0.141285 0.741 255 255 255
-0.0564408 0.178459 0.602 255 255 255
0.194061 -0.288448 0.887 255 255 255
0.176543 -0.24812 0.948 255 255 255
-0.0500908 0.081617 0.758 255 255 255
0.144324 -0.315439 0.97 255 255 255
-0.0154799 -0.169553 0.573 255 255 255
0.272586 0.237125 0.617 255 255 255
-0.0200644 -0.0776227 0.629 255 255 255
-0.297675 0.123917 0.585 255 255 255
0.204539 0.209338 0.627 255 255 255
-0.207946 -0.117236 0.494 255 255 255
-0.218816 0.167998 0.573 255 255 255
0.186402 0.0668892 0.672 255 255 255
-0.145064 0.180726 0.584 255 255 255
0.14481 0.0420477 0.677 255 255 255
-0.107431 0.00220315 0.625 255 255 255
0.213846 -0.30232 0.819 255 255 255
-0.168955 0.139595 0.612 255 255 255
-0.0219013 0.198878 0.623 255 255 255
-0.240161 -0.0524549 0.513 255 255 255
-0.0322878 -0.205362 0.542 255 255 255
-0.107595 -0.150421 0.514 255 255 255
-0.149542 0.155977 0.606 255 255 255
-0.221282 0.161659 0.577 255 255 255
-0.217163 0.211439 0.541 255 255 255
-0.0445331 -0.0984539 0.6 255 255 255
0.14733 -0.0549289 0.969 255 255 255
0.0994731 0.222494 0.621 255 255 255
-0.175993 0.14809 0.602 255 255 255
0.13178 0.177819 0.678 255 255 255
-0.227663 -0.105488 0.488 255 255 255
0.104302 0.156474 0.686 255 255 255
0.0642776 -0.211243 0.833 255 255 255
0.342161 0.191312 0.675 255 255 255
0.168674 0.215682 0.646 255 255 255
-0.246642 0.059311 0.577 255 255 255
0.00302067 0.0366414 0.772 255 255 255
-0.082551 -0.185251 0.525 255 255 255
0.0405092 0.109314 0.745 255 255 255
0.0245436 0.166651 0.673 255 255 255
-0.22637 0.156295 0.578 255 255 255
-0.250464 -0.0924018 0.486 255 255 255
-0.0685514 0.131811 0.642 255 255 255
0.420788 -0.17308 0.852 255 255 255
-0.0066787 -0.101052 0.622 255 255 255
-0.0868197 -0.092641 0.576 255 255 255
0.0153956 0.21499 0.614 255 255 255
0.197268 -0.104623 0.895 255 255 255
0.0412591 0.168802 0.66 255 255 255
-0.0644493 -0.156435 0.553 255 255 255
-0.146092 0.0449205 0.625 255 255 255
-0.0215637 0.0078833 0.676 255 255 255
0.256028 0.135803 0.744 255 255 255
0.00521859 0.121036 0.728 255 255 255
-0.199521 0.137998 0.605 255 255 255
0.0361563 0.0791108 0.782 255 255 255
-0.293647 0.0898129 0.568 255 255 255
-0.220138 -0.0175582 0.544 255 255 255
-0.186587 0.193467 0.563 255 255 255
-0.165598 0.042639 0.607 255 255 255
0.0797496 0.210016 0.617 255 255 255
-0.271568 0.0416958 0.555 255 255 255
0.134387 0.0850982 0.669 255 255 255
0.169292 -0.269543 0.942 255 255 255
-0.0580633 0.0646993 0.734 255 255 255
0.189069 0.153532 0.698 255 255 255
-0.276566 0.0807115 0.569 255 255 255
-0.167384 0.182006 0.579 255 255 255
0.383057 -0.0455889 1.044 255 255 255
0.0491548 -0.0688975 0.904 255 255 255
-0.238495 0.1444 0.587 255 255 255
0.173877 0.0101909 0.616 255 255 255
-0.174655 -0.059057 0.543 255 255 255
0.391203 -0.213038 0.851 255 255 255
-0.0990289 0.0963148 0.679 255 255 255
0.193338 -0.0455236 0.852 255 255 255
0.42508 -0.310175 0.844 255 255 255
-0.228476 0.119068 0.614 255 255 255
0.455063 0.142496 0.892 255 255 255
0.155225 0.154911 0.694 255 255 255
-0.0452468 -0.124339 0.584 255 255 255
-0.156344 0.202629 0.563 255 255 255
-0.0273163 -0.1687 0.567 255 255 255
0.327165 0.0961818 0.819 255 255 255
-0.0327383 0.196963 0.617 255 255 255
-0.0509027 0.000177643 0.657 255 255 255
-0.027883 -0.11681 0.599 255 255 255
0.211841 0.0836327 0.666 255 255 255
0.063531 0.227967 0.606 255 255 255
-0.188792 0.150494 0.596 255 255 255
-0.177772 0.190307 0.57 255 255 255
0.0447821 0.0237168 0.849 255 255 255
-0.112241 -0.0990193 0.549 255 255 255
-0.281309 0.0924684 0.573 255 255 255
0.23616 0.214161 0.606 255 255 255
0.0368258 0.199826 0.639 255 255 255
0.248044 -0.0503503 0.84 255 255 255
-0.221475 -0.147432 0.465 255 255 255
0.0812254 0.0335112 0.787 255 255 255
-0.219917 0.0559414 0.591 255 255 255
-0.233897 0.0443643 0.578 255 255 255
-0.197498 0.19616 0.55 255 255 255
0.263974 0.226447 0.618 255 255 255
-0.233015 -0.00865757 0.541 255 255 255
0.385237 -0.161265 0.841 255 255 255
-0.0764353 -0.180116 0.53 255 255 255
0.20406 -0.251242 0.954 255 255 255
-0.0660956 0.158316 0.619 255 255 255
-0.0715412 0.0536064 0.67 255 255 255
-0.104433 -0.101005 0.555 255 255 255
0.236278 0.15993 0.677 255 255 255
-0.207523 -0.135004 0.48 255 255 255
-0.134383 -0.109902 0.541 255 255 255
0.193302 -0.0835429 0.858 255 255 255
-0.253782 -0.0730214 0.494 255 255 255
0.0449438 -0.30383 0.939 255 255 255
-0.228248 -0.16611 0.45 255 255 255
0.0065567 -0.0796699 0.629 255 255 255
-0.0996126 -0.140633 0.534 255 255 255
-0.135249 -0.157859 0.511 0 0 0
-0.106718 -0.194291 0.502 255 255 255
-0.0964327 -0.0373718 0.607 255 255 255
0.20272 -0.128732 0.955 255 255 255
-0.0350673 -0.153701 0.573 255 255 255
-0.245183 0.0832648 0.587 255 255 255
-0.218869 -0.0629596 0.524 255 255 255
-0.0491207 -0.0297486 0.634 255 255 255
-0.188752 0.214174 0.548 255 255 255
0.11453 0.147963 0.715 255 255 255
0.0664584 0.0410812 0.81 255 255 255
-0.152636 0.0924995 0.718 255 255 255
-0.0581547 -0.115937 0.58 255 255 255
-0.00821393 -0.15077 0.587 255 255 255
0.0580801 0.188814 0.644 255 255 255
-0.0604571 0.209237 0.584 255 255 255
-0.189788 -0.176176 0.469 255 255 255
0.000506023 0.082909 0.77 255 255 255
-0.133097 0.165999 0.603 255 255 255
-0.119084 0.120694 0.644 255 255 255
-0.231276 -0.0138883 0.539 255 255 255
0.0106861 0.198352 0.631 255 255 255
0.156805 0.112318 0.696 255 255 255
0.37763 0.125442 0.81 255 255 255
0.415833 -0.00133116 0.981 255 255 255
0.152945 0.182254 0.674 255 255 255
-0.0804891 -0.169309 0.534 255 255 255
-0.0704309 0.18347 0.596 255 255 255
0.203092 0.0591789 0.684 0 0 0
0.138279 0.163946 0.694 255 255 255
-0.0328214 0.168546 0.659 255 255 255
-0.230811 0.109662 0.623 255 255 255
-0.0708453 -0.166818 0.54 255 255 255
-0.275511 0.18225 0.538 255 255 255
0.204511 0.119736 0.674 255 255 255
0.172915 0.142507 0.711 255 255 255
0.111781 0.0782048 0.705 0 0 0
-0.143915 -0.00471189 0.599 255 255 255
-0.147815 0.169772 0.599 255 255 255
-0.186918 -0.110856 0.509 255 255 255
-0.242716 0.183296 0.549 255 255 255
-0.048689 -0.198594 0.538 255 255 255
-0.0163231 0.0359609 0.687 255 255 255
0.308831 0.00332059 0.942 255 255 255
0.0388452 0.200552 0.638 255 255 255
0.132406 0.0786835 0.67 255 255 255
0.0871659 0.190972 0.627 255 255 255
0.160026 -0.0403586 0.96 255 255 255
-0.149277 -0.0494094 0.564 255 255 255
-0.222055 0.00926446 0.56 255 255 255
-0.294164 0.143676 0.569 255 255 255
-0.227449 -0.0724678 0.507 0 0 0
0.123699 0.0321307 0.701 255 255 255
-0.0927664 -0.0892003 0.578 255 255 255
0.235653 0.124248 0.726 255 255 255
0.0993391 -0.0813142 0.759 0 0 0
-0.195896 -0.170834 0.469 255 255 255
-0.19573 -0.0717597 0.526 255 255 255
-0.12296 -0.0335582 0.592 255 255 255
0.290025 0.0691925 0.831 255 255 255
0.0471541 -0.221747 0.842 255 255 255
-0.113089 -0.0321123 0.601 255 255 255
0.137889 -0.341303 0.937 255 255 255
-0.0891314 0.0470767 0.655 255 255 255
0.0598322 -0.0518603 0.744 255 255 255
0.0336013 -0.00119682 0.882 255 255 255
0.125027 -0.155245 0.91 255 255 255
0.0765147 -0.0011724 0.864 255 255 255
0.361774 0.0136478 1.027 255 255 255
-0.0956345 -0.140715 0.541 255 255 255
0.0680908 0.107095 0.755 255 255 255
-0.0592007 -0.112355 0.581 255 255 255
0.123699 0.0332715 0.701 255 255 255
0.171512 0.116033 0.678 255 255 255
-0.0926119 0.0547045 0.657 255 255 255
0.0885785 -0.236714 0.832 0 0 0
0.225547 0.226241 0.612 255 255 255
0.295331 -0.0612705 0.879 255 255 255
0.335335 0.0586965 0.898 255 255 255
-0.0770115 0.195028 0.587 255 255 255
-0.141727 -0.00859659 0.598 255 255 255
0.355431 0.168405 0.708 255 255 255
0.31714 -0.262085 0.71 255 255 255
0.36033 0.156246 0.732 255 255 255
-0.107261 0.20882 0.575 255 255 255
0.431123 -0.123745 0.856 255 255 255
0.0693708 0.0417712 0.798 255 255 255
0.176025 0.124281 0.687 255 255 255
-0.0541096 0.159584 0.632 255 255 255
0.147014 0.193387 0.667 255 255 255
0.260683 -0.12307 0.913 255 255 255
-0.00874769 -0.192134 0.56 255 255 255
-0.239375 0.022934 0.56 255 255 255
-0.224877 0.152797 0.579 255 255 255
0.0971591 -0.199896 0.86 255 255 255
0.31569 -0.177143 0.872 255 255 255
0.091239 0.222135 0.62 255 255 255
0.299218 -0.241355 0.834 255 255 255
-0.142872 0.153271 0.607 255 255 255
0.337927 0.142875 0.743 255 255 255
0.310673 -0.228213 0.688 0 0 0
0.110005 0.064072 0.701 255 255 255
-0.0107607 0.0828014 0.769 255 255 255
0.080334 0.00985412 0.845 255 255 255
-0.136753 0.186416 0.581 255 255 255
-0.231557 -0.119662 0.478 255 255 255
-0.0764312 -0.0437266 0.613 255 255 255
0.312292 0.021324 0.925 255 255 255
0.387986 -0.156903 0.847 255 255 255
0.0833873 0.0645175 0.76 255 255 255
-0.197188 -0.0956787 0.512 255 255 255
-0.0804206 -0.114574 0.564 255 255 255
-0.242886 -0.0256341 0.528 255 255 255
0.150854 0.223703 0.633 255 255 255
-0.252045 0.200617 0.531 255 255 255
-0.00631299 0.0385305 0.693 255 255 255
-0.243404 0.103018 0.632 255 255 255
-0.277288 0.186628 0.533 255 255 255
-0.120847 -0.161395 0.517 255 255 255
0.27462 -0.134443 0.93 255 255 255
0.0453494 0.177657 0.657 255 255 255
-0.247309 0.0722613 0.583 255 255 255
0.395536 -0.162053 0.831 255 255 255
0.384277 -0.156259 0.851 255 255 255
-0.0905764 -0.184193 0.522 255 255 255
-0.0768843 -0.112938 0.565 255 255 255
-0.238965 -0.0939597 0.49 255 255 255
-0.187655 -0.0307228 0.558 255 255 255
-0.0942914 0.0721598 0.737 255 255 255
0.447515 0.058196 0.937 255 255 255
-0.218088 0.152379 0.581 255 255 255
-0.287691 0.135572 0.586 255 255 255
-0.201496 0.158188 0.585 255 255 255
0.122538 0.231353 0.615 255 255 255
-0.189644 0.0983899 0.656 255 255 255
-0.0129681 0.14664 0.687 255 255 255
0.140015 0.22836 0.626 255 255 255
0.0719742 0.127657 0.732 255 255 255
-0.192383 0.111919 0.63 255 255 255
-0.208429 -0.0825084 0.513 255 255 255
0.335398 -0.212787 0.85 255 255 255
-0.156381 -0.069789 0.544 255 255 255
0.42722 -0.276741 0.851 255 255 255
0.204775 -0.0271766 0.842 255 255 255
0.0280104 -0.214286 0.935 255 255 255
0.407577 -0.032018 0.992 255 255 255
0.449034 -0.0529277 0.883 255 255 255
-0.231987 -0.0513793 0.519 255 255 255
0.249505 -0.0939692 0.864 255 255 255
-0.00945932 0.00238293 0.676 255 255 255
0.260675 0.138686 0.74 255 255 255
0.253646 -0.0437745 0.845 255 255 255
0.0436515 -0.271348 0.912 255 255 255
-0.19779 0.0386298 0.591 255 255 255
0.0670555 -0.180776 0.869 0 0 0
0.220373 -0.0272411 0.844 255 255 255
0.0983092 -0.335118 0.896 255 255 255
-0.207327 0.0275285 0.58 255 255 255
-0.0283908 -0.191186 0.552 255 255 255
0.0572089 0.179939 0.646 255 255 255
0.145049 -0.331971 0.954 255 255 255
0.205143 0.065197 0.655 255 255 255
0.276866 -0.053318 0.866 255 255 255
0.139257 -0.00672815 0.605 255 255 255
0.082192 0.0372109 0.784 255 255 255
0.181317 -0.04418 0.91 255 255 255
0.107252 -0.321103 0.91 255 255 255
-0.059883 0.146147 0.65 255 255 255
-0.24794 0.122823 0.603 255 255 255
0.198481 0.210368 0.624 255 255 255
-0.13686 -0.011516 0.598 255 255 255
0.235663 0.210336 0.615 255 255 255
0.355155 -0.181914 0.861 255 255 255
0.0952857 -0.141035 0.895 255 255 255
0.186026 0.204384 0.637 255 255 255
-0.0362237 -0.168127 0.562 255 255 255
-0.202293 -0.0561292 0.532 255 255 255
0.257922 -0.244749 0.841 255 255 255
0.322927 -0.227813 1.07 255 255 255
0.331232 0.162605 0.718 255 255 255
-0.150335 0.19611 0.568 255 255 255
0.0897021 0.147005 0.694 255 255 255
-0.247744 -0.0544237 0.508 255 255 255
0.280874 0.0478712 0.861 255 255 255
-0.198728 0.208062 0.546 255 255 255
-0.0557685 0.0185488 0.664 255 255 255
0.429956 -0.0604148 0.932 255 255 255
0.440775 -0.105493 0.878 255 255 255
0.325815 0.127971 0.793 255 255 255
0.446454 -0.0100199 0.901 255 255 255
-0.0752001 0.0795351 0.75 255 255 255
-0.203096 0.185393 0.558 255 255 255
0.117304 -0.319422 0.931 255 255 255
-0.0561502 -0.196248 0.534 255 255 255
0.223475 0.157164 0.699 255 255 255
-0.126713 -0.126017 0.531 255 255 255
-0.00336022 -0.173585 0.574 255 255 255
0.139718 0.141705 0.707 255 255 255
-0.0461184 -0.124126 0.583 255 255 255
-0.217255 0.143934 0.589 255 255 255
-0.166228 0.185427 0.575 255 255 255
-0.262577 0.145259 0.579 255 255 255
-0.192671 0.199377 0.549 255 255 255
-0.0809121 -0.103528 0.574 255 255 255
0.372988 -0.191993 0.826 255 255 255
-0.237612 0.177221 0.558 255 255 255
0.0697842 0.0515065 0.788 255 255 255
0.233377 -0.263278 0.786 255 255 255
-0.0789794 -0.0605756 0.602 255 255 255
0.0519697 0.13007 0.719 255 255 255
-0.0958719 0.0179622 0.643 255 255 255
-0.153665 0.169772 0.599 255 255 255
-0.254867 0.047709 0.562 255 255 255
-0.165072 -0.0323678 0.571 255 255 255
0.134383 0.0997764 0.68 255 255 255
-0.0256196 0.162995 0.667 255 255 255
0.171042 0.208646 0.647 255 255 255
0.130661 -0.327832 0.951 255 255 255
-0.166197 -0.176446 0.478 255 255 255
-0.108914 -0.133558 0.537 255 255 255
0.030322 -0.127844 0.96 255 255 255
0.17907 -0.260489 0.937 255 255 255
-0.162777 -0.146617 0.501 255 255 255
-0.144748 0.0543338 0.628 255 255 255
-0.225148 -0.112965 0.486 255 255 255
0.208846 -0.177926 0.969 255 255 255
0.192986 0.150269 0.704 255 255 255
-0.246452 -0.0652178 0.502 255 255 255
-0.181004 -0.0866394 0.528 255 255 255
0.0124803 -0.174842 0.572 255 255 255
-0.11439 -0.132812 0.534 255 255 255
-0.0240832 -0.0773759 0.627 255 255 255
0.43858 0.141487 0.868 255 255 255
0.156634 0.177075 0.671 255 255 255
0.0781376 -0.302351 0.916 255 255 255
-0.0828718 -0.0464144 0.609 255 255 255
0.141975 0.167492 0.69 255 255 255
0.299647 0.0355903 0.905 255 255 255
0.203778 0.181719 0.668 255 255 255
-0.215483 -0.0287996 0.539 255 255 255
-0.0455722 -0.0787692 0.614 255 255 255
-0.190357 -0.0824146 0.523 255 255 255
-0.153714 -0.121714 0.52 255 255 255
0.28479 0.109108 0.816 255 255 255
0.096044 0.0428 0.793 255 255 255
0.207407 -0.255475 0.941 255 255 255
-0.244794 0.136226 0.593 255 255 255
-0.245866 0.11626 0.615 255 255 255
-0.0412358 0.196391 0.609 255 255 255
-0.200427 0.104705 0.636 255 255 255
-0.0926981 0.160295 0.615 255 255 255
0.312199 0.191556 0.672 255 255 255
0.28645 -0.22406 0.689 255 255 255
0.236004 0.205865 0.632 255 255 255
-0.182776 0.00869623 0.583 255 255 255
0.155575 0.012176 0.615 255 255 255
0.38465 -0.237928 0.887 255 255 255
-0.0809441 -0.139841 0.555 255 255 255
-0.189762 0.0418663 0.596 255 255 255
0.417039 -0.101262 0.904 255 255 255
0.312916 0.173978 0.698 255 255 255
-0.0644154 0.0271932 0.664 255 255 255
-0.00276819 -0.0286022 0.655 255 255 255
0.203726 0.204453 0.634 255 255 255
0.291991 0.214346 0.642 255 255 255
0.170016 -0.0252301 0.921 255 255 255
0.281657 -0.221337 0.691 255 255 255
0.126759 0.0320391 0.699 255 255 255
-0.155209 -0.0749625 0.543 255 255 255
-0.20013 -0.0921655 0.511 255 255 255
0.131708 0.0625149 0.672 255 255 255
-0.0908458 0.0309458 0.652 255 255 255
0.349234 -0.212787 0.85 255 255 255
-0.128104 -0.189278 0.487 255 255 255
0.171951 0.0239123 0.856 255 255 255
-0.0347684 0.018884 0.676 255 255 255
-0.248491 0.0338697 0.56 255 255 255
0.235627 0.178433 0.672 255 255 255
-0.0382999 0.0752929 0.769 255 255 255
-0.143186 -0.0275902 0.588 255 255 255
-0.137748 0.142281 0.615 255 255 255
-0.23185 0.128497 0.602 255 255 255
0.0996332 0.21273 0.622 255 255 255
0.11145 -0.120919 0.908 255 255 255
0.20688 -0.0754016 0.845 255 255 255
0.194725 -0.0455236 0.852 255 255 255
-0.00350657 -0.134356 0.599 255 255 255
-0.227822 -0.15759 0.455 255 255 255
0.23898 0.164968 0.629 255 255 255
0.233566 -0.0369864 0.847 255 255 255
0.412466 -0.325593 0.852 255 255 255
-0.0650966 -0.195271 0.529 255 255 255
0.335571 0.200555 0.662 255 255 255
-0.238837 -0.113978 0.477 255 255 255
0.23774 0.212823 0.605 255 255 255
0.32294 0.167692 0.705 255 255 255
0.140306 -0.307546 0.975 255 255 255
0.181593 -0.349879 0.904 255 255 255
0.0717915 -0.150698 0.875 0 0 0
-0.184946 0.0310405 0.593 255 255 255
-0.215282 -0.0474718 0.532 255 255 255
0.379597 -0.0818528 1.03 255 255 255
-0.0271086 0.106941 0.737 255 255 255
0.156786 0.189045 0.667 255 255 255
-0.162127 -0.151716 0.499 255 255 255
-0.156654 0.024695 0.603 255 255 255
0.279204 0.062431 0.831 255 255 255
-0.180551 -0.161115 0.481 255 255 255
-0.226524 0.161378 0.576 255 255 255
-0.182364 0.107111 0.638 255 255 255
-0.041869 -0.179508 0.552 255 255 255
-0.208616 0.0704628 0.6 255 255 255
0.383186 -0.148287 0.861 255 255 255
-0.152997 0.0485969 0.62 255 255 255
-0.0874254 -0.13195 0.556 255 255 255
0.202105 0.18785 0.659 255 255 255
-0.00825711 0.0828014 0.769 255 255 255
-0.178386 -0.000784313 0.578 255 255 255
-0.223587 -0.173391 0.448 255 255 255
-0.0910614 0.0117385 0.646 255 255 255
-0.028416 0.0279304 0.682 255 255 255
0.301275 -0.237943 0.687 255 255 255
-0.0148064 -0.0150607 0.669 255 255 255
-0.0400838 -0.0413569 0.638 255 255 255
-0.00804979 -0.0464372 0.651 255 255 255
0.0787155 0.231078 0.609 255 255 255
0.300784 0.114755 0.809 255 255 255
-0.0775382 0.0806479 0.749 255 255 255
0.412299 0.065919 0.984 255 255 255
-0.220858 -0.160469 0.459 255 255 255
-0.246776 -0.0667185 0.501 255 255 255
0.0727169 0.0324353 0.792 0 0 0
-0.112431 -0.160554 0.517 255 255 255
-0.0205519 0.206659 0.613 255 255 255
-0.124425 0.113356 0.65 255 255 255
0.182774 0.0468936 0.7 255 255 255
0.326986 0.224098 0.643 255 255 255
0.176796 0.139601 0.708 255 255 255
0.386086 0.0155577 1.043 255 255 255
0.159192 -0.217316 0.955 255 255 255
-0.0520343 -0.164226 0.555 255 255 255
0.17222 0.225406 0.632 255 255 255
-0.219787 0.0437993 0.583 0 0 0
0.0519238 0.159967 0.659 255 255 255
-0.224478 0.119068 0.614 255 255 255
-0.129677 0.0110843 0.61 255 255 255
0.131316 0.0797738 0.67 255 255 255
0.0302421 0.00588478 0.868 255 255 255
-0.00987239 -0.0749076 0.632 255 255 255
0.377921 -0.0885574 1.03 255 255 255
0.0568936 -0.00553393 0.887 255 255 255
0.226435 -0.0572531 0.841 255 255 255
-0.134907 -0.0809888 0.554 255 255 255
-0.128829 0.182921 0.588 255 255 255
-0.00933338 0.165165 0.667 255 255 255
-0.208507 -0.0539887 0.528 255 255 255
0.235158 0.158321 0.627 255 255 255
-0.0426776 -0.133652 0.575 255 255 255
0.322044 0.193743 0.672 255 255 255
-0.0752786 0.217617 0.581 255 255 255
-0.0530416 0.00552342 0.657 255 255 255
-0.0296288 -0.0889055 0.615 255 255 255
0.138477 -0.336635 0.941 255 255 255
-0.157334 -0.0472364 0.56 255 255 255
0.348331 -0.189658 0.858 255 255 255
0.194623 -0.294332 0.883 255 255 255
-0.211085 -0.0548479 0.528 255 255 255
-0.206585 -0.12667 0.487 255 255 255
0.0429888 0.0532713 0.815 255 255 255
-0.212577 -0.0902616 0.505 255 255 255
0.203112 0.118463 0.673 255 255 255
0.0746506 0.0592547 0.772 255 255 255
0.197339 0.186269 0.661 255 255 255
0.31965 -0.00449631 0.975 255 255 255
0.184863 0.145362 0.708 255 255 255
0.0850698 0.0785332 0.764 255 255 255
0.0690751 0.142933 0.68 255 255 255
0.453616 0.0871674 0.937 255 255 255
0.426272 -0.0197153 0.944 255 255 255
0.129995 0.0362227 0.692 255 255 255
-0.180649 0.111246 0.632 255 255 255
-0.0877573 0.220431 0.576 255 255 255
-0.210656 -0.149199 0.473 255 255 255
0.0215222 0.187878 0.648 255 255 255
-0.0567553 -0.15666 0.557 255 255 255
0.242144 -0.254736 0.746 255 255 255
0.0699106 -0.0380884 0.906 255 255 255
0.148756 0.0153182 0.843 0 0 0
0.129216 0.1289 0.719 255 255 255
-0.255402 0.201584 0.529 255 255 255
0.418881 0.0551548 0.992 255 255 255
0.0189188 -0.0180443 0.937 255 255 255
-0.0788631 -0.111296 0.566 255 255 255
0.434795 -0.165341 0.855 255 255 255
-0.0527844 -0.147354 0.563 255 255 255
-0.11275 0.0258827 0.632 255 255 255
0.315384 -0.218834 0.852 255 255 255
0.359134 -0.186563 0.844 255 255 255
0.204204 0.192221 0.652 255 255 255
-0.23502 -0.120203 0.474 255 255 255
-0.217531 0.0660026 0.595 255 255 255
-0.132892 -0.174762 0.493 255 255 255
-0.201463 -0.0179456 0.556 255 255 255
-0.122766 0.0819408 0.728 255 255 255
-0.156929 -0.183793 0.483 255 255 255
-0.118754 -0.0117471 0.61 255 255 255
-0.0741449 -0.0915445 0.587 255 255 255
-0.163142 -0.0815784 0.54 255 255 255
-0.0789255 0.216299 0.58 255 255 255
-0.0959322 -0.0160528 0.623 255 255 255
-0.00172276 -0.022478 0.663 255 255 255
-0.167775 0.102347 0.654 255 255 255
0.119352 0.149335 0.716 255 255 255
-0.0575533 -0.185806 0.539 255 255 255
-0.135365 -0.00862534 0.6 255 255 255
0.20463 -0.164458 0.964 255 255 255
-0.205618 0.189815 0.555 255 255 255
0.193842 -0.291007 0.886 255 255 255
-0.153483 -0.106651 0.525 255 255 255
0.155823 -0.0404847 0.963 255 255 255
0.424208 0.140488 0.845 255 255 255
0.0727138 0.00306326 0.869 255 255 255
0.125527 0.0599394 0.68 255 255 255
0.0798587 -0.210284 0.84 0 0 0
-0.00801803 -0.175147 0.573 255 255 255
0.266512 -0.214083 1.126 255 255 255
0.35892 -0.21832 0.85 255 255 255
-0.116442 0.0491998 0.641 255 255 255
0.328723 0.177242 0.693 255 255 255
-0.071193 -0.177794 0.536 255 255 255
0.453384 0.0570159 0.918 255 255 255
-0.200797 -0.0831518 0.517 255 255 255
-0.106577 -0.058606 0.592 255 255 255
-0.204657 0.0535948 0.597 255 255 255
0.311687 0.212528 0.646 255 255 255
0.35512 0.0960282 0.841 255 255 255
0.157968 -0.0371177 0.957 255 255 255
0.279477 0.0825504 0.816 255 255 255
0.0771639 0.0693051 0.772 255 255 255
-0.200274 0.0355027 0.587 255 255 255
-0.189329 0.0808831 0.62 255 255 255
0.0540573 -0.295875 0.938 255 255 255
-0.237806 -0.0724255 0.501 255 255 255
-0.0547022 -0.0437049 0.627 255 255 255
-0.119923 0.149529 0.616 255 255 255
0.0920325 -0.303473 0.906 255 255 255
-0.215107 0.0530561 0.591 255 255 255
0.254196 -0.225533 0.715 255 255 255
-0.188063 -0.0425014 0.546 255 255 255
-0.150636 -0.1062 0.527 255 255 255
-0.0946659 -0.118378 0.556 255 255 255
-0.221805 0.017591 0.564 255 255 255
-0.138295 -0.00764895 0.6 255 255 255
-0.234955 -0.117859 0.477 255 255 255
-0.0630887 -0.135924 0.565 255 255 255
-0.0859291 -0.112739 0.564 255 255 255
-0.0630492 -0.117335 0.573 255 255 255
0.0754156 0.102557 0.767 255 255 255
-0.124695 -0.175502 0.502 255 255 255
0.0457795 -0.0449083 0.925 255 255 255
0.273147 0.232731 0.616 255 255 255
-0.212488 -0.106242 0.499 255 255 255
-0.232105 -0.171069 0.442 255 255 255
0.363535 -0.0971263 1.032 255 255 255
0.200667 -0.301238 0.878 255 255 255
-0.205449 -0.147356 0.477 255 255 255
-0.100065 -0.164641 0.514 255 255 255
-0.0052836 -0.165017 0.58 255 255 255
-0.253357 -0.0862518 0.487 255 255 255
0.227363 0.176131 0.68 255 255 255
0.077055 0.125788 0.735 255 255 255
-0.147718 -0.0792199 0.548 255 255 255
-0.0986001 -0.164433 0.524 255 255 255
-0.107302 -0.0304573 0.607 255 255 255
0.331127 0.251814 0.647 255 255 255
-0.232881 -0.0464902 0.521 255 255 255
-0.150302 -0.129425 0.517 255 255 255
0.0849577 0.114012 0.752 255 255 255
-0.270361 0.107634 0.623 255 255 255
-0.0535882 0.114164 0.722 255 255 255
-0.0920232 -0.0211558 0.624 255 255 255
-0.0231334 0.142789 0.69 255 255 255
0.0517622 -0.0746373 0.807 255 255 255
0.264719 -0.254712 0.712 255 255 255
-0.0461698 -0.0370874 0.636 255 255 255
-0.265207 0.0230789 0.542 255 255 255
-0.178041 0.1571 0.599 255 255 255
-0.237375 -0.0844466 0.495 255 255 255
-0.143261 0.122107 0.635 255 255 255
-0.0890879 0.139015 0.632 255 255 255
-0.0984144 0.172295 0.601 255 255 255
-0.0230461 -0.117982 0.6 255 255 255
0.413367 -0.186726 0.851 255 255 255
-0.0701352 0.0403412 0.667 255 255 255
0.0388298 -0.308415 0.939 255 255 255
0.303258 -0.151783 0.925 255 255 255
0.212368 0.194045 0.651 255 255 255
-0.235596 -0.0317087 0.529 255 255 255
-0.190339 -0.139064 0.486 255 255 255
-0.0469082 0.16884 0.632 255 255 255
-0.0553189 0.118708 0.714 255 255 255
-0.139119 -0.14512 0.513 255 255 255
0.100351 0.228978 0.614 255 255 255
-0.0175297 -0.105403 0.612 255 255 255
0.0717497 -0.0444761 0.742 255 255 255
0.040684 0.025128 0.85 255 255 255
-0.162567 0.177266 0.582 255 255 255
0.236346 -0.306784 0.796 255 255 255
0.364768 -0.0357682 1.055 255 255 255
-0.00282313 0.165413 0.668 255 255 255
0.00267634 0.153792 0.684 255 255 255
0.235207 -0.0615048 0.843 255 255 255
-0.22805 -0.0955306 0.494 255 255 255
-0.0641209 0.124776 0.696 255 255 255
0.182114 -0.282355 0.914 255 255 255
-0.0261155 0.127286 0.71 255 255 255
-0.157828 0.168103 0.6 255 255 255
0.29407 0.127424 0.774 255 255 255
-0.065824 -0.0283546 0.626 255 255 255
-0.00175914 -0.000918651 0.677 255 255 255
-0.192166 0.172926 0.577 255 255 255
0.0162047 -0.17298 0.572 255 255 255
-0.239412 -0.125804 0.469 255 255 255
-0.141219 -0.0764811 0.554 255 255 255
-0.159063 0.125069 0.624 255 255 255
-0.251535 0.0837896 0.584 255 255 255
0.123314 0.0632591 0.68 255 255 255
-0.128483 0.0948724 0.701 255 255 255
-0.126152 0.115117 0.648 255 255 255
0.0728848 0.0674847 0.78 255 255 255
0.0213883 0.0627841 0.801 255 255 255
0.0333775 0.231964 0.596 255 255 255
0.204499 -0.320337 0.864 255 255 255
-0.230861 0.208612 0.536 255 255 255
-0.0414389 0.193375 0.612 255 255 255
-0.108949 -0.0818169 0.579 255 255 255
0.00964367 0.200088 0.63 255 255 255
-0.260713 0.00805483 0.54 255 255 255
-0.255736 -0.0857205 0.484 255 255 255
-0.0059395 0.176305 0.652 255 255 255
0.141464 0.161454 0.693 255 255 255
-0.014408 -0.043259 0.651 255 255 255
-0.0623583 0.209237 0.584 255 255 255
0.3953 0.00870968 1.036 255 255 255
0.198009 -0.174952 0.97 255 255 255
-0.21058 0.00197755 0.561 255 255 255
-0.0437906 0.136298 0.697 255 255 255
0.338789 -0.160298 0.873 255 255 255
0.0979473 -0.2887 0.92 255 255 255
0.289626 0.141145 0.734 255 255 255
0.185788 -0.0801385 0.882 255 255 255
0.321116 -0.233462 1.064 255 255 255
-0.280703 0.078721 0.568 255 255 255
0.223659 0.207922 0.632 255 255 255
-0.174287 -0.16816 0.481 255 255 255
0.198583 0.172811 0.68 255 255 255
-0.038245 -0.0353477 0.642 255 255 255
0.00632447 0.12773 0.719 255 255 255
0.187467 0.104538 0.668 255 255 255
-0.174002 -0.151859 0.489 255 255 255
-0.099703 -0.0523004 0.597 255 255 255
0.0688378 -0.200476 0.839 255 255 255
0.0555482 0.135568 0.705 255 255 255
0.135473 0.164654 0.697 255 255 255
0.222516 0.159888 0.696 255 255 255
-0.107595 -0.162968 0.514 255 255 255
-0.0749259 0.00972546 0.652 255 255 255
-0.218037 -0.101363 0.495 255 255 255
0.111429 0.170391 0.662 255 255 255
0.142264 0.132651 0.714 255 255 255
0.00982196 0.128721 0.718 255 255 255
-0.0513869 0.221572 0.589 255 255 255
-0.225596 -0.157138 0.458 255 255 255
-0.139039 0.171721 0.599 255 255 255
-0.262633 0.0503629 0.561 255 255 255
