ply
format ascii 1.0
comment Created by Open3D
element vertex 1289
property double x
property double y
property double z
property uchar red
property uchar green
property uchar blue
end_header
-0.194344 0.195615 0.52 255 255 255
0.277494 0.206981 0.583 255 255 255
0.146473 0.0752725 0.513 255 255 255
0.145462 -0.114312 0.378 0 0 0
0.178315 -0.0189517 0.434 255 255 255
0.17971 0.0347656 0.473 255 255 255
-0.202276 0.188233 0.523 255 255 255
-0.223387 0.0520062 0.59 0 0 0
-0.0965911 0.19053 0.527 255 255 255
-0.0547362 -0.134902 0.439 255 255 255
-0.200141 0.0202152 0.616 255 255 255
0.157559 0.148554 0.596 255 255 255
-0.283908 0.0552107 0.615 255 255 255
0.114066 -0.131613 0.38 255 255 255
0.180746 0.00157569 0.447 255 255 255
-0.225658 0.0438061 0.596 255 255 255
-0.0549452 -0.074848 0.485 255 255 255
0.230298 0.178163 0.601 255 255 255
0.00881473 -0.155704 0.404 255 255 255
0.139895 -0.127368 0.373 255 255 255
0.0269398 0.200821 0.527 255 255 255
-0.0208818 0.0832911 0.594 255 255 255
0.160339 -0.00501553 0.451 255 255 255
0.234014 0.153894 0.522 255 255 255
-0.164076 -0.110807 0.505 255 255 255
-0.0832777 0.104225 0.571 255 255 255
0.177617 0.00747774 0.452 255 255 255
-0.0174716 -0.0717588 0.475 255 255 255
0.163922 0.097923 0.518 255 255 255
-0.34638 -0.0227154 0.67 255 255 255
0.070518 0.130253 0.567 255 255 255
0.237728 0.180796 0.6 255 255 255
0.179964 -0.117721 0.362 255 255 255
0.185416 -0.085284 0.383 255 255 255
0.136847 0.00467601 0.466 255 255 255
0.107871 0.0971454 0.537 255 255 255
0.0636197 -0.112398 0.414 255 255 255
0.10613 -0.110274 0.399 255 255 255
0.162082 0.0231215 0.471 255 255 255
-0.328124 0.0395802 0.621 0 0 0
-0.174068 0.097959 0.567 255 255 255
0.0983358 -0.11417 0.399 255 255 255
-0.00677265 -0.0502773 0.484 255 255 255
-0.31132 -0.00847758 0.665 255 255 255
-0.287173 0.136689 0.552 255 255 255
0.181428 -0.0203173 0.433 255 255 255
0.187495 -0.0640124 0.398 255 255 255
0.246356 0.0958281 0.486 255 255 255
0.176761 -0.0446746 0.417 255 255 255
0.0481759 0.0674274 0.544 255 255 255
0.0230373 0.184189 0.536 255 255 255
-0.127462 0.128837 0.553 255 255 255
0.109221 -0.0655077 0.429 255 255 255
-0.0481459 0.164634 0.532 255 255 255
-0.218463 0.196249 0.515 255 255 255
0.0193285 0.0260178 0.53 255 255 255
0.0397814 -0.14821 0.398 255 255 255
0.0756935 0.192737 0.526 255 255 255
-0.168359 -0.103198 0.508 255 255 255
0.0966746 -0.0839542 0.42 255 255 255
0.153104 -0.0659424 0.41 255 255 255
0.0490571 0.0402963 0.525 255 255 255
-0.0551602 -0.0834498 0.48 255 255 255
0.0970578 -0.0166284 0.468 255 255 255
0.00251543 -0.0877953 0.454 255 255 255
-0.00722132 0.0970946 0.584 255 255 255
0.105306 -0.0604814 0.433 255 255 255
-0.236078 0.16038 0.544 255 255 255
-0.00317875 0.0372597 0.543 0 0 0
0.080214 -0.0853535 0.427 255 255 255
-0.048552 -0.0937489 0.469 0 0 0
0.131618 0.0244966 0.483 255 255 255
0.0572889 0.185577 0.53 255 255 255
-0.0110928 0.0247971 0.541 255 255 255
0.300134 0.193487 0.594 255 255 255
-0.0293406 0.186665 0.521 255 255 255
0.132853 0.0659606 0.512 255 255 255
0.201588 0.10783 0.513 255 255 255
0.1729 0.174501 0.576 255 255 255
-0.220232 0.131379 0.56 255 255 255
0.0413554 -0.0947394 0.435 255 255 255
0.138242 -0.136069 0.367 255 255 255
0.116224 -0.0755721 0.419 255 255 255
-0.0324969 0.00273591 0.531 255 255 255
-0.17356 0.0419366 0.597 255 255 255
-0.00229485 0.165387 0.543 255 255 255
-0.178336 -0.00364353 0.584 0 0 0
0.19074 0.0231779 0.457 255 255 255
-0.153472 -0.12984 0.487 255 255 255
-0.10738 0.13278 0.547 255 255 255
-0.0767024 0.0155598 0.557 255 255 255
-0.0883645 -0.0407889 0.524 255 255 255
-0.0518468 0.133337 0.553 255 255 255
0.238197 0.152459 0.52 255 255 255
-0.0633193 0.131061 0.551 255 255 255
-0.0207079 -0.0419223 0.497 255 255 255
-0.0443925 0.156275 0.539 255 255 255
-0.290636 -0.0800366 0.573 255 255 255
-0.280632 0.142832 0.548 255 255 255
-0.256358 0.069296 0.582 255 255 255
0.206612 0.192836 0.592 255 255 255
0.0848582 -0.14149 0.385 255 255 255
0.156414 -0.112791 0.369 255 255 255
-0.0743808 0.120444 0.56 255 255 255
-0.0674071 0.0708439 0.595 0 0 0
0.120401 -0.0852914 0.41 255 255 255
0.0877197 -0.0342353 0.459 0 0 0
-0.0557381 0.19297 0.522 255 255 255
-0.0309268 -0.0866947 0.468 255 255 255
-0.257975 -0.172829 0.499 255 255 255
-0.21446 0.0685838 0.584 0 0 0
-0.142248 -0.0294407 0.551 0 0 0
-0.0754329 -0.107716 0.47 255 255 255
-0.208573 0.183321 0.526 255 255 255
0.178485 -0.105629 0.365 255 255 255
-0.224321 -0.0385411 0.58 255 255 255
-0.216771 0.0806269 0.575 255 255 255
-0.175691 0.141306 0.549 255 255 255
-0.129499 0.147504 0.539 0 0 0
0.0334449 0.175139 0.535 255 255 255
-0.301287 0.0736247 0.594 255 255 255
0.0325035 0.127729 0.564 255 255 255
0.00804423 -0.0578452 0.475 255 255 255
0.141049 -0.0497982 0.426 255 255 255
0.189776 -0.065624 0.396 255 255 255
-0.0410347 0.0124717 0.541 255 255 255
-0.0593226 -0.0521471 0.502 255 255 255
0.164997 -0.0727962 0.4 255 255 255
-0.0426776 0.100277 0.575 255 255 255
0.174099 -0.0735423 0.397 255 255 255
-0.146306 0.0557521 0.589 255 255 255
-0.0316325 0.00273591 0.531 255 255 255
0.13893 0.0757127 0.516 255 255 255
-0.0954053 -0.0963562 0.486 255 255 255
-0.194344 -0.106482 0.52 255 255 255
-0.0954906 0.071088 0.589 255 255 255
-0.13506 0.0453019 0.603 255 255 255
-0.092138 0.166917 0.531 255 255 255
0.0198634 -0.13293 0.415 255 255 255
0.131931 0.0437205 0.496 255 255 255
-0.102077 0.0259888 0.567 255 255 255
-0.132706 0.074286 0.584 255 255 255
-0.225499 0.0277764 0.606 255 255 255
-0.111225 -0.0961395 0.493 255 255 255
-0.210297 0.0540179 0.591 0 0 0
0.0302145 -0.150908 0.4 255 255 255
0.158796 0.158518 0.597 255 255 255
-0.298477 0.101323 0.581 255 255 255
-0.229806 0.193271 0.516 255 255 255
0.153771 -0.0659424 0.41 255 255 255
0.124987 -0.117664 0.387 255 255 255
-0.108374 0.0967917 0.571 255 255 255
-0.218801 0.0537437 0.588 0 0 0
-0.0746831 -0.013811 0.536 255 255 255
0.180395 -0.0973452 0.379 255 255 255
0.0156032 -0.0231795 0.494 255 255 255
-0.28124 -0.120249 0.544 255 255 255
-0.0168621 -0.120614 0.439 255 255 255
-0.119824 0.0130941 0.568 255 255 255
0.077846 0.0351325 0.512 255 255 255
0.111934 0.182512 0.544 255 255 255
-0.112113 -0.113839 0.483 255 255 255
-0.308045 0.0855436 0.583 0 0 0
-0.14879 0.0245312 0.599 255 255 255
-0.119384 -0.112405 0.487 255 255 255
-0.0924634 -0.0619856 0.509 255 255 255
0.028312 -0.0581408 0.465 255 255 255
-0.0179703 0.158022 0.536 255 255 255
0.225085 0.142578 0.521 255 255 255
-0.00579823 0.177655 0.54 255 255 255
-0.100538 0.0462064 0.602 255 255 255
-0.0252458 0.119045 0.562 255 255 255
-0.218086 0.0779551 0.576 255 255 255
-0.101349 0.0500418 0.601 255 255 255
0.140468 0.0283089 0.481 255 255 255
-0.0147518 -0.117309 0.44 255 255 255
-0.205821 0.149071 0.558 255 255 255
0.198402 -0.0362686 0.414 255 255 255
-0.288733 -0.104617 0.555 255 255 255
0.0688023 -0.128446 0.401 255 255 255
-0.254255 -0.101845 0.545 0 0 0
-0.0781391 0.139265 0.548 255 255 255
-0.0765647 0.0137223 0.556 255 255 255
-0.0611409 0.113961 0.564 255 255 255
-0.128822 0.0113048 0.571 255 255 255
-0.0900524 -0.0925919 0.487 0 0 0
0.0862447 0.186628 0.533 255 255 255
-0.115814 0.109899 0.562 255 255 255
0.0991553 -0.10666 0.405 255 255 255
-0.27639 -0.104052 0.552 255 255 255
0.103211 0.0574611 0.518 255 255 255
0.269193 0.189621 0.594 255 255 255
0.123195 0.0262845 0.487 255 255 255
0.158085 0.0599843 0.497 255 255 255
0.161479 0.031113 0.476 255 255 255
0.185564 -0.0510138 0.408 255 255 255
-0.0309999 0.156856 0.535 255 255 255
-0.0907387 0.053064 0.602 0 0 0
-0.270508 -0.102967 0.551 255 255 255
0.133525 0.00239585 0.465 255 255 255
-0.15681 -0.122666 0.49 255 255 255
0.0773521 0.135748 0.563 255 255 255
-0.168855 0.102211 0.565 255 255 255
-0.135892 0.146899 0.54 255 255 255
0.066281 0.178534 0.54 255 255 255
-0.0589524 -0.0282452 0.513 255 255 255
-0.0641735 0.0656901 0.601 255 255 255
0.0949308 0.029486 0.501 255 255 255
0.268887 0.199804 0.587 255 255 255
0.199475 0.0426842 0.467 255 255 255
0.0396469 -0.0102962 0.493 255 255 255
0.196366 0.0940076 0.506 255 255 255
0.00944931 -0.0668934 0.468 255 255 255
0.128654 -0.0619842 0.424 0 0 0
-0.244 -0.15998 0.502 255 255 255
-0.203103 0.0153512 0.622 255 255 255
-0.103943 0.141529 0.543 255 255 255
0.0149792 -0.0864812 0.451 255 255 255
-0.0802149 0.0055189 0.55 255 255 255
0.121131 0.0889792 0.53 255 255 255
0.00696594 0.104562 0.578 255 255 255
0.150355 0.0767921 0.512 255 255 255
-0.191082 0.176668 0.537 255 255 255
-0.151996 0.160376 0.541 255 255 255
0.0438217 -0.119606 0.418 255 255 255
0.17124 -0.125033 0.361 255 255 255
-0.142284 -0.133766 0.484 0 0 0
-0.0831298 0.0817486 0.583 0 0 0
-0.0178634 0.0612088 0.56 255 255 255
-0.0302316 -0.13469 0.436 255 255 255
0.0613658 -0.0572509 0.452 0 0 0
0.0501548 -0.0489548 0.464 255 255 255
0.0715335 -0.110111 0.413 255 255 255
0.229422 0.0841376 0.487 255 255 255
-0.078841 -0.126167 0.446 255 255 255
-0.0400626 -0.0790471 0.477 255 255 255
-0.0610057 -0.10203 0.465 255 255 255
-0.216069 0.0391528 0.599 255 255 255
-0.266834 -0.0765652 0.568 255 255 255
-0.0155383 -0.115684 0.442 255 255 255
-0.023878 -0.144093 0.424 255 255 255
-0.123774 0.189776 0.537 255 255 255
0.0174093 -0.125946 0.421 255 255 255
-0.268437 -0.0939483 0.556 0 0 0
-0.227414 0.177815 0.53 255 255 255
-0.152993 -0.124547 0.488 255 255 255
0.0972001 0.0943477 0.536 255 255 255
-0.221305 -0.0339384 0.582 255 255 255
0.253758 0.122753 0.499 255 255 255
0.177284 -0.136236 0.352 255 255 255
-0.248779 -0.0443566 0.582 255 255 255
0.151588 -0.0130307 0.449 255 255 255
-0.104654 -0.0527617 0.516 255 255 255
-0.0421254 -0.0847208 0.474 255 255 255
0.0609693 -0.132361 0.401 255 255 255
0.113842 -0.0502577 0.436 255 255 255
-0.24795 0.128874 0.565 255 255 255
0.1435 -0.0629967 0.417 255 255 255
0.159656 0.211872 0.556 255 255 255
0.0877973 0.0153765 0.493 255 255 255
-0.0506824 -0.0767382 0.482 255 255 255
0.176975 0.0373099 0.476 255 255 255
-0.209078 0.0503406 0.593 0 0 0
-0.056735 -0.150742 0.412 255 255 255
-0.221659 0.14479 0.559 255 255 255
0.136158 0.0318974 0.488 255 255 255
-0.00309001 -0.151108 0.413 255 255 255
0.0810983 -0.138804 0.388 255 255 255
-0.014014 0.0513515 0.552 255 255 255
0.182885 -0.100321 0.374 255 255 255
-0.0596009 -0.104676 0.46 255 255 255
0.126518 -0.119251 0.384 255 255 255
0.0618859 0.090658 0.54 255 255 255
0.0122562 -0.0760642 0.459 255 255 255
0.0948899 0.190032 0.528 255 255 255
-0.27573 0.0139267 0.65 255 255 255
0.242542 0.115092 0.501 255 255 255
-0.225916 0.197219 0.511 255 255 255
-0.230298 0.189327 0.519 255 255 255
-0.0137601 0.0274889 0.542 255 255 255
-0.332857 -0.0273999 0.678 255 255 255
0.038909 -0.0505737 0.465 255 255 255
-0.171311 -0.0273819 0.564 0 0 0
-0.280941 -0.130448 0.535 255 255 255
0.166476 -0.0705434 0.402 0 0 0
0.0441075 -0.140541 0.402 255 255 255
0.0539748 0.166231 0.54 0 0 0
0.15528 0.0287892 0.476 255 255 255
0.0587916 0.0293574 0.513 255 255 255
-0.0625148 0.140905 0.544 255 255 255
-0.272415 0.177679 0.522 255 255 255
-0.011975 -0.0252891 0.504 255 255 255
0.106997 0.0988931 0.537 255 255 255
0.00290327 0.0137852 0.524 255 255 255
-0.209716 0.0238317 0.606 255 255 255
-0.141072 -0.0571021 0.533 0 0 0
0.135556 -0.0564643 0.424 255 255 255
-0.099541 0.190392 0.529 255 255 255
0.0754882 0.0991144 0.543 255 255 255
-0.0670403 0.179213 0.524 255 255 255
0.12578 0.0039513 0.47 255 255 255
-0.166806 0.0818463 0.577 0 0 0
0.0885999 0.0161788 0.493 255 255 255
-0.189742 0.0430518 0.599 0 0 0
-0.182873 0.178956 0.536 255 255 255
0.0522741 -0.00386233 0.491 255 255 255
0.0468775 -0.110188 0.421 255 255 255
-0.231221 -0.119012 0.523 255 255 255
0.187023 0.180007 0.591 255 255 255
-0.0713933 0.166917 0.531 255 255 255
0.0378776 -0.0435615 0.471 0 0 0
0.107111 0.113044 0.542 255 255 255
-0.261217 0.185354 0.515 255 255 255
-0.0342256 0.164325 0.531 255 255 255
-0.00491922 0.166231 0.54 255 255 255
-0.0943353 -0.0424943 0.524 255 255 255
0.15376 0.0176808 0.469 255 255 255
0.0610214 0.191516 0.525 255 255 255
0.17331 -0.0863974 0.388 0 0 0
0.138723 0.119214 0.538 255 255 255
-0.076506 0.0901405 0.576 255 255 255
-0.255231 0.107013 0.571 255 255 255
-0.128144 0.169677 0.537 255 255 255
0.0389556 0.111147 0.578 255 255 255
0.0539767 -0.0895778 0.434 255 255 255
0.160187 -0.0755884 0.401 255 255 255
-0.24941 0.149967 0.548 255 255 255
-0.295609 -0.0833279 0.57 255 255 255
0.248472 0.17689 0.6 255 255 255
0.0273601 -0.127158 0.416 255 255 255
-0.0251366 0.153929 0.54 255 255 255
0.05581 0.00013357 0.494 255 255 255
0.186944 -0.0112344 0.436 255 255 255
0.14514 -0.121623 0.374 255 255 255
-0.176313 -0.0769069 0.532 255 255 255
0.132803 -0.12628 0.377 255 255 255
-0.0573243 -0.0443283 0.506 255 255 255
0.0637618 0.173582 0.541 255 255 255
0.0233953 -0.0031569 0.506 255 255 255
-0.128454 -0.0595487 0.524 255 255 255
0.0466088 -0.140192 0.401 255 255 255
-0.126264 -0.0729129 0.522 255 255 255
0.176049 -0.10242 0.375 255 255 255
-0.0157538 0.142459 0.55 255 255 255
0.217571 0.0341079 0.454 255 255 255
0.165768 0.0568631 0.491 255 255 255
-0.146108 0.0343361 0.6 255 255 255
0.130149 -0.122956 0.38 255 255 255
0.130362 -0.111654 0.388 255 255 255
-0.184846 0.167496 0.547 255 255 255
0.0816467 -0.0257125 0.467 255 255 255
0.209503 0.163934 0.592 255 255 255
0.0103582 0.132726 0.558 255 255 255
-0.210514 0.130441 0.556 255 255 255
-0.144055 -0.0189182 0.558 255 255 255
0.0158101 -0.136307 0.415 255 255 255
0.104136 -0.0606211 0.434 255 255 255
-0.0710329 0.203163 0.522 255 255 255
-0.0233142 0.198617 0.519 255 255 255
0.107008 -0.0863315 0.415 255 255 255
-0.109302 -0.100723 0.488 0 0 0
-0.0587469 -0.158787 0.412 255 255 255
-0.109425 0.183335 0.531 255 255 255
0.0652007 -0.0334547 0.469 255 255 255
0.173608 -0.103031 0.375 255 255 255
0.165407 -0.105023 0.38 255 255 255
0.0495871 -0.120099 0.415 255 255 255
0.122049 -0.0406944 0.44 0 0 0
-0.111423 -0.0184774 0.545 255 255 255
-0.190111 0.198154 0.52 255 255 255
-0.253443 0.126563 0.567 255 255 255
0.0783587 -0.0650393 0.44 255 255 255
-0.0168159 -0.146834 0.42 255 255 255
0.05137 -0.00704403 0.49 255 255 255
-0.17755 0.121418 0.552 0 0 0
-0.29272 -0.0118475 0.672 255 255 255
0.208169 0.0361342 0.461 255 255 255
-0.135105 0.0122983 0.574 0 0 0
-0.205608 0.0892015 0.57 0 0 0
0.126851 0.0101558 0.474 255 255 255
0.178797 -0.0433174 0.417 255 255 255
-0.032292 -0.0422597 0.501 255 255 255
-0.161548 0.089984 0.575 255 255 255
0.0446421 -0.123552 0.413 255 255 255
0.112814 -0.0782995 0.419 255 255 255
0.110676 -0.106378 0.399 255 255 255
-0.0693765 -0.0351279 0.516 255 255 255
0.141384 -0.0767194 0.407 255 255 255
-0.245769 0.161837 0.54 255 255 255
0.0333214 -0.0613916 0.461 255 255 255
-0.0325011 -0.0701708 0.48 255 255 255
-0.270856 0.0128887 0.651 255 255 255
0.168098 0.0318207 0.475 255 255 255
0.130598 0.166019 0.548 255 255 255
-0.0788744 0.180923 0.529 255 255 255
0.086504 0.0365833 0.509 255 255 255
0.232337 0.215352 0.57 255 255 255
-0.179851 0.108984 0.562 255 255 255
-0.148308 0.0431956 0.601 255 255 255
0.222288 0.0785901 0.487 255 255 255
0.131428 -0.100169 0.395 255 255 255
0.0424189 -0.126967 0.411 255 255 255
-0.144542 0.193567 0.533 255 255 255
-0.0777114 -0.00340022 0.545 255 255 255
0.0311374 0.136774 0.556 255 255 255
-0.17223 0.0169286 0.606 0 0 0
0.0654015 -0.0377097 0.465 255 255 255
-0.238753 0.109566 0.565 255 255 255
0.194367 0.11014 0.516 0 0 0
0.163962 -0.0142338 0.441 0 0 0
0.0576132 0.181424 0.533 255 255 255
-0.0821316 0.0967019 0.576 0 0 0
0.179089 0.00894884 0.452 255 255 255
0.0992399 -0.0303677 0.457 0 0 0
0.14141 -0.0510646 0.425 255 255 255
0.117448 -0.0587993 0.431 255 255 255
-0.0551102 -0.132947 0.442 255 255 255
0.0298069 -0.00150109 0.503 255 255 255
0.240653 0.1485 0.518 255 255 255
0.207888 0.0940814 0.502 255 255 255
-0.174991 0.0988817 0.567 255 255 255
0.186797 -0.0875479 0.382 255 255 255
-0.0576574 -0.129505 0.445 255 255 255
0.119814 -0.088195 0.408 255 255 255
-0.250121 -0.00914286 0.636 255 255 255
0.227192 0.0454886 0.457 255 255 255
0.0618268 -0.0621237 0.45 0 0 0
0.126293 -0.0780389 0.414 255 255 255
-0.025602 0.0359499 0.55 255 255 255
-0.0286019 0.174615 0.523 255 255 255
0.245488 0.101194 0.489 255 255 255
-0.135356 0.196297 0.531 255 255 255
-0.262213 0.00342117 0.664 255 255 255
-0.0956345 0.143649 0.541 255 255 255
-0.230779 0.185325 0.522 255 255 255
-0.282033 -0.0183541 0.67 255 255 255
0.119914 -0.113789 0.391 255 255 255
0.0307568 -0.0166805 0.492 255 255 255
-0.0873096 0.140019 0.544 255 255 255
0.0848242 0.198617 0.519 0 0 0
0.0807133 -0.0279324 0.466 0 0 0
-0.275678 0.13406 0.556 255 255 255
0.177857 -0.135663 0.352 255 255 255
-0.0265455 0.0360153 0.551 255 255 255
-0.167976 -0.037851 0.556 255 255 255
-0.069667 -0.0617033 0.5 255 255 255
0.102734 -0.0288171 0.456 0 0 0
-0.247031 0.129794 0.565 255 255 255
-0.075937 -0.128344 0.446 255 255 255
0.198509 -0.0594787 0.398 255 255 255
-0.0789225 0.0765781 0.587 255 255 255
-0.164257 0.102211 0.565 255 255 255
-0.0755377 0.0836461 0.583 0 0 0
0.294184 0.209 0.586 255 255 255
-0.00493743 0.035427 0.542 0 0 0
-0.157555 0.147372 0.545 255 255 255
0.125687 -0.05839 0.428 255 255 255
0.254534 0.150113 0.512 255 255 255
-0.0418611 0.114879 0.564 255 255 255
-0.0172998 -0.0082575 0.516 255 255 255
-0.176504 0.0791663 0.578 0 0 0
-0.0184996 -0.115485 0.444 255 255 255
-0.208464 0.0475256 0.594 255 255 255
-0.220495 -0.0548189 0.563 255 255 255
0.29479 0.221368 0.576 255 255 255
0.147626 0.1793 0.545 255 255 255
-0.218985 0.153199 0.55 255 255 255
-0.137984 -0.0803159 0.515 255 255 255
-0.0132381 -0.15319 0.415 255 255 255
-0.260519 0.177679 0.522 255 255 255
0.0562759 0.144396 0.554 255 255 255
0.136728 0.122314 0.544 255 255 255
0.130983 0.109843 0.535 255 255 255
-0.21299 0.193177 0.518 255 255 255
0.047102 -0.124292 0.411 255 255 255
0.0934204 -0.0777099 0.427 255 255 255
0.246888 0.21085 0.578 255 255 255
0.168721 -0.0808853 0.395 255 255 255
-0.0201558 -0.133059 0.433 255 255 255
-0.00273969 -0.0714629 0.468 255 255 255
-0.015181 0.180403 0.53 255 255 255
0.138042 0.104898 0.532 255 255 255
0.122128 -0.124846 0.382 255 255 255
-0.143808 -0.0689287 0.524 255 255 255
-0.0239162 -0.086139 0.465 0 0 0
0.0656442 0.173903 0.542 255 255 255
-0.121469 -0.0495984 0.527 255 255 255
-0.256078 -0.100439 0.547 0 0 0
0.0615191 -0.150169 0.388 255 255 255
0.0944631 -0.00376007 0.478 255 255 255
-0.263595 0.123794 0.567 255 255 255
0.0751506 -0.0704458 0.438 255 255 255
-0.0185068 0.0441652 0.552 0 0 0
0.0635785 0.157704 0.547 255 255 255
-0.185283 0.0249817 0.61 255 255 255
-0.096028 0.0130019 0.564 0 0 0
0.111192 0.0200673 0.49 255 255 255
0.124198 -0.0392624 0.44 255 255 255
-0.234342 0.16711 0.54 255 255 255
-0.0167469 0.00355934 0.525 255 255 255
0.215756 0.135795 0.521 255 255 255
0.131114 0.0997038 0.532 255 255 255
0.0133517 -0.155588 0.402 255 255 255
0.0350216 0.101144 0.591 255 255 255
0.137086 -0.0739489 0.41 0 0 0
0.149736 0.209569 0.543 255 255 255
0.0108829 0.167678 0.539 255 255 255
0.0829295 0.178288 0.534 255 255 255
-0.0255997 -0.0157535 0.514 255 255 255
-0.0266217 -0.132965 0.435 255 255 255
0.119683 0.182177 0.543 255 255 255
0.0500563 -0.0180217 0.485 255 255 255
0.127221 0.173979 0.545 255 255 255
-0.0522788 -0.0442407 0.505 255 255 255
0.0439936 -0.133679 0.407 255 255 255
0.194988 0.0300672 0.46 255 255 255
0.243174 0.106248 0.494 255 255 255
-0.146037 -0.127201 0.486 255 255 255
-0.204545 0.150617 0.557 255 255 255
-0.00893987 -0.11979 0.436 255 255 255
0.108133 0.0151894 0.487 255 255 255
0.120834 -0.108251 0.394 255 255 255
-0.0113572 -0.0620998 0.478 255 255 255
0.0861806 -0.130969 0.391 255 255 255
-0.0560724 0.0960971 0.578 255 255 255
0.159173 -0.035571 0.43 255 255 255
0.182228 -0.0483955 0.414 255 255 255
0.171446 -0.0524378 0.414 255 255 255
0.207837 0.113059 0.514 0 0 0
-0.0343728 0.0968698 0.577 255 255 255
-0.0343037 0.0250262 0.546 0 0 0
-0.205647 0.121355 0.56 255 255 255
0.0929918 -0.110341 0.404 255 255 255
-0.0302417 0.0141272 0.537 255 255 255
0.175085 -0.0217266 0.433 255 255 255
-0.137574 -0.0687971 0.523 255 255 255
0.0561226 -0.151578 0.39 255 255 255
-0.17332 -0.104851 0.508 255 255 255
-0.019179 -0.117388 0.443 255 255 255
-0.0258985 0.195615 0.52 255 255 255
0.233925 0.0517758 0.46 255 255 255
0.195244 0.0554733 0.479 255 255 255
0.143393 0.0847617 0.52 255 255 255
-0.18944 0.0650042 0.586 0 0 0
0.081814 0.0446437 0.516 255 255 255
0.196802 -0.0748387 0.387 255 255 255
-0.0286799 -0.136191 0.434 255 255 255
0.197559 0.189619 0.588 255 255 255
0.118533 0.0322896 0.494 255 255 255
-0.101206 -0.0818808 0.499 255 255 255
-0.0405207 -0.0117739 0.523 255 255 255
0.0721838 0.00739851 0.496 255 255 255
-0.104845 0.0259888 0.567 255 255 255
-0.115275 0.123884 0.555 255 255 255
-0.249576 -0.128619 0.524 255 255 255
0.182211 0.12964 0.527 255 255 255
-0.189744 0.0666831 0.584 0 0 0
-0.0145073 0.160064 0.537 255 255 255
-0.10307 0.0397926 0.594 255 255 255
-0.0451053 0.194487 0.517 255 255 255
0.0901338 0.00170612 0.484 255 255 255
0.174701 -0.0571291 0.409 255 255 255
-0.0387375 0.0696022 0.601 255 255 255
0.19836 -0.0475772 0.407 255 255 255
-0.169226 -0.13276 0.489 0 0 0
0.227252 0.0599122 0.471 255 255 255
0.185394 0.0304594 0.466 255 255 255
0.0225532 0.0887909 0.592 255 255 255
-0.264505 -0.0789191 0.565 255 255 255
0.212932 0.00294239 0.434 255 255 255
0.169446 -0.0273636 0.433 255 255 255
0.056614 -0.113213 0.417 255 255 255
0.139506 0.0530234 0.5 255 255 255
-0.174161 0.147022 0.547 255 255 255
0.0819236 -0.146364 0.383 255 255 255
-0.0727324 0.195518 0.522 255 255 255
0.0482778 -0.00705841 0.491 255 255 255
0.124518 0.0617947 0.512 255 255 255
0.148673 -0.0425686 0.43 255 255 255
0.196959 -0.0272904 0.421 255 255 255
0.111431 0.0819244 0.529 255 255 255
0.130696 0.0796844 0.52 255 255 255
-0.166857 0.182104 0.535 255 255 255
-0.00750029 0.165872 0.536 255 255 255
0.0915559 -0.146686 0.379 255 255 255
0.226346 0.137227 0.52 255 255 255
-0.326191 0.0307796 0.627 255 255 255
0.107981 -0.043232 0.444 255 255 255
-0.279996 0.037137 0.631 255 255 255
0.124108 -0.135866 0.373 255 255 255
-0.0274853 0.197392 0.518 255 255 255
-0.00953893 -0.128937 0.431 255 255 255
-0.292737 0.101917 0.579 255 255 255
0.0828286 0.082596 0.539 255 255 255
-0.0785158 0.12433 0.557 255 255 255
0.0339135 0.134301 0.557 0 0 0
0.238967 0.1485 0.518 255 255 255
-0.203444 -0.0611549 0.554 0 0 0
-0.0248934 -0.0597288 0.484 255 255 255
0.0487007 0.16711 0.54 255 255 255
0.148233 -0.0787837 0.404 255 255 255
0.0767743 0.0421246 0.516 255 255 255
0.00159642 -0.152598 0.408 255 255 255
0.159674 0.0129618 0.464 255 255 255
0.0292504 -0.102997 0.434 255 255 255
-0.14209 -0.0135423 0.561 0 0 0
-0.0230884 -0.0450666 0.496 255 255 255
-0.0337744 -0.00838552 0.524 255 255 255
0.185428 0.0336365 0.468 255 255 255
-0.206962 0.0622494 0.587 255 255 255
-0.0160116 0.0601898 0.559 255 255 255
0.214865 -0.00475975 0.428 255 255 255
-0.193907 -0.0763059 0.54 255 255 255
-0.116621 0.0918554 0.575 255 255 255
-0.24478 -0.153323 0.507 0 0 0
0.163985 -0.0114147 0.443 255 255 255
-0.0809627 0.138626 0.549 255 255 255
-0.0398821 -0.0553356 0.494 0 0 0
0.0226611 0.0634643 0.548 255 255 255
-0.163988 0.0837242 0.577 255 255 255
-0.292442 0.061116 0.614 255 255 255
-0.217142 0.0720134 0.581 255 255 255
0.230592 0.0391065 0.452 255 255 255
-0.16977 -0.0430463 0.553 255 255 255
-0.0627191 0.103115 0.57 255 255 255
0.0322696 0.19679 0.53 255 255 255
0.219781 0.182444 0.599 255 255 255
0.149081 0.0280146 0.476 255 255 255
-0.100975 0.0148901 0.566 255 255 255
-0.105022 0.00931409 0.563 0 0 0
0.128059 -0.121433 0.383 255 255 255
0.202467 -0.0502636 0.402 255 255 255
0.0232522 0.160376 0.541 255 255 255
0.2485 0.111297 0.495 255 255 255
0.0868919 0.0796679 0.537 255 255 255
-0.185808 -0.0907633 0.527 255 255 255
-0.0968942 -0.043347 0.524 255 255 255
-0.251645 0.186553 0.516 255 255 255
0.0919651 0.100453 0.536 255 255 255
-0.155244 -0.0632921 0.534 255 255 255
0.149208 -0.118551 0.372 255 255 255
-0.134143 0.108839 0.566 255 255 255
0.19968 0.0657746 0.486 255 255 255
0.184639 0.0808493 0.501 255 255 255
0.268388 0.198231 0.588 255 255 255
0.102657 0.0251052 0.495 255 255 255
-0.0336988 -0.148932 0.426 255 255 255
-0.0879816 -0.0275598 0.532 255 255 255
0.0558863 -0.133345 0.402 255 255 255
-0.00762392 -0.111369 0.442 255 255 255
-0.108508 0.165563 0.535 255 255 255
0.20316 -0.0461389 0.406 255 255 255
-0.0258541 -0.134072 0.434 255 255 255
-0.109379 0.152503 0.535 255 255 255
0.141647 -0.135922 0.365 255 255 255
-0.31898 0.051374 0.617 255 255 255
-0.0159662 0.0838322 0.591 255 255 255
0.191408 -0.0441389 0.412 255 255 255
-0.151996 0.157735 0.541 255 255 255
-0.0471747 0.133751 0.551 255 255 255
0.0205341 0.17294 0.539 255 255 255
-0.136131 0.203942 0.524 255 255 255
-0.0302624 -0.0263165 0.508 255 255 255
-0.269016 -0.140021 0.522 255 255 255
-0.174366 0.0921457 0.571 0 0 0
-0.0248072 0.106455 0.573 255 255 255
-0.073864 -0.0297035 0.524 255 255 255
0.0500383 -0.0381151 0.47 255 255 255
-0.0661873 -0.0228818 0.524 255 255 255
-0.238358 -0.0377268 0.582 255 255 255
0.134578 0.101435 0.532 255 255 255
-0.0177455 -0.0893424 0.462 255 255 255
-0.0442278 0.160064 0.537 255 255 255
0.0710315 -0.0960285 0.422 255 255 255
-0.215647 0.0752735 0.577 0 0 0
0.0945826 0.091731 0.536 255 255 255
-0.0725576 0.122266 0.56 255 255 255
0.00813061 -0.108223 0.438 255 255 255
0.0714734 -0.082325 0.433 255 255 255
0.279379 0.211944 0.581 255 255 255
0.121263 -0.0331911 0.445 255 255 255
-0.307674 0.0310741 0.633 255 255 255
-0.13016 -0.0612542 0.524 255 255 255
0.092818 0.191881 0.526 255 255 255
-0.216362 -0.0264522 0.584 0 0 0
0.10605 -0.0520323 0.439 255 255 255
-0.201607 -0.0668568 0.549 255 255 255
-0.101105 0.143915 0.542 255 255 255
0.0767394 0.153756 0.552 255 255 255
0.111662 -0.0683549 0.425 255 255 255
0.031812 0.0765035 0.552 255 255 255
-0.217616 -0.119404 0.521 255 255 255
-0.0826058 -0.136331 0.439 255 255 255
0.0651298 -0.0844389 0.433 255 255 255
-0.266268 0.0516989 0.609 255 255 255
-0.290753 -0.000902367 0.665 255 255 255
0.0506794 -0.0971492 0.43 255 255 255
0.0779327 -0.0322733 0.463 255 255 255
0.0502443 0.017601 0.511 255 255 255
-0.0272242 -0.0987871 0.457 255 255 255
-0.0891248 0.0129327 0.561 255 255 255
-0.235072 0.0499162 0.588 255 255 255
0.0445124 -0.152491 0.394 255 255 255
-0.0347435 0.0334463 0.553 255 255 255
0.122938 -0.0936724 0.403 255 255 255
0.225178 0.221209 0.566 255 255 255
-0.134544 -0.0116955 0.56 0 0 0
0.126568 -0.0233637 0.451 255 255 255
0.16733 -0.123702 0.364 255 255 255
-0.0461522 0.166288 0.529 255 255 255
0.065855 0.035407 0.516 255 255 255
-0.157804 0.0871769 0.575 255 255 255
0.170905 0.164744 0.602 255 255 255
0.0411284 0.0487166 0.533 255 255 255
0.0924083 0.163641 0.549 255 255 255
-0.173062 0.191615 0.53 255 255 255
0.00731859 0.187328 0.535 255 255 255
0.0262418 -0.108597 0.431 255 255 255
0.21284 0.043072 0.463 255 255 255
-0.192808 0.012176 0.615 0 0 0
-0.161501 0.0658453 0.585 0 0 0
0.242376 0.213127 0.574 255 255 255
-0.0951376 -0.0815526 0.497 0 0 0
0.119592 -0.09216 0.405 255 255 255
0.236007 0.122486 0.508 0 0 0
-0.0823937 0.192856 0.524 255 255 255
-0.0537317 -0.0356191 0.511 255 255 255
-0.105221 0.158022 0.536 255 255 255
-0.157636 0.0958625 0.571 255 255 255
0.0166399 -0.0129092 0.501 255 255 255
-0.102103 -0.101473 0.484 255 255 255
-0.241491 0.0582294 0.585 255 255 255
-0.227422 0.134592 0.562 255 255 255
-0.27295 0.161474 0.533 255 255 255
0.162134 0.0914893 0.515 255 255 255
-0.0504087 -0.0974896 0.465 255 255 255
0.194783 -0.0560116 0.401 255 255 255
0.185439 -0.072529 0.395 255 255 255
0.144372 -0.0896935 0.397 255 255 255
-0.0576883 -0.0505132 0.502 255 255 255
0.0385033 -0.138295 0.405 255 255 255
-0.226074 0.190172 0.519 255 255 255
0.0644238 0.199078 0.518 255 255 255
-0.277399 -0.140825 0.525 255 255 255
0.0524786 0.144773 0.552 255 255 255
-0.159376 -0.0191216 0.564 255 255 255
0.121994 0.0535536 0.505 255 255 255
0.0848265 0.179493 0.535 255 255 255
0.137315 0.064873 0.51 255 255 255
0.0914325 0.178748 0.538 255 255 255
0.028918 -0.022898 0.488 255 255 255
-0.20201 -0.0234799 0.581 0 0 0
-0.204735 0.108597 0.56 0 0 0
0.0211557 -0.0962639 0.442 255 255 255
0.0953685 -0.145912 0.377 255 255 255
0.123339 0.14105 0.614 255 255 255
0.111496 -0.112382 0.395 255 255 255
-0.216586 0.136847 0.56 255 255 255
-0.12496 -0.121978 0.481 255 255 255
-0.238268 -0.108683 0.535 255 255 255
-0.171803 0.142832 0.548 255 255 255
-0.161694 0.148872 0.544 255 255 255
0.223661 0.0497454 0.462 255 255 255
0.0966414 -0.094208 0.414 255 255 255
0.00293097 0.192975 0.529 255 255 255
-0.250854 -0.161292 0.501 255 255 255
-0.223087 -0.125816 0.516 255 255 255
0.130832 0.0244966 0.483 255 255 255
-0.286132 0.140669 0.55 255 255 255
-0.309032 -0.0252304 0.679 255 255 255
0.0801964 0.0887359 0.539 255 255 255
-0.262331 0.0209372 0.638 0 0 0
-0.0635859 -0.0645682 0.497 255 255 255
-0.133389 0.187155 0.537 255 255 255
0.0578494 -0.133345 0.402 255 255 255
-0.110197 0.148381 0.539 255 255 255
-0.0847095 0.0184431 0.562 0 0 0
-0.210524 0.011266 0.62 0 0 0
0.202023 -0.0604686 0.396 255 255 255
0.159983 0.173246 0.554 255 255 255
0.208026 -0.0150651 0.424 255 255 255
0.16422 -0.0815281 0.395 255 255 255
0.202194 0.0567942 0.477 255 255 255
-0.209529 0.169916 0.535 255 255 255
0.0379889 0.0168679 0.514 255 255 255
0.234906 0.124873 0.511 0 0 0
0.173793 -0.0572688 0.41 255 255 255
0.0889241 0.00408582 0.486 255 255 255
0.047889 0.191976 0.531 255 255 255
0.0955483 -0.055731 0.44 255 255 255
0.135482 -0.139868 0.366 255 255 255
0.161107 -0.0978869 0.386 255 255 255
-0.314962 0.052378 0.617 255 255 255
-0.0360509 -0.0296232 0.508 255 255 255
-0.0520343 0.129303 0.555 255 255 255
0.115517 -0.0334149 0.448 255 255 255
0.152271 -0.0705846 0.406 255 255 255
0.0297373 0.0152541 0.516 255 255 255
0.197431 0.00515447 0.442 255 255 255
0.0481759 0.163921 0.544 255 255 255
-0.0118628 0.160639 0.536 255 255 255
0.0122826 -0.14534 0.41 255 255 255
0.103485 0.0748957 0.528 0 0 0
-0.170908 0.0843697 0.575 255 255 255
-0.179016 -0.00735574 0.577 255 255 255
-0.320067 0.0328203 0.627 255 255 255
0.145898 -0.0812119 0.403 255 255 255
-0.00179615 -0.131983 0.425 255 255 255
0.202797 0.0647163 0.484 255 255 255
0.184624 -0.0327712 0.421 255 255 255
-0.151864 0.111331 0.56 255 255 255
0.292775 0.206491 0.587 255 255 255
-0.103943 0.142413 0.543 255 255 255
-0.0478153 -0.0330596 0.51 255 255 255
0.033945 0.0593507 0.543 0 0 0
0.172967 0.205914 0.567 255 255 255
0.197355 0.174646 0.599 255 255 255
0.107195 -0.0941706 0.408 255 255 255
0.176033 -0.0571291 0.409 255 255 255
-0.0557775 -0.0951167 0.472 255 255 255
-0.087748 -0.0707949 0.501 255 255 255
0.197059 -0.0570309 0.399 255 255 255
-0.229947 -0.0982748 0.54 0 0 0
0.129172 -0.0183878 0.455 255 255 255
-0.0011615 -0.10099 0.447 255 255 255
0.232372 0.210485 0.577 255 255 255
0.0456422 -0.135981 0.404 255 255 255
0.129996 0.198826 0.524 255 255 255
-0.027293 0.143724 0.548 255 255 255
0.156825 -0.130451 0.363 255 255 255
-0.16406 0.120271 0.555 255 255 255
0.0144696 -0.0391694 0.483 255 255 255
-0.00491922 0.172382 0.54 255 255 255
-0.124679 -0.0806812 0.512 255 255 255
0.129252 0.200231 0.521 255 255 255
0.181546 -0.125971 0.357 255 255 255
0.0898147 -0.0114421 0.474 255 255 255
0.0472852 -0.0133958 0.489 255 255 255
0.0108408 0.0856903 0.584 255 255 255
-0.228189 0.050086 0.59 255 255 255
0.0016238 -0.143736 0.415 255 255 255
0.115997 -0.111097 0.395 255 255 255
0.161697 -0.129503 0.362 255 255 255
-0.292347 -0.102811 0.555 255 255 255
0.217741 0.104298 0.504 255 255 255
0.140093 -0.0182666 0.452 255 255 255
-0.128692 0.137111 0.543 255 255 255
-0.0993315 -0.070678 0.506 255 255 255
-0.119975 -0.0975316 0.496 255 255 255
0.159692 0.123079 0.532 255 255 255
0.167165 0.178809 0.563 255 255 255
0.137392 -0.0802968 0.405 0 0 0
0.163539 0.171477 0.56 255 255 255
0.105728 0.0906892 0.535 255 255 255
-0.18305 -0.000800596 0.59 255 255 255
-0.130397 0.126365 0.554 255 255 255
-0.0671682 0.176992 0.525 255 255 255
0.16657 -0.0798013 0.396 255 255 255
0.0322364 0.161266 0.544 255 255 255
0.0858427 0.00972098 0.491 255 255 255
-0.214509 0.154094 0.55 255 255 255
0.13149 0.166019 0.548 255 255 255
0.183443 0.208126 0.568 255 255 255
0.202616 -0.0514437 0.401 255 255 255
-0.0547599 -0.129505 0.445 255 255 255
0.17242 -0.107705 0.366 255 255 255
-0.0647989 0.0200558 0.556 255 255 255
0.151169 -0.139141 0.358 255 255 255
-0.177133 0.106808 0.565 255 255 255
-0.17327 0.155924 0.547 255 255 255
-0.194622 0.158248 0.552 255 255 255
0.0611689 0.0381466 0.519 255 255 255
-0.165365 0.184026 0.533 255 255 255
0.149082 -0.00285119 0.457 255 255 255
0.0409831 0.12564 0.567 255 255 255
0.176433 0.0496486 0.483 255 255 255
0.158608 -0.103359 0.383 255 255 255
0.143645 -0.0937412 0.395 255 255 255
0.0692336 -0.134577 0.396 255 255 255
0.17775 0.0388591 0.476 255 255 255
-0.0507933 -0.132947 0.442 0 0 0
-0.0297504 0.0240493 0.544 0 0 0
0.277923 0.188019 0.592 255 255 255
0.176249 0.0839602 0.505 255 255 255
0.180728 -0.121757 0.36 255 255 255
-0.0737316 0.116301 0.562 255 255 255
0.151237 -0.0750243 0.405 0 0 0
0.167082 -0.102199 0.381 255 255 255
-0.161777 0.00778736 0.586 255 255 255
0.19767 -0.0145785 0.43 255 255 255
-0.0424982 0.19663 0.516 255 255 255
-0.190602 0.117774 0.556 0 0 0
0.0872712 -0.0633181 0.438 255 255 255
-0.158487 -0.0826289 0.519 255 255 255
-0.244926 -0.139251 0.516 255 255 255
0.098792 -0.0136111 0.469 0 0 0
0.0292014 -0.145843 0.404 255 255 255
0.0913479 0.16691 0.548 255 255 255
0.149053 0.0622216 0.502 255 255 255
-0.0907891 0.0101758 0.56 255 255 255
0.186494 -0.0462623 0.413 255 255 255
-0.0479385 -0.0694662 0.486 0 0 0
-0.130104 -0.0789451 0.517 255 255 255
0.120631 -0.0111525 0.462 0 0 0
-0.0176015 0.194079 0.525 255 255 255
0.0230547 -0.0806098 0.451 255 255 255
-0.179672 0.119838 0.553 255 255 255
0.101 0.159146 0.552 255 255 255
-0.0366426 -0.157086 0.42 255 255 255
-0.0794062 -0.0582113 0.505 255 255 255
0.20047 -0.0138788 0.43 255 255 255
0.205945 0.0161601 0.448 255 255 255
-0.000396018 -0.153926 0.408 255 255 255
-0.154325 0.167155 0.543 255 255 255
0.0368844 -0.0340967 0.478 0 0 0
-0.0332588 0.201668 0.516 255 255 255
0.191874 -0.0207792 0.428 255 255 255
0.155897 -0.104254 0.384 255 255 255
-0.183941 0.0457459 0.596 0 0 0
0.127855 0.045609 0.499 255 255 255
-0.152232 0.148259 0.545 0 0 0
0.0643932 -0.128766 0.402 255 255 255
-0.0106622 0.000986811 0.52 255 255 255
0.002798 -0.0146559 0.505 255 255 255
-0.0326193 0.00534831 0.533 255 255 255
0.151205 -0.0971312 0.388 255 255 255
0.0874483 -0.0828789 0.425 255 255 255
-0.116597 0.122518 0.557 255 255 255
-0.0340524 0.150971 0.542 255 255 255
-0.0520793 0.016141 0.546 0 0 0
-0.203003 -0.00564868 0.595 255 255 255
0.242808 0.152165 0.519 255 255 255
0.0232827 -0.151102 0.404 255 255 255
-0.0408974 0.187756 0.517 255 255 255
0.112877 -0.0222357 0.458 255 255 255
0.151422 0.0404664 0.486 255 255 255
0.176916 -0.118046 0.363 255 255 255
0.192258 -0.0756635 0.388 255 255 255
0.0958713 -0.130299 0.389 255 255 255
-0.140519 -0.0851783 0.509 255 255 255
0.0882035 0.0516599 0.519 255 255 255
0.169023 -0.0961299 0.384 255 255 255
0.176108 -0.0830348 0.39 255 255 255
0.0383132 -0.142858 0.403 255 255 255
-0.14629 -0.0389473 0.546 255 255 255
0.188839 0.201684 0.576 255 255 255
-0.0348033 0.191685 0.514 255 255 255
-0.217625 0.192705 0.519 255 255 255
0.145485 -0.067097 0.413 255 255 255
0.190428 0.135386 0.526 255 255 255
0.086601 -0.0321339 0.461 255 255 255
0.068918 0.0845067 0.54 255 255 255
-0.264498 0.150308 0.546 255 255 255
-0.0292775 -0.0855659 0.466 255 255 255
0.0659826 0.0379996 0.517 255 255 255
0.0687128 0.0522572 0.525 255 255 255
0.089791 -0.0831772 0.423 255 255 255
0.184586 0.116964 0.524 255 255 255
-0.0615955 0.15715 0.536 255 255 255
-0.195508 0.169493 0.542 255 255 255
0.232736 0.0828317 0.484 255 255 255
-0.0085133 -0.0996919 0.451 255 255 255
0.113152 0.198351 0.525 0 0 0
-0.0535113 -0.151108 0.413 255 255 255
-0.0278765 0.150971 0.542 255 255 255
0.0509093 -0.085414 0.438 255 255 255
-0.0100612 0.0157567 0.533 255 255 255
0.0688023 -0.127793 0.401 255 255 255
-0.0438147 -0.146132 0.43 255 255 255
0.18309 0.0748423 0.499 255 255 255
-0.153314 -0.137704 0.484 0 0 0
-0.131013 -0.0663705 0.524 255 255 255
-0.0610262 -0.099514 0.471 255 255 255
0.0379599 -0.0817099 0.445 255 255 255
-0.266123 0.0087043 0.655 0 0 0
0.231668 0.191872 0.592 255 255 255
0.0511087 -0.0544028 0.459 255 255 255
-0.0380393 -0.00923824 0.524 255 255 255
-0.150396 0.0548866 0.59 255 255 255
-0.267784 0.0982343 0.574 255 255 255
0.0747242 -0.137968 0.391 255 255 255
0.00864869 0.123358 0.565 255 255 255
-0.183359 -0.0692758 0.54 255 255 255
-0.00237937 0.122005 0.563 255 255 255
0.0178355 0.168803 0.537 255 255 255
-0.308699 -0.0505261 0.599 255 255 255
0.136074 -0.082274 0.405 255 255 255
-0.334383 -0.0194444 0.67 255 255 255
-0.0722 -0.0120891 0.537 255 255 255
0.194154 0.0388844 0.467 255 255 255
0.230643 0.0571235 0.467 255 255 255
0.14308 -0.0890475 0.397 255 255 255
-0.0350239 -0.00071918 0.53 255 255 255
0.159369 0.207879 0.555 255 255 255
0.0438272 -0.05539 0.461 255 255 255
0.0423365 0.0228115 0.516 255 255 255
-0.0765564 -0.0992292 0.477 0 0 0
-0.299552 -0.0783081 0.574 255 255 255
-0.029368 0.0596235 0.571 0 0 0
-0.223387 -0.0180828 0.59 255 255 255
0.185359 0.0959556 0.512 255 255 255
0.0496265 0.0366682 0.522 255 255 255
-0.14637 0.148598 0.543 255 255 255
-0.15929 0.123888 0.551 0 0 0
-0.27417 -0.128851 0.532 255 255 255
0.0800788 -0.107162 0.412 255 255 255
0.296913 0.21515 0.582 255 255 255
0.0501845 -0.111293 0.42 255 255 255
0.027541 -0.153128 0.399 255 255 255
-0.271981 0.136282 0.554 255 255 255
0.180395 -0.097962 0.379 255 255 255
0.0870731 -0.112971 0.404 255 255 255
-0.0714924 0.10976 0.566 255 255 255
0.182055 -0.123411 0.358 255 255 255
0.119169 -0.104553 0.397 255 255 255
-0.275163 0.146754 0.546 255 255 255
-0.177323 -0.102774 0.51 255 255 255
0.0424688 0.0571592 0.539 255 255 255
0.0955338 -0.0869556 0.418 255 255 255
-0.292246 0.127734 0.56 255 255 255
0.0516032 0.0158443 0.508 255 255 255
-0.226047 0.170551 0.537 255 255 255
-0.0772759 -0.0331144 0.524 255 255 255
-0.165194 -0.0979865 0.511 255 255 255
0.167923 -0.122518 0.364 255 255 255
0.107582 -0.106524 0.402 255 255 255
0.0630633 -0.0469334 0.459 255 255 255
0.236885 0.189302 0.593 255 255 255
-0.000467845 -0.0492851 0.482 255 255 255
0.129218 -0.0233119 0.45 255 255 255
-0.0762222 -0.0731692 0.495 255 255 255
0.13624 -0.0409399 0.435 255 255 255
0.0154282 0.00768192 0.515 255 255 255
0.0580795 0.143495 0.554 255 255 255
-0.1518 0.0633124 0.588 255 255 255
0.155913 0.104969 0.528 255 255 255
0.0711409 0.0530103 0.524 255 255 255
0.00912809 0.182589 0.539 255 255 255
-0.237854 -0.169368 0.496 255 255 255
0.0917581 -0.0577475 0.439 255 255 255
-0.0563162 0.00722922 0.544 255 255 255
-0.0968145 -0.0471564 0.519 255 255 255
-0.244569 -0.0414439 0.581 255 255 255
-0.0164556 -0.15974 0.411 255 255 255
0.124025 0.0109502 0.475 255 255 255
0.0754938 -0.0679034 0.44 255 255 255
-0.0784271 -0.0298169 0.526 255 255 255
-0.204877 0.154935 0.553 255 255 255
-0.100592 0.133822 0.544 255 255 255
-0.0305364 0.16909 0.527 255 255 255
-0.0934753 -0.0621074 0.51 255 255 255
0.182957 0.0209927 0.458 255 255 255
0.059905 -0.142874 0.394 255 255 255
-0.0058197 0.031899 0.542 255 255 255
0.252117 0.194403 0.588 255 255 255
-0.225994 0.0200183 0.61 255 255 255
-0.135013 0.14602 0.54 0 0 0
-0.237857 0.162437 0.542 255 255 255
0.161148 -0.0521391 0.417 255 255 255
0.238349 0.103033 0.494 255 255 255
0.247938 0.0982007 0.486 255 255 255
-0.103959 0.168729 0.534 255 255 255
0.290403 0.204929 0.588 255 255 255
-0.17301 0.163641 0.549 255 255 255
-0.0107853 0.194449 0.526 255 255 255
0.0858136 -0.0212433 0.469 255 255 255
-0.272883 0.155985 0.538 255 255 255
-0.0045849 -0.131215 0.427 255 255 255
0.065581 -0.0779288 0.436 255 255 255
0.0643922 0.146199 0.554 255 255 255
0.000356188 0.175667 0.542 255 255 255
-0.0152279 -0.155516 0.414 255 255 255
-0.152232 0.129634 0.545 255 255 255
0.17704 0.0276615 0.47 255 255 255
-0.183734 -0.0588162 0.549 0 0 0
-0.16162 0.0749787 0.582 0 0 0
0.210112 0.193472 0.591 255 255 255
-0.0851973 -0.0837642 0.491 255 255 255
0.183143 0.0305901 0.468 255 255 255
0.174168 0.186973 0.574 255 255 255
-0.0749122 -0.0710385 0.497 255 255 255
0.0320273 -0.114423 0.424 255 255 255
0.142644 -0.140493 0.363 255 255 255
-0.180895 0.0818463 0.577 255 255 255
-0.0465815 -0.123155 0.443 0 0 0
0.203512 -0.00902227 0.432 255 255 255
0.121862 0.150617 0.557 255 255 255
0.0992862 -0.0975384 0.411 255 255 255
-0.219722 0.184329 0.524 255 255 255
-0.00571275 -0.0810723 0.462 255 255 255
0.10915 0.107156 0.539 255 255 255
0.135699 0.107698 0.533 255 255 255
0.0836234 -0.042634 0.453 255 255 255
0.0384469 0.133395 0.557 255 255 255
-0.271372 -0.144561 0.52 255 255 255
0.144515 -0.102549 0.387 0 0 0
-0.00378051 -0.146437 0.415 255 255 255
0.217092 0.0325584 0.453 0 0 0
0.201402 -0.0111313 0.432 255 255 255
-0.215012 0.155601 0.549 255 255 255
0.142608 0.00617939 0.465 255 255 255
-0.151885 -0.085513 0.511 255 255 255
0.183656 0.00448536 0.447 255 255 255
0.00619463 0.20005 0.514 255 255 255
-0.193854 -0.0834349 0.535 255 255 255
0.0824696 -0.114943 0.404 255 255 255
-0.213378 0.0931809 0.566 255 255 255
0.0450392 -0.151465 0.393 255 255 255
0.0455193 0.155069 0.544 255 255 255
-0.242752 -0.124355 0.524 255 255 255
-0.0351748 -0.107743 0.454 255 255 255
0.174724 -0.047389 0.417 255 255 255
0.23043 0.0535046 0.462 255 255 255
-0.044722 0.0151687 0.543 255 255 255
-0.269071 -0.0409167 0.587 255 255 255
-0.00744431 0.188875 0.532 255 255 255
0.0188294 -0.0523239 0.474 255 255 255
0.171766 -0.13257 0.356 255 255 255
-0.201315 0.174812 0.534 255 255 255
0.17495 -0.0765792 0.396 255 255 255
0.0365255 -0.140272 0.405 255 255 255
0.00774266 0.122655 0.566 255 255 255
-0.0342057 -0.0688944 0.482 255 255 255
0.0556296 0.1668 0.539 0 0 0
-0.184506 0.12907 0.554 255 255 255
-0.12183 0.0257292 0.582 255 255 255
-0.0684905 0.0690232 0.596 0 0 0
0.0749153 -0.136407 0.392 255 255 255
-0.21156 -0.0638596 0.554 255 255 255
-0.135137 0.177542 0.537 255 255 255
0.16628 -0.123953 0.363 255 255 255
-0.159024 -0.04703 0.547 255 255 255
0.109446 -0.0861235 0.414 255 255 255
-0.0288377 -0.0969786 0.459 255 255 255
-0.0622507 -0.105358 0.463 255 255 255
0.196627 0.12841 0.522 255 255 255
-0.202004 0.153689 0.555 255 255 255
0.237958 0.138989 0.514 255 255 255
0.142504 -0.0109835 0.455 255 255 255
0.195287 0.105531 0.514 255 255 255
-0.179431 0.0139932 0.607 255 255 255
-0.0312554 0.0435021 0.555 255 255 255
-0.0266894 -0.0309688 0.503 255 255 255
0.220454 0.0166629 0.442 255 255 255
-0.0644168 -0.0733769 0.491 255 255 255
-0.167595 0.0411709 0.6 255 255 255
0.0645579 -0.138737 0.395 255 255 255
0.221245 0.126095 0.516 255 255 255
-0.210524 0.0142929 0.62 255 255 255
0.126862 -0.0504996 0.432 255 255 255
0.0145594 -0.0346674 0.486 255 255 255
-0.192427 0.18774 0.524 255 255 255
-0.194474 0.0919843 0.57 255 255 255
0.229857 0.0391065 0.452 255 255 255
0.179036 0.217953 0.56 255 255 255
-0.0915997 0.0240582 0.565 255 255 255
-0.159543 0.120271 0.555 255 255 255
-0.171578 0.0930749 0.571 255 255 255
0.037093 -0.143213 0.404 255 255 255
-0.107697 0.185063 0.531 255 255 255
0.112421 0.133955 0.609 255 255 255
-0.0199162 -0.0659891 0.478 255 255 255
0.131515 -0.0110559 0.458 255 255 255
0.170973 -0.0340126 0.428 255 255 255
-0.137633 0.000153849 0.569 0 0 0
0.13081 -0.0890817 0.403 255 255 255
-0.274233 0.0232301 0.644 255 255 255
0.164468 -0.09208 0.388 255 255 255
0.126218 -0.0910491 0.403 255 255 255
-0.26756 -0.000911866 0.672 255 255 255
0.119582 -0.111529 0.392 255 255 255
-0.0462349 -0.142923 0.433 255 255 255
0.0841027 -0.10381 0.412 255 255 255
0.157751 -0.00502665 0.452 255 255 255
0.0238603 0.111893 0.577 255 255 255
0.0516032 0.0150176 0.508 255 255 255
0.192651 -0.0541888 0.402 255 255 255
-0.133112 0.135344 0.543 255 255 255
0.134204 -0.0449795 0.433 255 255 255
-0.157543 0.0125983 0.588 255 255 255
0.236885 0.191232 0.593 255 255 255
-0.0612493 0.111405 0.565 255 255 255
-0.195113 0.0656202 0.583 0 0 0
0.155657 -0.0122178 0.446 255 255 255
0.124823 -0.0247765 0.45 255 255 255
0.0341875 0.0443798 0.533 255 255 255
0.112235 -0.135226 0.378 255 255 255
0.10216 -0.00372861 0.474 255 255 255
-0.208757 -0.0713238 0.549 0 0 0
0.197213 -0.058831 0.398 255 255 255
0.0131167 -0.0714529 0.463 255 255 255
0.208469 0.139135 0.524 255 255 255
0.101041 -0.00142051 0.476 255 255 255
-0.0468303 0.0859008 0.592 255 255 255
0.216832 0.0836874 0.489 255 255 255
-0.233979 -0.0697689 0.558 255 255 255
-0.23987 0.0411709 0.6 255 255 255
-0.26499 -0.0721969 0.57 255 255 255
-0.190884 0.178288 0.534 255 255 255
-0.0207397 -0.0082895 0.518 255 255 255
0.0726179 -0.0431045 0.458 255 255 255
0.234016 0.185059 0.598 255 255 255
-0.0347874 -0.113863 0.449 255 255 255
0.0584631 -0.0436692 0.464 0 0 0
-0.119473 0.10807 0.562 0 0 0
-0.131368 0.0151006 0.574 255 255 255
0.148395 -0.115835 0.373 255 255 255
0.214346 0.210325 0.574 255 255 255
-0.0160403 0.125 0.56 255 255 255
-0.130699 0.0373274 0.601 255 255 255
-0.187754 0.175019 0.54 255 255 255
0.0259845 0.132763 0.562 255 255 255
-0.0133019 -0.150536 0.417 255 255 255
0.109974 -0.0956911 0.406 255 255 255
0.174641 -0.0535254 0.412 255 255 255
-0.108854 -0.060319 0.516 255 255 255
-0.0752873 0.17027 0.528 255 255 255
-0.0318112 0.15917 0.534 0 0 0
-0.0183329 -0.119457 0.44 255 255 255
-0.0320073 0.175467 0.523 255 255 255
0.0809091 -0.0853535 0.427 255 255 255
0.0533907 0.162736 0.543 255 255 255
0.162157 0.0351331 0.478 255 255 255
0.0963408 -0.0449789 0.447 255 255 255
-0.152838 0.150642 0.544 255 255 255
0.15752 -0.0946056 0.388 255 255 255
0.251519 0.208748 0.58 255 255 255
-0.264137 -0.168485 0.503 255 255 255
0.0494157 0.0918639 0.558 255 255 255
0.164343 0.00531773 0.456 0 0 0
-0.030775 0.062451 0.58 0 0 0
-0.235151 0.177144 0.528 255 255 255
0.00344083 -0.0498618 0.48 255 255 255
0.016972 0.000138167 0.511 255 255 255
0.1875 0.0255758 0.46 255 255 255
0.123764 0.00861306 0.474 255 255 255
0.133795 0.0140125 0.474 255 255 255
-0.176222 0.17929 0.537 255 255 255
0.15253 -0.0358192 0.433 255 255 255
0.214665 0.0280111 0.451 255 255 255
0.0439001 0.00917636 0.505 255 255 255
-0.303552 0.030044 0.633 255 255 255
0.171031 -0.0543274 0.413 255 255 255
0.0159424 -0.0420506 0.48 255 255 255
0.154147 -0.0654344 0.411 255 255 255
0.184099 0.158 0.61 255 255 255
0.0705288 -0.107267 0.415 255 255 255
0.0694468 -0.0718713 0.438 255 255 255
0.0403363 0.174812 0.534 255 255 255
0.178208 0.205715 0.569 255 255 255
-0.0116857 0.19261 0.528 255 255 255
0.0320869 0.0344466 0.527 255 255 255
0.131402 -0.103499 0.393 255 255 255
0.0575663 -0.0365076 0.469 255 255 255
-0.0268992 0.175467 0.523 255 255 255
-0.163814 -0.0754694 0.528 255 255 255
0.242125 0.158445 0.523 255 255 255
0.0370097 0.113771 0.577 255 255 255
-0.260367 -0.0726113 0.566 255 255 255
-0.196738 0.120921 0.558 255 255 255
-0.257613 0.177169 0.523 255 255 255
-0.219579 -0.0419517 0.575 255 255 255
0.157956 -0.12293 0.367 255 255 255
0.168643 -0.124544 0.363 255 255 255
-0.0115711 -0.0490039 0.487 255 255 255
-0.144683 0.167989 0.54 255 255 255
0.0338035 -0.129958 0.412 255 255 255
-0.247468 0.108839 0.566 255 255 255
0.128136 -0.115774 0.387 255 255 255
0.148513 0.180187 0.545 255 255 255
0.133277 -0.0266137 0.444 255 255 255
-0.211856 0.00620123 0.618 0 0 0
0.0908531 0.0286707 0.501 255 255 255
0.000372617 0.11549 0.567 255 255 255
-0.083923 -0.124715 0.446 255 255 255
0.113017 -0.122072 0.387 255 255 255
0.130795 -0.0630653 0.422 255 255 255
0.187601 0.00374953 0.446 255 255 255
-0.271049 0.0915359 0.573 255 255 255
0.0748456 -0.131666 0.395 255 255 255
0.208917 -0.00129219 0.433 255 255 255
0.113621 -0.0733663 0.422 255 255 255
-0.221144 0.129557 0.56 255 255 255
-0.174221 0.137088 0.55 255 255 255
-0.0207643 -0.135951 0.431 255 255 255
0.206569 0.0835697 0.493 255 255 255
0.205847 -0.00689725 0.431 255 255 255
0.0968965 -0.0367365 0.453 255 255 255
-0.0440136 0.0850809 0.593 255 255 255
