ply
format ascii 1.0
comment Created by Open3D
element vertex 1299
property double x
property double y
property double z
property uchar red
property uchar green
property uchar blue
end_header
-0.273811 -0.842571 2.604 255 255 255
0.901093 -0.157155 2.695 255 255 255
0.0354898 0.0640542 0.491 255 255 255
-0.0134023 0.198921 0.71 255 255 255
0.629783 0.533673 1.583 255 255 255
0.187998 -0.120548 1.198 255 255 255
-1.22498 -1.06933 3.102 255 255 255
0.174319 -0.521732 1.744 255 255 255
-0.353533 -0.258684 1.502 255 255 255
-1.41572 -1.04943 3.133 255 255 255
0.044298 0.00407553 0.791 255 255 255
0.925052 -0.442594 2.499 255 255 255
-0.61985 -0.286979 1.484 255 255 255
-0.104876 0.126117 0.744 255 255 255
-0.20783 0.109365 0.771 255 255 255
-0.0378851 0.186099 0.714 255 255 255
0.242788 -0.44133 1.81 255 255 255
0.254986 -0.0641448 1.1 255 255 255
1.14441 0.0274749 2.356 255 255 255
-0.657282 -0.199694 1.366 255 255 255
0.0924863 0.190392 0.529 255 255 255
0.716061 0.54459 1.52 255 255 255
-0.272182 -0.172163 1.342 255 255 255
-0.183257 0.0907956 0.784 255 255 255
1.02927 0.188289 2.024 255 255 255
-0.83933 -0.83085 2.871 255 255 255
-0.567737 -0.141281 1.192 255 255 255
-1.02242 -1.13267 3.055 255 255 255
-0.259217 0.288891 0.81 255 255 255
-0.430759 0.0864593 0.828 255 255 255
-0.528577 -0.0891284 1.145 255 255 255
0.282381 -0.193105 1.351 255 255 255
-0.0267878 0.0225265 0.762 255 255 255
-0.370859 0.134174 0.784 255 255 255
0.374926 -0.764664 2.294 255 255 255
-0.111841 0.133023 0.742 255 255 255
0.621449 0.29839 2.128 255 255 255
0.888677 -0.261339 2.684 255 255 255
0.160265 0.217672 0.755 255 255 255
-0.123886 -0.314422 1.599 255 255 255
0.0307795 0.157387 0.69 255 255 255
0.883688 -0.885131 2.43 255 255 255
0.653139 0.524514 1.571 255 255 255
0.0200174 -0.120861 1.182 255 255 255
0.834352 0.387413 1.815 255 255 255
-0.0123156 0.220956 0.714 255 255 255
0.300597 -0.87611 2.449 255 255 255
0.0855249 0.213002 0.545 255 255 255
-0.52696 -0.0975924 1.114 255 255 255
0.412652 -0.474473 1.959 0 0 0
-0.236413 0.20481 0.762 255 255 255
0.510684 -0.677143 2.114 255 255 255
-0.585212 -0.254799 1.452 255 255 255
1.07994 0.0277898 2.383 255 255 255
-0.00765581 0.139427 0.713 255 255 255
-0.108245 0.203257 0.734 255 255 255
-0.67309 -0.379474 1.599 255 255 255
-0.0413719 0.164023 0.714 255 255 255
-0.0544601 0.190647 0.718 255 255 255
-1.36275 -0.746753 2.871 255 255 255
1.11827 -0.173597 2.55 255 255 255
0.28099 0.0563224 1.013 255 255 255
1.03411 -0.485548 2.449 255 255 255
-0.311998 0.140732 0.771 255 255 255
0.53686 -0.680713 2.136 255 255 255
-0.703678 -1.04824 2.743 255 255 255
0.244691 -0.0620146 1.094 255 255 255
-0.0432049 -0.173667 1.229 255 255 255
-1.47111 -0.800693 2.967 255 255 255
0.987221 0.0579247 2.347 255 255 255
-0.256343 0.0640903 0.835 255 255 255
0.768209 0.503895 1.603 255 255 255
-0.045104 0.115336 0.737 255 255 255
0.776232 -0.011861 2.572 255 255 255
-0.949447 -1.14443 2.982 255 255 255
-0.298668 -0.439609 1.659 255 255 255
0.26933 -0.251278 1.459 255 255 255
-0.629924 -0.351108 1.532 255 255 255
-0.0362153 0.0356601 0.778 255 255 255
-0.189076 -0.185129 1.357 255 255 255
0.0897151 0.173617 0.533 255 255 255
-0.660846 -0.245347 1.452 255 255 255
0.052749 0.081928 0.488 255 255 255
0.243486 -0.173506 1.319 255 255 255
0.7372 0.419647 1.853 255 255 255
0.311098 -0.272393 1.524 255 255 255
0.325189 -0.400659 1.826 255 255 255
-0.357183 0.193642 0.782 255 255 255
1.15441 -0.43551 2.459 255 255 255
-0.270422 -0.401278 1.668 255 255 255
0.0513243 -0.743913 2.189 255 255 255
-0.0972263 0.172923 0.732 255 255 255
-0.13166 0.151522 0.738 255 255 255
1.0652 -0.716086 2.42 255 255 255
-0.386574 0.300194 0.798 255 255 255
-0.141695 -0.430469 1.655 255 255 255
-1.43934 -0.961329 2.884 255 255 255
-1.33581 -0.870306 3.149 255 255 255
-0.334256 0.177687 0.779 255 255 255
0.213525 -0.481512 1.763 255 255 255
-1.0533 -1.14505 3.102 255 255 255
-0.0877966 0.287404 0.764 255 255 255
0.053354 -0.271014 1.463 255 255 255
-0.126389 -0.111309 1.055 0 0 0
-0.0185584 0.260715 0.731 255 255 255
0.179906 -0.882319 2.489 255 255 255
-0.108681 0.304847 0.78 255 255 255
0.625149 -0.44585 2.017 255 255 255
0.0714644 -0.579171 1.799 255 255 255
0.436197 0.499873 1.65 255 255 255
-0.190602 -0.294725 1.591 255 255 255
0.881667 -0.443327 2.55 255 255 255
0.343291 -0.054852 1.169 255 255 255
-0.993463 -0.777356 2.898 255 255 255
0.36688 -0.485732 1.953 255 255 255
1.15315 -0.594303 2.374 255 255 255
-0.0711187 0.178537 0.721 255 255 255
0.674034 0.552927 1.509 255 255 255
0.0791038 0.0678668 0.484 255 255 255
-0.0570471 -0.0263516 0.908 255 255 255
0.12432 0.0436635 0.809 255 255 255
0.883991 -0.916931 2.42 255 255 255
-0.256238 -0.223398 1.463 255 255 255
-0.138786 0.105885 0.764 255 255 255
0.373542 -0.0964108 1.265 255 255 255
0.00683865 -0.0370014 0.954 255 255 255
0.549337 -0.484404 1.935 255 255 255
0.0722993 -0.167721 1.291 0 0 0
0.256772 -0.3126 1.603 255 255 255
-0.339764 0.177915 0.78 255 255 255
-0.0670043 -0.0508193 0.923 255 255 255
-0.550943 -0.120804 1.145 255 255 255
0.950119 -0.545763 2.469 255 255 255
0.0514224 0.0527926 0.483 255 255 255
0.667761 0.367142 1.959 255 255 255
-0.530531 -0.044983 1.07 255 255 255
0.283333 0.284548 1.046 255 255 255
-0.267774 0.188937 0.763 255 255 255
-0.691046 -0.700529 2.66 255 255 255
0.851578 -0.920538 2.44 255 255 255
0.831653 0.239671 2.099 255 255 255
-0.376156 -0.093891 1.135 255 255 255
-0.553698 -0.361788 1.535 255 255 255
-0.0462143 0.202049 0.717 255 255 255
0.503674 -0.68509 2.128 255 255 255
-0.141503 0.298238 0.786 255 255 255
-0.376443 0.26209 0.785 255 255 255
0.739662 0.085634 2.374 255 255 255
0.313999 0.223205 1.132 255 255 255
0.575002 0.40719 1.865 255 255 255
-0.031041 0.279044 0.745 255 255 255
0.414567 -0.492089 1.953 255 255 255
-0.479227 0.00491536 0.954 255 255 255
1.05378 -0.477826 2.43 255 255 255
-1.17658 -1.0233 3.055 255 255 255
1.27082 -0.37346 2.499 255 255 255
-0.270075 -0.439407 1.7 255 255 255
-0.109887 0.214881 0.737 255 255 255
0.987221 0.061744 2.347 255 255 255
0.0985759 0.194799 0.534 255 255 255
0.984649 -0.137799 2.66 255 255 255
0.208096 -0.049409 1.053 255 255 255
0.058576 0.102041 0.497 255 255 255
-0.0931399 0.187379 0.728 255 255 255
1.14472 -0.0684581 2.499 255 255 255
-0.701575 -0.256087 1.473 255 255 255
0.0296291 0.0570917 0.5 255 255 255
1.19357 -0.684814 2.449 255 255 255
-0.0928442 -0.206642 1.339 255 255 255
-0.55239 -0.819061 2.768 255 255 255
0.909511 -0.223932 2.707 255 255 255
0.124712 -0.288993 1.52 255 255 255
-0.171255 0.165848 0.743 255 255 255
-0.54216 -0.160419 1.283 255 255 255
0.137756 -0.258988 1.449 255 255 255
-0.199916 0.222824 0.76 255 255 255
-0.302281 -0.194155 1.39 255 255 255
0.759155 0.425419 1.826 255 255 255
0.0649616 0.116101 0.509 255 255 255
-1.44258 -0.905033 3.181 255 255 255
-0.645564 -0.658979 2.582 255 255 255
-0.377327 -0.0855122 1.122 255 255 255
-0.319528 0.182136 0.771 255 255 255
0.958581 -0.213294 2.684 255 255 255
0.0764995 -0.224147 1.366 255 255 255
0.831685 0.0394236 2.383 255 255 255
1.08959 -0.75738 2.329 255 255 255
0.0349731 0.0822977 0.495 255 255 255
-0.5189 -0.148109 1.267 255 255 255
-0.253779 0.18993 0.762 255 255 255
0.0253459 0.176623 0.695 255 255 255
-0.303151 -0.982359 2.638 255 255 255
0.0909227 0.202129 0.535 255 255 255
-0.038491 -0.342277 1.62 0 0 0
-0.244339 -0.0129524 0.901 255 255 255
0.470021 0.533673 1.583 255 255 255
0.480465 -0.634763 2.044 255 255 255
-0.55987 -0.144836 1.239 255 255 255
0.329098 -0.421356 1.865 255 255 255
-0.463244 -0.964115 2.695 255 255 255
-0.0187466 0.0567077 0.789 255 255 255
0.947823 0.222592 2.099 255 255 255
-0.31796 0.020886 0.906 255 255 255
-0.179721 0.159803 0.743 255 255 255
0.884308 -0.0691583 2.684 255 255 255
-1.38045 -0.993034 3.181 255 255 255
-1.32714 -1.17346 3.165 255 255 255
-0.642552 -0.209536 1.387 255 255 255
0.357387 -0.859296 2.402 255 255 255
-0.21963 -0.935495 2.615 255 255 255
-0.396627 0.00786057 0.935 255 255 255
-0.459649 -0.857132 2.649 255 255 255
-0.327482 0.143427 0.772 255 255 255
0.26144 -0.0381957 1.075 255 255 255
-0.184915 -0.0799108 0.966 0 0 0
0.0260378 0.186938 0.544 255 255 255
0.850727 0.173152 2.121 255 255 255
-0.353433 0.0254208 0.91 255 255 255
-0.0593388 0.123396 0.735 255 255 255
-0.0512476 -0.0234479 0.91 255 255 255
0.428801 -0.247568 1.555 255 255 255
-0.413316 0.112457 0.802 255 255 255
0.485345 0.523424 1.591 255 255 255
0.56794 0.528521 1.583 255 255 255
-0.849955 -0.901715 2.844 255 255 255
-0.728715 -0.898479 2.805 255 255 255
0.682776 -0.745088 2.338 255 255 255
0.618676 0.431717 1.815 255 255 255
-0.468275 -0.181677 1.316 255 255 255
-0.116515 0.229312 0.741 255 255 255
-0.273985 -0.0149147 0.932 255 255 255
-0.562974 -0.136249 1.182 255 255 255
0.0103555 0.0334657 0.757 255 255 255
0.879939 -0.248236 2.684 255 255 255
0.160053 0.125358 0.754 255 255 255
1.1493 -0.342291 2.509 255 255 255
0.464052 -0.80286 2.329 0 0 0
0.230122 -0.135225 1.225 255 255 255
-0.460554 0.0357083 0.908 255 255 255
-0.0781594 0.277875 0.755 255 255 255
-0.198909 -0.141699 1.265 255 255 255
-0.114842 0.21157 0.738 255 255 255
0.672643 -0.809842 2.383 255 255 255
0.177927 0.143612 0.773 255 255 255
0.549015 0.505466 1.642 255 255 255
0.0435165 -0.15007 1.249 255 255 255
0.219366 0.309357 0.896 255 255 255
-0.141654 0.190467 0.74 255 255 255
0.360066 -0.916931 2.42 255 255 255
-0.160977 -0.275404 1.555 255 255 255
-0.437953 0.0612991 0.834 255 255 255
-0.732732 -0.661786 2.593 255 255 255
0.174657 -0.0257411 0.999 255 255 255
-0.553643 -0.267347 1.456 255 255 255
-0.181344 0.00457015 0.887 255 255 255
0.975759 -0.893091 2.347 255 255 255
0.870665 -0.6888 2.449 255 255 255
0.470443 -0.297616 1.696 255 255 255
0.980742 0.322707 1.941 255 255 255
-0.269114 0.262196 0.774 255 255 255
-0.366017 0.313935 0.81 255 255 255
-0.0242361 -0.157408 1.182 255 255 255
1.03228 0.200767 2.017 255 255 255
-0.335343 -0.135738 1.267 255 255 255
0.0651701 0.192004 0.524 255 255 255
-0.0783193 0.0635275 0.794 255 255 255
0.693289 0.101087 2.374 255 255 255
0.274422 -0.00997776 1.051 255 255 255
-1.48633 -0.943031 2.857 255 255 255
0.0374098 0.167007 0.688 255 255 255
-0.26603 -0.773339 2.53 255 255 255
-0.0895988 -0.312849 1.591 255 255 255
-0.281567 0.211693 0.76 255 255 255
0.0476971 -0.15043 1.252 255 255 255
-0.234482 -0.501865 1.744 255 255 255
-0.0813118 0.0209935 0.798 0 0 0
-0.0891315 0.120064 0.744 255 255 255
-0.148855 0.0617876 0.805 255 255 255
0.159706 0.166608 0.741 255 255 255
0.816337 -0.2356 2.593 255 255 255
-0.083834 0.132665 0.74 255 255 255
0.384183 0.560294 1.509 255 255 255
0.735656 0.359662 1.953 255 255 255
0.941146 0.22344 2.107 255 255 255
-0.195844 -0.885874 2.582 0 0 0
-1.48446 -1.17777 3.149 255 255 255
-0.125483 0.186097 0.737 255 255 255
-0.234241 0.173441 0.755 255 255 255
-0.685818 -0.994677 2.743 255 255 255
-0.537472 -0.173388 1.302 0 0 0
0.433746 -0.200022 1.502 255 255 255
0.032228 -0.0238344 0.925 255 255 255
-0.440876 -0.138787 1.239 255 255 255
-0.158513 -0.305534 1.607 255 255 255
-0.717164 -0.61585 2.509 255 255 255
-1.45294 -1.0448 3.181 255 255 255
-0.0802203 0.23984 0.74 255 255 255
-1.17441 -0.57721 2.449 255 255 255
-0.0262258 0.162633 0.713 255 255 255
-0.237874 -0.835453 2.582 255 255 255
-0.0942609 0.088711 0.766 255 255 255
-0.0440024 0.148791 0.719 255 255 255
-0.0319618 -0.614649 1.853 255 255 255
-0.397232 0.0802863 0.82 255 255 255
0.998658 -0.863033 2.338 255 255 255
-0.712559 -0.250098 1.466 255 255 255
-0.116914 -0.107203 1.032 255 255 255
0.21251 0.00187115 0.986 255 255 255
0.189747 0.0246503 0.937 255 255 255
-0.274225 -0.35227 1.642 0 0 0
0.95434 -0.0555538 2.66 255 255 255
1.11536 -0.129055 2.572 255 255 255
-0.275162 0.158908 0.756 255 255 255
0.0189188 -0.00889549 0.937 255 255 255
0.492104 -0.60785 2.01 255 255 255
0.966195 -0.481477 2.469 255 255 255
0.997639 -0.094512 2.66 255 255 255
0.0938525 0.157704 0.547 255 255 255
-0.214367 0.128096 0.763 255 255 255
-0.385066 0.0405187 0.884 255 255 255
-1.40859 -1.11691 2.898 255 255 255
-0.364874 0.234674 0.796 255 255 255
0.783453 -0.20939 2.582 255 255 255
-0.380876 0.0568752 0.849 255 255 255
-0.207442 0.00756633 0.9 0 0 0
0.36148 -0.165498 1.359 255 255 255
0.159569 0.192012 0.746 255 255 255
0.355657 -0.0960297 1.26 255 255 255
-0.132682 0.178901 0.737 255 255 255
0.284491 0.000282282 1.044 255 255 255
-0.456096 -0.13306 1.242 255 255 255
-0.176269 -0.488729 1.758 255 255 255
0.35379 -0.143782 1.322 255 255 255
0.249403 -0.513334 1.794 255 255 255
0.0970045 -0.568536 1.784 255 255 255
0.493572 -0.336335 1.769 255 255 255
0.043794 0.0409337 0.782 255 255 255
-0.385554 0.0983453 0.804 255 255 255
0.144761 0.0433416 0.828 255 255 255
0.391615 -0.746305 2.261 255 255 255
0.459047 -0.882749 2.402 0 0 0
-0.262382 0.246446 0.784 255 255 255
0.740492 0.449531 1.714 255 255 255
-0.450754 -0.272489 1.484 255 255 255
-0.32539 0.195945 0.776 255 255 255
-0.450902 -0.165383 1.273 255 255 255
-0.414575 -0.0402206 1.037 255 255 255
-0.524907 -0.901905 2.719 255 255 255
0.746532 -0.472964 2.347 255 255 255
0.544647 0.473068 1.739 255 255 255
-0.141518 0.050184 0.808 0 0 0
1.22281 -0.31371 2.509 255 255 255
-0.00694875 -0.131031 1.187 255 255 255
-0.623717 -0.232351 1.416 255 255 255
0.785254 0.42144 1.784 255 255 255
0.0654218 0.170148 0.533 255 255 255
-0.0185076 0.125947 0.729 255 255 255
0.878828 0.323397 2.004 255 255 255
0.938061 -0.425227 2.469 255 255 255
-0.20443 0.259816 0.782 255 255 255
0.227782 0.101509 0.889 255 255 255
0.057302 0.093197 0.493 255 255 255
0.541354 -0.539407 1.929 255 255 255
-1.36058 -1.18736 3.055 255 255 255
0.21739 0.278899 0.906 255 255 255
0.183779 -0.381789 1.753 255 255 255
-0.277031 0.287759 0.775 255 255 255
0.599741 0.365255 1.966 255 255 255
1.14978 -0.0813037 2.519 255 255 255
-0.381 -0.968931 2.672 255 255 255
-0.196289 0.0941403 0.78 255 255 255
-0.110792 0.296088 0.777 255 255 255
0.736496 -0.686175 2.269 255 255 255
0.234379 0.240134 0.951 255 255 255
-0.226939 0.0308621 0.896 255 255 255
-0.270158 0.288501 0.777 255 255 255
-0.136896 -0.0337851 0.836 255 255 255
0.953111 -0.901402 2.329 255 255 255
0.448748 0.514583 1.637 255 255 255
0.878666 -0.131423 2.707 255 255 255
0.743297 0.406539 1.876 255 255 255
-0.0417775 0.224296 0.721 255 255 255
-0.0384991 0.0291413 0.773 255 255 255
0.0987605 0.185587 0.535 255 255 255
0.73208 0.505353 1.633 255 255 255
-0.159401 0.049111 0.812 0 0 0
-0.389525 -0.117509 1.187 255 255 255
-0.152312 0.206303 0.745 255 255 255
-0.377955 0.152812 0.775 255 255 255
-0.616086 -0.183819 1.316 255 255 255
-1.24013 -1.06933 3.102 255 255 255
0.263268 -0.0689563 1.12 255 255 255
-1.25527 -1.06933 3.102 255 255 255
-0.673742 -0.264069 1.491 255 255 255
-0.775905 -0.268072 1.473 255 255 255
-0.0825394 0.302111 0.773 255 255 255
-0.0644886 0.0193247 0.783 255 255 255
-0.933928 -0.787998 2.818 255 255 255
-0.278074 0.22151 0.764 255 255 255
-0.131303 0.17267 0.736 255 255 255
-0.181414 0.195482 0.75 255 255 255
0.52422 -0.557114 1.947 255 255 255
0.240335 -0.246023 1.456 255 255 255
-0.1041 0.281556 0.765 255 255 255
-0.198691 -0.463785 1.729 255 255 255
0.233966 -0.207727 1.39 255 255 255
0.332001 -0.509596 1.935 255 255 255
-1.50009 -0.815178 2.967 255 255 255
-0.0317342 0.119481 0.733 255 255 255
1.01929 -0.129142 2.66 255 255 255
-0.0414373 -0.501865 1.744 255 255 255
1.1052 -0.533188 2.43 255 255 255
-0.210199 -0.0167348 0.869 255 255 255
-0.32075 0.221486 0.777 255 255 255
-0.262481 0.27216 0.792 255 255 255
0.0501018 0.19053 0.527 255 255 255
0.966716 0.0164069 2.42 255 255 255
-0.497784 -0.294015 1.459 255 255 255
1.0305 -0.489513 2.469 255 255 255
-0.0270477 -0.958541 2.519 255 255 255
1.08746 -0.714065 2.374 255 255 255
0.146944 0.0201253 0.873 255 255 255
-0.0598764 0.146897 0.727 255 255 255
-1.45028 -0.884557 2.925 255 255 255
-0.138144 -0.136653 1.169 255 255 255
0.259382 -0.00475917 1.032 255 255 255
0.845558 -0.177555 2.672 0 0 0
-1.31082 -1.03904 3.102 255 255 255
-0.373645 0.0506735 0.861 0 0 0
0.906153 -0.0953648 2.684 255 255 255
-0.12271 0.00691898 0.823 255 255 255
-0.18732 0.0658809 0.807 255 255 255
1.15109 -0.172917 2.54 255 255 255
0.0399715 -0.0285034 0.93 255 255 255
0.654294 0.477856 1.686 255 255 255
0.0204805 0.0139372 0.767 255 255 255
-0.43623 -0.0161469 1.009 255 255 255
-1.47182 -1.10551 3.133 255 255 255
0.832517 -0.278975 2.604 255 255 255
0.939623 0.316547 2.044 255 255 255
1.09783 -0.555236 2.44 255 255 255
-0.718611 -0.296841 1.535 255 255 255
-0.228325 0.293437 0.808 255 255 255
0.963 -0.0598825 2.66 255 255 255
0.120411 -0.0551455 0.92 255 255 255
0.496937 0.51737 1.629 255 255 255
1.06431 -0.343735 2.55 255 255 255
0.0360575 0.186458 0.535 255 255 255
0.135163 0.0338686 0.827 255 255 255
-0.164116 0.260262 0.772 255 255 255
-0.114102 0.108611 0.757 255 255 255
1.05981 -0.72504 2.347 255 255 255
-0.100869 0.0304984 0.809 255 255 255
0.238949 -0.0408411 1.053 255 255 255
-0.0404912 0.218994 0.719 255 255 255
-0.158419 -0.334394 1.633 255 255 255
-0.406498 0.0756799 0.828 255 255 255
0.0737409 0.0601145 0.485 255 255 255
0.557728 0.4125 1.848 255 255 255
0.76741 0.493511 1.629 255 255 255
-0.049993 0.219603 0.721 255 255 255
-0.378807 -0.0964129 1.143 255 255 255
-0.170658 0.0117475 0.884 0 0 0
-0.186252 0.244552 0.77 255 255 255
0.808582 0.374172 1.837 255 255 255
0.382009 -0.413162 1.842 255 255 255
0.989755 -0.011861 2.572 255 255 255
-0.329768 -0.0878051 1.128 255 255 255
-0.228311 -0.573299 1.959 255 255 255
0.83251 -0.134072 2.672 255 255 255
-0.267081 -0.515866 1.753 0 0 0
0.19129 -0.931218 2.479 255 255 255
-0.269462 0.261274 0.775 255 255 255
-0.41744 0.0859372 0.823 255 255 255
0.044298 0.013086 0.791 255 255 255
-0.0988212 0.221475 0.735 255 255 255
0.146417 -0.0295149 0.963 255 255 255
0.228485 0.289512 0.921 255 255 255
0.929319 0.11915 2.143 255 255 255
-0.589761 -0.209729 1.359 255 255 255
0.876714 -0.413668 2.572 255 255 255
-0.286328 0.163179 0.753 255 255 255
0.565628 -0.355992 1.905 255 255 255
0.0839548 0.0539949 0.494 255 255 255
0.638849 0.47241 1.696 255 255 255
0.0430308 0.0895474 0.495 255 255 255
-0.524052 -0.730035 2.626 0 0 0
0.341776 -0.92072 2.43 255 255 255
0.106977 -0.910672 2.489 255 255 255
0.183054 -0.273823 1.532 255 255 255
0.827963 0.230298 2.107 255 255 255
-1.22368 -0.998531 3.086 255 255 255
-0.0534357 -0.017274 0.897 255 255 255
-0.805487 -0.833856 2.818 255 255 255
0.219749 -0.124758 1.201 255 255 255
0.221295 0.0187688 0.948 255 255 255
-0.243227 -0.783602 2.55 255 255 255
-0.181324 0.0201253 0.873 255 255 255
0.0484773 0.0474864 0.485 255 255 255
0.261688 -0.140243 1.252 255 255 255
-0.276084 -0.438532 1.686 255 255 255
-0.534045 -0.325381 1.494 255 255 255
-0.0723926 0.17996 0.722 255 255 255
-0.0276726 -0.113228 1.09 255 255 255
0.699797 -0.825354 2.383 255 255 255
0.836859 -0.168858 2.672 0 0 0
0.082153 0.199001 0.529 255 255 255
0.157807 0.12061 0.755 255 255 255
0.754104 -0.856377 2.383 255 255 255
-0.0516503 -0.929847 2.519 255 255 255
0.0817992 0.134973 0.538 255 255 255
0.0819759 0.0133507 0.807 255 255 255
-0.302416 0.0402436 0.878 255 255 255
0.846426 -0.60051 2.338 255 255 255
0.951573 -0.356452 2.582 255 255 255
-0.20194 -0.248339 1.484 255 255 255
0.0538924 0.0765307 0.484 255 255 255
-0.58067 -0.149939 1.215 255 255 255
0.0156003 0.253845 0.715 255 255 255
-0.261217 0.115938 0.773 255 255 255
-0.326765 0.040427 0.882 255 255 255
-0.0209096 0.12612 0.73 255 255 255
0.0153406 -0.445104 1.744 255 255 255
-0.765558 -0.297194 1.524 255 255 255
0.106332 -0.223873 1.378 255 255 255
-0.165085 -0.201449 1.378 255 255 255
0.0914583 -0.341691 1.682 255 255 255
-0.258146 -0.124239 1.196 255 255 255
-0.0387049 -0.365386 1.629 255 255 255
1.01462 -0.297627 2.582 255 255 255
-0.0937687 0.282932 0.762 255 255 255
0.0706569 0.0888238 0.491 255 255 255
-0.135814 0.210018 0.741 255 255 255
-1.45377 -0.910486 2.857 255 255 255
-0.103184 0.208659 0.732 255 255 255
0.937858 -0.029337 2.638 255 255 255
1.19186 -0.213407 2.53 255 255 255
-0.0958266 0.25129 0.749 255 255 255
0.0646753 0.148742 0.534 255 255 255
-0.204739 0.0119734 0.901 255 255 255
-1.00744 -0.759521 2.884 255 255 255
0.858103 0.292774 2.064 255 255 255
-0.110091 0.305238 0.781 255 255 255
-0.620261 -0.124239 1.196 255 255 255
0.257868 -0.281302 1.532 255 255 255
-0.277249 0.0927761 0.79 255 255 255
0.090123 -0.435608 1.763 0 0 0
-0.132634 0.287976 0.779 255 255 255
-0.0456182 -0.0443889 0.98 255 255 255
1.08719 -0.861454 2.365 255 255 255
-0.0332835 -0.135835 1.162 255 255 255
0.217688 -0.735255 2.143 0 0 0
-1.46598 -0.886527 2.996 255 255 255
-0.126913 0.0178476 0.833 255 255 255
0.62112 0.352748 2.004 255 255 255
1.19126 -0.0515648 2.469 255 255 255
-0.372115 0.0405187 0.884 255 255 255
-0.0733874 0.253244 0.744 255 255 255
-0.0858732 0.278979 0.758 255 255 255
-0.0137232 0.255739 0.727 255 255 255
0.144257 0.188706 0.724 255 255 255
0.50363 0.445059 1.774 255 255 255
0.0462342 0.154499 0.542 255 255 255
0.520318 0.514329 1.603 255 255 255
-0.0379492 -0.0833385 0.988 255 255 255
0.499702 0.552365 1.563 255 255 255
-0.23703 0.191905 0.76 255 255 255
-0.459571 -0.0307338 1.059 255 255 255
-0.021446 -0.0738514 0.969 255 255 255
-0.333411 -0.130056 1.252 255 255 255
-0.794269 -0.315079 1.551 255 255 255
-0.101119 -0.0613872 0.947 255 255 255
0.0820457 0.105518 0.502 0 0 0
0.667798 0.361047 1.978 255 255 255
-0.336429 -0.236428 1.47 255 255 255
-0.141147 0.0899849 0.777 255 255 255
-0.416741 -0.0625703 1.073 255 255 255
-0.164125 0.272414 0.778 255 255 255
0.874771 -0.22294 2.695 255 255 255
0.0411369 -0.10249 1.128 255 255 255
1.01066 -0.336922 2.53 255 255 255
-0.225735 -0.983066 2.54 255 255 255
0.0567209 0.0835163 0.488 255 255 255
-0.228908 0.000242806 0.898 255 255 255
0.904167 0.285574 2.085 255 255 255
0.166341 0.223337 0.766 255 255 255
0.0130063 0.0626971 0.768 255 255 255
-0.327153 0.265156 0.802 255 255 255
-0.480097 -0.29006 1.463 255 255 255
-0.349075 0.315618 0.839 255 255 255
0.214998 -0.241813 1.445 255 255 255
-0.256518 -0.151119 1.275 255 255 255
1.05313 -0.258876 2.615 255 255 255
-1.4849 -0.933246 3.086 255 255 255
-0.240824 -0.337052 1.633 255 255 255
-0.349315 -0.390725 1.571 255 255 255
0.801493 0.0392747 2.374 255 255 255
-0.087982 -0.0634598 0.955 255 255 255
0.939768 0.349347 1.848 0 0 0
-0.808201 -0.953807 2.78 255 255 255
-0.00646786 0.213942 0.71 255 255 255
-0.437533 0.0498446 0.871 0 0 0
0.154511 0.114438 0.763 255 255 255
-0.337037 -0.224081 1.452 255 255 255
-0.747086 -0.3343 1.607 255 255 255
-0.415336 -0.0737278 1.083 255 255 255
0.168105 0.0108104 0.927 255 255 255
-0.261818 0.263759 0.79 255 255 255
-0.383748 0.010927 0.937 255 255 255
-0.189746 0.207568 0.754 255 255 255
-0.0167761 0.0828505 0.758 255 255 255
1.01465 -0.0117135 2.54 255 255 255
-0.0573333 0.254291 0.74 255 255 255
0.879487 0.266997 2.099 255 255 255
1.01945 -0.0508014 2.638 255 255 255
1.01793 -0.590066 2.42 255 255 255
0.898271 -0.464076 2.55 255 255 255
-0.257817 0.0107637 0.923 255 255 255
0.641296 0.335353 2.037 255 255 255
0.572195 0.556406 1.539 255 255 255
-0.543062 -0.207105 1.342 255 255 255
-0.391897 0.28799 0.793 255 255 255
-0.7901 -0.913091 2.78 255 255 255
-0.193428 0.210022 0.754 255 255 255
0.518683 0.39983 1.859 255 255 255
-1.47369 -0.853268 2.982 255 255 255
1.11892 -0.372995 2.469 255 255 255
-0.382549 0.0816207 0.82 255 255 255
-0.101368 0.0266802 0.813 255 255 255
-0.951106 -0.867465 2.884 255 255 255
-0.283401 0.158698 0.755 255 255 255
-0.0772005 0.183739 0.723 255 255 255
0.750444 0.491818 1.65 255 255 255
-0.000688178 0.214794 0.709 255 255 255
0.487641 0.45535 1.758 255 255 255
-0.287594 -0.500426 1.739 255 255 255
-0.408637 -0.84969 2.626 255 255 255
0.0599465 0.073077 0.482 255 255 255
-0.30292 0.0803267 0.807 255 255 255
-0.0837833 -0.885864 2.499 255 255 255
0.377511 0.535696 1.502 255 255 255
-0.590069 -0.137632 1.194 255 255 255
-0.399681 0.248358 0.778 255 255 255
-0.609023 -0.169127 1.27 255 255 255
-0.408533 -0.165982 1.345 255 255 255
-0.061853 0.104084 0.751 255 255 255
-0.469159 -0.175852 1.289 255 255 255
-1.48633 -0.901187 2.857 255 255 255
0.982827 0.279 2.037 255 255 255
-0.0651577 -0.0687289 0.986 255 255 255
0.181465 0.0415301 0.875 255 255 255
-0.000689149 0.217408 0.71 255 255 255
-0.270695 0.0323202 0.896 255 255 255
0.499335 0.493032 1.691 255 255 255
0.941105 -0.248236 2.684 255 255 255
0.0785832 0.205227 0.534 255 255 255
-0.268549 -0.504703 1.744 255 255 255
0.919499 -0.121028 2.672 255 255 255
0.701005 0.419647 1.853 255 255 255
0.00858089 0.136914 0.712 255 255 255
-0.511059 -0.0468552 1.073 255 255 255
-0.489875 -0.222857 1.429 255 255 255
1.04208 -0.485548 2.449 255 255 255
-0.25358 0.312072 0.826 255 255 255
1.08261 -0.206937 2.604 255 255 255
-0.577721 -0.101636 1.139 255 255 255
-0.399917 0.240143 0.776 255 255 255
0.0903884 0.204632 0.537 255 255 255
0.273282 -0.122057 1.213 255 255 255
-0.213181 0.0529648 0.831 255 255 255
0.259283 0.106824 0.963 255 255 255
0.715946 -0.607636 2.173 255 255 255
-0.270158 0.108951 0.777 255 255 255
-0.353994 0.284843 0.825 255 255 255
-0.370833 0.0950074 0.809 255 255 255
0.157591 0.255237 0.772 255 255 255
-0.178572 -0.0243781 0.84 255 255 255
-0.14956 0.0334181 0.816 255 255 255
0.292897 -0.253173 1.47 255 255 255
-0.242188 -0.269712 1.509 255 255 255
0.504817 0.537463 1.579 255 255 255
-0.635003 -0.936263 2.755 255 255 255
-0.094854 -0.351197 1.637 255 255 255
0.605967 0.501263 1.637 255 255 255
0.170496 -0.484879 1.734 255 255 255
-0.0970211 0.049625 0.799 0 0 0
-0.535512 -0.0538397 1.073 255 255 255
0.654645 -0.799057 2.374 255 255 255
-0.481887 0.0171534 0.944 255 255 255
-0.0686265 -0.127167 1.152 255 255 255
0.737698 0.374869 1.917 255 255 255
-1.37764 -0.772887 2.953 255 255 255
-0.75984 -0.241284 1.456 255 255 255
-0.139124 -0.00783221 0.825 255 255 255
-0.228797 0.0873009 0.787 255 255 255
-0.00957072 0.0694847 0.774 255 255 255
1.03382 0.0201937 2.402 255 255 255
-0.0925555 -0.119854 1.102 255 255 255
0.451325 -0.519093 1.947 255 255 255
0.0803602 -0.017961 0.86 255 255 255
-0.202847 0.17792 0.748 255 255 255
-0.150277 -0.103567 0.997 255 255 255
0.165997 0.107107 0.782 255 255 255
-0.369583 0.211999 0.784 255 255 255
0.000624971 -0.0121236 0.951 255 255 255
0.0500849 0.164128 0.536 255 255 255
-0.303868 0.177597 0.757 255 255 255
0.27802 -0.289092 1.547 255 255 255
-0.534934 -0.106034 1.167 255 255 255
0.141344 -0.772061 2.261 255 255 255
-0.0276666 0.0424761 0.787 255 255 255
-0.333147 -0.180979 1.359 255 255 255
0.735476 0.47241 1.696 255 255 255
0.85908 -0.271989 2.66 255 255 255
0.155243 -0.444548 1.753 255 255 255
0.0347496 0.0319029 0.779 255 255 255
0.313081 -0.131095 1.262 255 255 255
1.04022 -0.0459091 2.604 0 0 0
0.00439401 -0.640997 1.923 255 255 255
-0.41099 0.297185 0.79 255 255 255
1.12446 -0.260918 2.593 255 255 255
0.0936809 0.163636 0.546 255 255 255
0.056852 0.161777 0.534 255 255 255
-0.0271041 0.0315752 0.771 255 255 255
-0.0886871 0.0198923 0.806 0 0 0
0.074515 0.158894 0.536 255 255 255
0.223742 -0.426938 1.799 255 255 255
0.9941 -0.358623 2.509 255 255 255
0.96997 -0.489428 2.489 255 255 255
0.102276 -0.202347 1.354 255 255 255
0.017749 0.0236106 0.757 255 255 255
-0.271661 0.297859 0.785 255 255 255
0.714831 0.534355 1.555 255 255 255
-0.290457 0.172523 0.751 255 255 255
1.14004 -0.0269126 2.42 255 255 255
-0.0600656 -0.363626 1.633 255 255 255
-0.383002 0.147768 0.775 255 255 255
-0.587586 -0.976822 2.743 255 255 255
-0.0203532 -0.377235 1.646 255 255 255
0.0802341 -0.0484089 0.906 255 255 255
-0.288131 0.226832 0.761 255 255 255
0.0253459 0.177754 0.695 255 255 255
-0.183548 0.0733034 0.802 255 255 255
0.0664406 -0.52457 1.744 255 255 255
0.159991 -0.400797 1.774 255 255 255
-0.123495 0.0641676 0.802 255 255 255
-0.109887 0.224476 0.737 255 255 255
-0.350118 -0.122657 1.239 255 255 255
0.675262 0.100704 2.365 255 255 255
-0.611729 -0.119441 1.187 255 255 255
0.638515 0.320729 2.071 255 255 255
-0.0589351 0.134436 0.73 255 255 255
0.492237 -0.618671 2.024 255 255 255
0.161781 0.162658 0.745 255 255 255
-0.107154 0.130784 0.743 255 255 255
0.286313 0.28066 1.057 255 255 255
-0.514842 -0.0176126 0.999 255 255 255
-0.388785 -0.341804 1.535 255 255 255
0.320529 -0.915963 2.449 255 255 255
0.652676 -0.65049 2.151 255 255 255
-0.559329 -0.738475 2.672 0 0 0
-0.282565 0.0253091 0.906 255 255 255
-0.202183 -0.0683215 0.916 0 0 0
-0.00695978 0.0748033 0.764 255 255 255
0.0788015 0.0963795 0.497 255 255 255
-0.264948 -0.491937 1.739 255 255 255
-0.105414 -0.913321 2.53 255 255 255
0.580862 0.448038 1.763 255 255 255
0.185836 -0.14194 1.249 255 255 255
-0.156588 -0.0404469 0.862 255 255 255
1.16763 -0.0985152 2.54 255 255 255
0.729408 0.537764 1.543 255 255 255
-0.332988 0.178955 0.779 255 255 255
-1.21993 -1.07438 3.102 255 255 255
-1.43741 -0.905033 3.181 255 255 255
-0.260172 0.0605888 0.843 255 255 255
-0.208596 0.305271 0.808 255 255 255
0.204916 -0.464298 1.763 255 255 255
-0.218589 -0.0513158 0.88 255 255 255
-0.398575 -0.0925306 1.141 255 255 255
1.05599 -0.824343 2.347 255 255 255
-1.30908 -1.08893 3.086 255 255 255
-0.0698535 0.00916609 0.786 255 255 255
-0.0817549 0.118693 0.743 255 255 255
-0.306828 -0.304799 1.563 255 255 255
-0.0512376 0.221082 0.722 255 255 255
-0.0725215 -0.0793893 0.999 255 255 255
0.0401323 0.16362 0.543 255 255 255
0.0676418 0.175228 0.53 255 255 255
-0.34582 -0.109305 1.203 255 255 255
0.125994 -0.338847 1.668 255 255 255
-0.109245 0.295326 0.775 255 255 255
0.125629 -0.0865596 1.112 255 255 255
0.616131 -0.487409 1.947 255 255 255
-0.20415 -0.404512 1.659 255 255 255
-0.336715 0.146128 0.773 255 255 255
0.189445 0.0705247 0.847 255 255 255
0.0712152 -0.684657 2.044 255 255 255
-0.369111 0.205358 0.783 255 255 255
-0.324111 0.218253 0.779 255 255 255
-0.111856 0.0149366 0.822 0 0 0
0.67074 0.466267 1.714 255 255 255
0.129908 0.0477308 0.811 0 0 0
0.0876415 0.0446019 0.506 255 255 255
-0.582778 -0.156047 1.232 255 255 255
0.969568 0.279959 2.044 255 255 255
0.880052 -0.842107 2.42 255 255 255
0.675313 0.523287 1.575 255 255 255
-0.206755 0.0884691 0.786 255 255 255
0.489312 -0.736384 2.22 255 255 255
0.89412 -0.459926 2.55 255 255 255
-0.372278 0.256354 0.787 255 255 255
-0.273446 0.221317 0.772 255 255 255
0.63798 0.338667 2.037 255 255 255
-0.364789 0.266052 0.793 255 255 255
0.984649 -0.094512 2.66 255 255 255
0.78894 -0.368251 2.519 255 255 255
-0.446929 -0.00285893 0.958 255 255 255
-0.301005 0.188434 0.756 255 255 255
-0.0487971 -0.332717 1.612 0 0 0
-0.363105 0.0123721 0.931 255 255 255
-0.152503 0.248141 0.758 255 255 255
-1.03682 -1.13472 2.982 255 255 255
0.554409 0.413034 1.837 255 255 255
0.587303 0.357828 1.978 255 255 255
0.0663891 0.0431035 0.489 255 255 255
0.00165889 0.263658 0.726 255 255 255
-0.387605 0.000257948 0.954 255 255 255
-0.394368 0.307986 0.798 255 255 255
-0.248758 -0.163144 1.322 255 255 255
0.933949 0.224183 2.114 255 255 255
-0.474018 -0.20408 1.396 0 0 0
0.13076 -0.878774 2.479 0 0 0
-0.697788 -1.06628 2.755 255 255 255
-0.143051 0.203989 0.741 255 255 255
1.23332 -0.363865 2.489 255 255 255
-0.397707 -0.0719654 1.083 255 255 255
-1.31372 -0.916869 3.133 255 255 255
0.559706 0.508138 1.642 255 255 255
1.23999 -0.085403 2.519 255 255 255
-0.0404146 0.262366 0.739 255 255 255
-0.218185 0.141011 0.759 255 255 255
-0.588338 -0.173388 1.302 0 0 0
-0.302282 -0.53264 1.81 255 255 255
0.130205 0.140405 0.718 255 255 255
-0.368435 0.23074 0.787 255 255 255
0.246312 0.260214 0.98 255 255 255
0.788469 0.189138 2.228 255 255 255
-1.07095 -0.910904 2.996 255 255 255
-0.9236 -0.733813 2.857 255 255 255
0.0482498 0.201258 0.535 255 255 255
-0.380969 0.145433 0.776 255 255 255
0.916387 -0.299789 2.638 255 255 255
-0.605531 -0.719953 2.684 255 255 255
0.0246051 0.00654908 0.779 255 255 255
-0.540217 -0.972813 2.707 255 255 255
0.0499779 0.0882041 0.492 255 255 255
0.998536 -0.797447 2.44 255 255 255
1.13289 -0.663684 2.43 255 255 255
-0.326254 0.0903825 0.803 255 255 255
0.261189 0.0227764 0.988 255 255 255
0.846233 0.418624 1.748 255 255 255
1.0642 -0.35339 2.53 255 255 255
-0.159501 0.267234 0.774 255 255 255
-0.273446 0.279107 0.772 255 255 255
0.1747 0.0738836 0.823 255 255 255
-0.508512 -0.0486919 1.075 255 255 255
-1.50976 -0.900318 2.884 255 255 255
0.154365 -0.0922062 1.137 255 255 255
0.0419172 0.185412 0.532 255 255 255
0.954888 -0.806042 2.43 255 255 255
0.193283 0.237371 0.828 255 255 255
-0.383158 0.0885341 0.81 255 255 255
-0.209537 0.137306 0.759 255 255 255
1.11059 -0.182681 2.561 255 255 255
0.209788 -0.114701 1.178 255 255 255
-0.0574945 0.0453237 0.792 255 255 255
-0.455764 0.0171534 0.944 255 255 255
0.185624 0.28592 0.836 255 255 255
-0.771261 -0.366716 1.659 255 255 255
-0.00992109 0.180181 0.709 255 255 255
-0.247174 0.0544945 0.855 255 255 255
-0.413772 -0.326816 1.535 255 255 255
-0.370986 0.110597 0.798 255 255 255
-0.682877 -0.388768 1.616 255 255 255
0.669986 0.505239 1.599 255 255 255
-0.30522 0.016572 0.912 255 255 255
0.568906 0.360767 1.959 255 255 255
-0.387651 0.12188 0.787 255 255 255
-0.400445 0.00332764 0.944 255 255 255
0.702731 0.524616 1.579 255 255 255
0.017769 0.0590635 0.51 255 255 255
-0.295675 -0.327432 1.599 255 255 255
0.407783 -0.400094 1.81 255 255 255
-0.34409 -0.00603304 0.967 255 255 255
0.0915795 -0.150171 1.267 255 255 255
0.0354299 -0.0254766 0.93 255 255 255
-0.0808747 0.229847 0.735 255 255 255
0.410792 0.557458 1.535 255 255 255
-0.201506 -0.472226 1.729 255 255 255
0.0167642 0.253845 0.715 255 255 255
1.00937 0.125681 2.078 255 255 255
0.189284 -0.670144 1.991 255 255 255
-0.137883 0.287076 0.78 255 255 255
0.667597 0.547456 1.528 255 255 255
0.461486 -0.323089 1.714 255 255 255
0.0142935 0.0390525 0.77 255 255 255
-0.370711 0.22771 0.781 255 255 255
-0.355489 0.0468479 0.868 255 255 255
0.824441 -0.189743 2.66 255 255 255
-0.320627 0.250912 0.786 255 255 255
0.0558119 0.0809676 0.487 255 255 255
-1.46324 -0.893779 3.215 255 255 255
-0.20004 0.239539 0.77 255 255 255
-0.00715365 -0.172677 1.222 255 255 255
-0.432535 -0.955343 2.695 255 255 255
-0.130484 0.229337 0.745 255 255 255
-0.672423 -0.999141 2.743 255 255 255
-0.744441 -0.256729 1.463 255 255 255
1.01956 0.119318 2.085 255 255 255
-0.048684 0.154641 0.719 255 255 255
-0.495686 -0.221298 1.419 255 255 255
-0.24099 0.275597 0.802 255 255 255
-0.206892 0.0149555 0.904 255 255 255
0.116718 -0.635878 1.917 255 255 255
-0.0349283 0.239698 0.725 255 255 255
-0.553089 -0.0424335 1.05 255 255 255
-0.272189 0.222573 0.772 255 255 255
-0.328313 0.149514 0.771 255 255 255
-0.0813118 0.0365768 0.798 255 255 255
-0.0687228 0.140952 0.733 255 255 255
0.17971 -0.172059 1.308 255 255 255
-0.0755039 0.123197 0.741 255 255 255
1.10708 -0.327039 2.582 255 255 255
0.274161 0.232666 1.05 255 255 255
-1.48168 -0.966277 2.857 255 255 255
-0.0847403 0.108537 0.748 255 255 255
-0.139001 -0.384684 1.655 255 255 255
0.093205 0.00559325 0.825 255 255 255
0.978819 -0.697729 2.411 255 255 255
-0.547774 -0.12638 1.162 255 255 255
0.836917 0.207667 2.121 255 255 255
-0.0519773 0.171473 0.716 255 255 255
-0.714443 -0.37036 1.616 255 255 255
-0.358232 0.153009 0.776 255 255 255
-0.705586 -0.972212 2.768 255 255 255
-0.61258 -0.922813 2.755 255 255 255
0.978307 0.123095 2.151 255 255 255
0.873968 0.398133 1.758 255 255 255
0.819129 0.338515 1.978 255 255 255
0.123279 -0.338847 1.668 255 255 255
0.811539 0.458269 1.705 255 255 255
0.287217 -0.0355038 1.1 255 255 255
-0.60739 -0.858274 2.793 255 255 255
0.00869526 -0.157588 1.213 255 255 255
1.10708 -0.314434 2.582 255 255 255
-0.389371 -0.0141743 0.986 255 255 255
-0.546537 -0.38125 1.543 255 255 255
0.7189 0.561568 1.48 255 255 255
0.0423758 0.14896 0.561 255 255 255
1.03796 -0.68741 2.43 255 255 255
-0.333776 0.106434 0.796 255 255 255
0.0592371 0.202727 0.532 255 255 255
-0.362955 0.289604 0.812 255 255 255
-0.201059 0.141497 0.755 255 255 255
-0.0661236 -0.312062 1.587 0 0 0
1.01948 0.136929 2.044 255 255 255
-0.100154 0.222974 0.736 255 255 255
-0.329911 0.0679218 0.832 255 255 255
0.0715203 0.034912 0.497 255 255 255
1.09492 -0.319993 2.593 255 255 255
-0.48591 -0.282144 1.459 255 255 255
-0.00667738 0.269778 0.733 255 255 255
1.1674 -0.865105 2.303 255 255 255
0.549773 -0.445781 1.959 255 255 255
-0.673842 -0.386603 1.607 255 255 255
0.120542 -0.0507091 0.921 0 0 0
-0.381247 0.157653 0.774 255 255 255
-0.116815 0.290281 0.775 255 255 255
-0.344868 -0.302459 1.551 255 255 255
-0.207431 -0.16667 1.333 255 255 255
-0.204904 0.0778928 0.809 255 255 255
0.747936 0.000681101 2.519 255 255 255
0.72034 -0.841553 2.374 255 255 255
-0.151877 0.171705 0.737 255 255 255
-0.912253 -0.903597 2.925 255 255 255
-0.13061 -0.14262 1.187 255 255 255
0.133525 0.200883 0.717 255 255 255
0.261462 0.0479612 0.977 255 255 255
0.204263 0.334477 0.863 255 255 255
0.287984 -0.157948 1.297 255 255 255
-0.711188 -0.219914 1.425 255 255 255
-0.400088 -0.86251 2.626 255 255 255
0.730359 0.146365 2.42 255 255 255
-0.27024 0.161369 0.756 255 255 255
0.0349731 0.0814921 0.495 255 255 255
0.0998533 -0.0728864 0.999 255 255 255
-0.270025 0.275695 0.773 255 255 255
-0.237321 -0.493351 1.744 255 255 255
-0.0496028 -0.295648 1.555 255 255 255
0.0888659 0.0537294 0.499 255 255 255
-0.210199 -0.0492602 0.869 255 255 255
-1.1063 -0.895404 3.026 255 255 255
-1.14419 -1.13496 3.102 255 255 255
0.175279 0.226835 0.778 255 255 255
0.135269 -0.427432 1.753 255 255 255
0.126932 0.0297952 0.826 255 255 255
-0.220723 0.153783 0.755 255 255 255
0.761201 0.520792 1.583 255 255 255
-0.326647 0.0443272 0.874 255 255 255
-0.0357032 0.0114408 0.767 255 255 255
-0.266079 -0.194155 1.39 255 255 255
0.715855 0.384228 1.917 255 255 255
-0.338533 0.107594 0.795 255 255 255
0.11244 -0.441696 1.753 255 255 255
-0.94415 -1.09617 2.996 255 255 255
0.0120917 0.239547 0.714 255 255 255
-0.158303 0.164955 0.739 255 255 255
0.0275291 0.179498 0.693 255 255 255
1.07126 -0.41247 2.489 255 255 255
-0.405274 0.0554283 0.848 255 255 255
-0.968819 -0.955198 2.967 255 255 255
-0.129433 0.246505 0.753 255 255 255
0.150526 0.000249025 0.921 255 255 255
-0.274172 0.242351 0.767 255 255 255
-0.38966 0.304471 0.799 255 255 255
-0.667917 -0.7638 2.78 0 0 0
0.848983 0.450843 1.719 255 255 255
0.998233 -0.553298 2.449 255 255 255
-0.949827 -0.945885 2.953 255 255 255
0.623998 -0.936622 2.42 255 255 255
-0.467862 -0.292836 1.477 255 255 255
0.059104 0.0835163 0.488 255 255 255
-0.206784 -0.0649122 0.91 255 255 255
0.0764023 0.144335 0.537 255 255 255
-0.21136 -0.0743651 0.917 255 255 255
0.0714124 0.179897 0.526 255 255 255
-0.367497 0.0227799 0.923 255 255 255
-0.146249 0.13841 0.745 255 255 255
0.12038 -0.481999 1.744 255 255 255
1.00591 0.120119 2.099 255 255 255
-1.46071 -1.18569 3.198 255 255 255
-0.0146878 -0.950653 2.509 255 255 255
0.541354 -0.511155 1.929 255 255 255
-0.188524 -0.966532 2.54 255 255 255
-0.0308693 0.0290659 0.771 255 255 255
-0.236483 0.256354 0.787 255 255 255
-0.0440636 0.140796 0.72 255 255 255
0.730124 0.293342 2.092 255 255 255
0.652238 0.528413 1.575 255 255 255
-0.0599847 0.110229 0.743 255 255 255
-0.12453 0.251406 0.753 255 255 255
0.0299061 0.165729 0.55 255 255 255
0.459071 -0.285035 1.655 255 255 255
0.175401 -0.0239947 0.994 255 255 255
-0.338959 0.106434 0.796 255 255 255
-0.245776 0.211422 0.768 255 255 255
-0.40374 -0.0756297 1.085 255 255 255
-0.0576432 0.261719 0.744 255 255 255
-0.836253 -0.737981 2.768 255 255 255
0.684203 0.247173 2.196 255 255 255
0.852044 -0.869313 2.43 255 255 255
0.623711 0.389038 1.941 255 255 255
0.786905 -0.769087 2.365 255 255 255
-0.0701356 -0.34755 1.62 255 255 255
-0.556305 -0.287679 1.463 255 255 255
-0.215374 -0.93124 2.615 255 255 255
-0.0247427 0.11189 0.738 255 255 255
-0.138641 0.0652278 0.799 255 255 255
0.928198 -0.121028 2.672 255 255 255
0.395027 -0.258865 1.532 255 255 255
1.09656 -0.697729 2.411 255 255 255
-0.242003 -0.182311 1.369 255 255 255
0.422218 -0.477661 1.959 0 0 0
0.0325198 0.0974937 0.507 255 255 255
1.03382 0.0241025 2.402 255 255 255
-0.0497489 -0.147347 1.194 255 255 255
-0.365055 0.215645 0.788 255 255 255
0.586128 0.448349 1.753 255 255 255
-0.343383 -0.331045 1.579 255 255 255
0.511712 0.566644 1.487 255 255 255
-0.258889 -0.978313 2.582 255 255 255
0.780352 0.478183 1.668 255 255 255
-0.111389 0.225085 0.739 255 255 255
1.17248 -0.00322138 2.374 255 255 255
0.93667 0.201427 2.128 255 255 255
0.275812 -0.19911 1.362 255 255 255
-0.433299 0.0285697 0.916 255 255 255
0.680714 -0.467428 1.997 255 255 255
0.094629 -0.328221 1.642 255 255 255
0.215714 -0.782177 2.269 0 0 0
-0.279753 -0.00126331 0.931 255 255 255
1.18239 -0.640401 2.402 255 255 255
-0.0769171 0.113857 0.743 255 255 255
-1.12042 -0.822367 3.011 0 0 0
-0.332853 -0.0812995 1.09 255 255 255
0.790437 -0.854669 2.411 255 255 255
0.874905 -0.359489 2.604 255 255 255
-0.362524 0.283694 0.814 255 255 255
-0.724229 -0.304196 1.547 255 255 255
0.994518 -0.595718 2.411 255 255 255
-0.0400465 -0.0148027 0.925 255 255 255
-0.376917 -0.0576525 1.079 255 255 255
-0.163008 0.153964 0.744 255 255 255
0.0838935 -0.202738 1.342 255 255 255
-0.0525581 0.141578 0.724 255 255 255
0.764177 0.296746 2.092 255 255 255
0.103888 0.0187651 0.814 255 255 255
0.625215 -0.834514 2.365 255 255 255
-0.376585 0.238842 0.78 255 255 255
0.224483 0.0173533 0.955 255 255 255
-0.414027 0.14219 0.786 255 255 255
0.81695 -0.501584 2.374 255 255 255
0.0619513 0.144994 0.533 255 255 255
-0.5479 -0.300197 1.466 255 255 255
1.08239 0.0538979 2.338 255 255 255
0.695523 0.507981 1.616 255 255 255
0.8153 0.0770214 2.347 255 255 255
0.930739 0.253334 2.099 255 255 255
-0.241023 0.156654 0.757 255 255 255
-0.160619 -0.0309156 0.832 255 255 255
0.0864511 -0.0871783 1.075 255 255 255
0.762037 0.2409 2.204 255 255 255
-0.137572 0.0514989 0.808 0 0 0
-0.760216 -0.286481 1.494 255 255 255
0.591978 0.502558 1.65 255 255 255
-0.131152 -0.20996 1.375 255 255 255
-0.276468 0.196387 0.763 255 255 255
-0.166867 0.298848 0.791 255 255 255
0.0820034 0.00158269 0.834 255 255 255
-0.287738 -0.858897 2.615 255 255 255
0.872118 0.0543128 2.356 255 255 255
-0.202351 0.0656078 0.82 255 255 255
0.83507 0.226008 2.099 255 255 255
0.0397627 0.178748 0.538 255 255 255
-0.533479 -0.0377338 1.062 255 255 255
0.224717 0.23933 0.924 255 255 255
-0.145144 0.0639276 0.799 255 255 255
0.158143 0.200241 0.745 255 255 255
0.0827732 -0.0123055 0.856 0 0 0
-0.28831 -0.99512 2.582 255 255 255
-1.23373 -0.958355 3.086 255 255 255
-0.428826 0.0300603 0.916 255 255 255
-0.105524 -0.214625 1.362 255 255 255
-0.682571 -0.288233 1.516 255 255 255
0.066527 0.132464 0.528 255 255 255
-0.257635 -0.412315 1.691 255 255 255
0.264963 -0.800763 2.312 0 0 0
0.0417069 0.175196 0.685 0 0 0
0.520919 -0.810441 2.329 255 255 255
-0.212243 -0.749681 2.479 255 255 255
-0.297379 0.00785217 0.934 255 255 255
-1.20274 -1.00367 3.071 0 0 0
0.931544 -0.219527 2.707 255 255 255
0.495376 -0.611121 2.01 255 255 255
-0.273539 0.0454354 0.868 255 255 255
1.05222 -0.0284807 2.561 255 255 255
0.820962 -0.873612 2.42 255 255 255
0.694511 0.089158 2.365 255 255 255
0.150817 0.0573906 0.817 255 255 255
0.971688 -0.204559 2.684 255 255 255
-0.314179 0.033439 0.887 255 255 255
-0.656571 -0.401917 1.616 255 255 255
0.271843 -0.209536 1.387 255 255 255
-0.0134023 0.164259 0.71 255 255 255
0.108297 0.174045 0.548 255 255 255
0.81877 -0.00764272 2.561 255 255 255
-0.748897 -0.310679 1.567 255 255 255
-0.419169 0.032753 0.908 255 255 255
-0.308635 0.278118 0.798 255 255 255
-1.40116 -0.936092 3.181 255 255 255
0.0141134 0.170814 0.699 255 255 255
-0.26529 0.191421 0.763 255 255 255
0.911156 -0.686268 2.44 255 255 255
0.718714 0.188502 2.356 255 255 255
0.947743 -0.688338 2.392 255 255 255
1.13072 -0.1404 2.55 255 255 255
-0.536692 -0.0986063 1.192 255 255 255
0.825723 0.0909223 2.312 255 255 255
0.463459 -0.436924 1.893 255 255 255
0.93429 0.343673 1.917 255 255 255
-0.0187261 -0.459294 1.744 0 0 0
-0.34805 0.000257407 0.952 255 255 255
-0.303323 -0.706703 2.312 255 255 255
0.497855 0.442172 1.774 255 255 255
-0.399629 0.229151 0.773 255 255 255
-0.105922 -0.202284 1.339 0 0 0
0.14346 0.175946 0.72 255 255 255
0.250991 -0.303547 1.583 255 255 255
-1.16815 -1.12762 3.181 255 255 255
0.658195 -0.480849 1.959 255 255 255
-1.1754 -1.13968 3.215 255 255 255
0.19631 -0.00958852 1.01 255 255 255
-0.0173073 0.06384 0.782 255 255 255
0.0994131 0.00564071 0.832 255 255 255
-0.0943905 -0.413103 1.629 255 255 255
-1.48446 -0.926675 3.149 255 255 255
0.135845 0.00743181 0.884 255 255 255
-0.04388 0.154211 0.717 255 255 255
0.897229 0.068348 2.312 255 255 255
0.190564 0.0653951 0.852 255 255 255
-1.12533 -0.807667 3.011 255 255 255
-0.0651599 0.172431 0.72 255 255 255
0.466787 0.495951 1.673 255 255 255
-0.0368204 0.0581386 0.791 255 255 255
1.22927 -0.31931 2.489 255 255 255
-0.260257 -0.0147387 0.921 255 255 255
-0.00330492 0.054932 0.782 255 255 255
-1.4423 -1.02981 3.215 255 255 255
1.14878 0.0121854 2.365 255 255 255
0.833791 0.115368 2.204 255 255 255
-0.221947 -0.184538 1.369 255 255 255
-0.452615 -0.912134 2.684 255 255 255
-0.112303 -0.00240532 0.806 255 255 255
0.384137 -0.837689 2.374 255 255 255
-0.811469 -0.354942 1.642 255 255 255
-0.264584 0.0637833 0.831 255 255 255
-0.383801 -0.0551196 1.064 255 255 255
-0.371332 0.0381525 0.896 255 255 255
1.01041 -0.293425 2.582 255 255 255
0.81877 -0.386893 2.561 255 255 255
-0.810074 -1.03563 2.818 255 255 255
0.0484773 0.0530112 0.485 255 255 255
0.215473 -0.278809 1.532 255 255 255
-1.02218 -0.940157 2.996 255 255 255
-0.319099 0.212798 0.773 255 255 255
-0.0192891 0.141946 0.714 255 255 255
0.00968495 -0.528618 1.748 255 255 255
0.093984 -0.623727 1.899 255 255 255
0.177747 -0.313278 1.62 255 255 255
-0.241168 0.0376415 0.884 255 255 255
-0.120372 0.119811 0.75 255 255 255
0.724479 0.0205131 2.44 0 0 0
-0.226799 0.274222 0.798 255 255 255
-0.20237 -0.058146 0.897 255 255 255
0.854434 0.390597 1.789 255 255 255
-0.361102 0.328663 0.848 255 255 255
-0.337427 0.0532894 0.858 0 0 0
1.10916 -0.65182 2.43 255 255 255
-0.214761 0.21293 0.76 255 255 255
-0.158541 -0.448088 1.691 255 255 255
0.323096 -0.0467981 1.158 255 255 255
-0.383631 0.0873237 0.811 255 255 255
-0.306163 0.108796 0.785 255 255 255
-0.0714044 0.0233247 0.789 0 0 0
0.681823 0.356742 1.972 255 255 255
-0.988043 -1.12055 2.996 255 255 255
0.782409 0.46413 1.696 255 255 255
0.0380517 -0.501865 1.744 0 0 0
0.00303632 0.0557733 0.776 255 255 255
-0.164547 -0.0518111 0.914 255 255 255
-0.0601234 0.136812 0.73 255 255 255
0.050725 -0.0109125 0.856 255 255 255
1.00239 -0.410813 2.479 255 255 255
0.1138 -0.22985 1.387 255 255 255
-0.400247 -0.175906 1.354 255 255 255
0.291673 -0.0083697 1.064 255 255 255
0.0745304 0.0735318 0.485 255 255 255
-0.268205 0.0390359 0.883 255 255 255
-0.219024 -0.496166 1.734 255 255 255
0.066532 0.0380704 0.496 0 0 0
0.857223 -0.139612 2.695 255 255 255
-0.162535 0.066195 0.795 255 255 255
0.067729 0.12805 0.524 255 255 255
0.53052 0.542602 1.579 255 255 255
-0.290969 -0.414735 1.646 255 255 255
-0.0289474 0.239037 0.723 255 255 255
-0.153704 -0.160419 1.283 255 255 255
-0.370765 0.0623281 0.848 255 255 255
-0.144257 0.191931 0.741 255 255 255
0.659896 0.426583 1.831 255 255 255
0.28833 -0.24653 1.459 255 255 255
-0.0215833 0.161472 0.713 255 255 255
-0.289081 0.197307 0.757 255 255 255
-0.177553 0.28453 0.787 255 255 255
-0.268547 0.23888 0.776 255 255 255
-0.563707 -0.15043 1.252 0 0 0
1.03228 0.131838 2.017 255 255 255
-0.120131 0.102155 0.764 255 255 255
0.0617582 0.192004 0.524 255 255 255
-0.478226 -0.363787 1.502 255 255 255
0.0765281 0.0333614 0.498 255 255 255
0.0578294 0.150762 0.535 255 255 255
0.571336 -0.786402 2.303 255 255 255
0.689425 -0.829963 2.374 255 255 255
-0.125823 -0.174833 1.297 255 255 255
1.01045 0.0086011 2.44 255 255 255
0.520734 0.552462 1.535 255 255 255
1.15315 -0.586576 2.374 255 255 255
-0.364789 0.228628 0.793 255 255 255
-0.16898 0.212286 0.749 255 255 255
-0.525938 -0.279437 1.445 255 255 255
0.349812 -0.451511 1.929 255 255 255
-0.597634 -0.101272 1.156 255 255 255
1.14043 0.0566166 2.294 255 255 255
-0.222956 0.26471 0.789 255 255 255
0.00854473 0.219409 0.709 255 255 255
-0.376716 -0.359581 1.547 255 255 255
0.0859957 0.149075 0.548 255 255 255
