ply
format ascii 1.0
comment Created by Open3D
element vertex 1323
property double x
property double y
property double z
property uchar red
property uchar green
property uchar blue
end_header
0.0171443 0.0932558 1.12 149 125 113
0.159181 0.122042 1.025 144 126 115
0.273098 -0.197785 0.863 111 100 93
-0.0573988 -0.35747 1.116 196 178 169
0.273549 -0.303007 0.847 158 148 136
-0.701597 0.694336 1.784 109 97 81
0.100662 0.054491 1.041 118 106 90
-0.102292 0.382332 1.242 129 115 98
0.155066 -0.0840865 0.978 107 92 80
-0.736256 0.197423 1.729 122 108 89
-0.314494 0.0296531 1.384 133 119 104
0.305389 -0.309905 0.825 117 110 93
0.109339 -0.0866282 1.027 111 97 89
0.0735806 0.047126 1.066 116 96 88
0.168538 -0.16132 0.964 110 99 92
-0.164912 0.0207954 1.257 176 154 144
0.321282 -0.196175 0.821 107 98 91
-0.73216 -0.635921 1.65 156 139 123
0.360884 -0.0705223 0.805 113 102 95
-0.907565 0.603121 1.899 21 18 2
-0.461247 0.327646 1.535 126 112 93
0.34776 -0.251428 0.793 109 103 90
0.252912 -0.109114 0.896 112 103 94
0.379795 -0.212533 0.769 177 171 158
-0.574438 -0.0518678 1.607 163 146 132
0.384734 -0.144306 0.779 174 167 150
0.195268 -0.331486 0.906 127 113 105
0.103998 -0.259636 0.992 186 171 161
-0.519404 -0.567993 1.48 168 155 142
0.114767 0.313485 1.046 135 118 104
0.0507353 -0.16531 1.06 119 104 94
-0.0537177 -0.24382 1.154 137 121 116
0.24699 -0.00122261 0.901 97 90 82
0.153978 0.241597 1.002 101 88 66
-0.313593 -0.294237 1.351 135 119 112
-0.765083 0.255816 1.763 122 107 95
-0.909645 0.638908 1.923 34 29 25
-0.0118971 0.160774 1.108 108 88 68
-0.207194 -0.114039 1.278 182 161 148
-0.0826514 0.225336 1.192 111 92 75
0.114896 -0.0493748 1.017 122 103 101
0.0906374 -0.258132 1.005 174 153 148
-0.870923 -0.052529 1.81 66 51 39
0.118042 0.0639721 1.03 144 124 114
-0.247618 0.393901 1.351 130 111 96
0.249183 0.00764199 0.909 102 91 86
-0.620413 0.599894 1.682 117 101 78
-0.575228 -0.0867727 1.624 133 119 100
-0.255003 -0.30405 1.299 139 119 120
-0.689796 0.143551 1.691 127 109 89
0.0316653 -0.231926 1.057 122 108 100
-0.435084 -0.00441672 1.48 126 113 100
0.315131 -0.174643 0.833 109 99 87
0.0312758 -0.373483 1.044 136 116 108
-0.78432 -0.532261 1.705 140 130 116
0.213293 -0.293963 0.895 160 141 135
-0.897843 0.0795307 1.799 41 18 0
0.186786 0.0393564 0.961 107 93 89
-0.214514 0.162371 1.31 111 90 73
0.196501 0.206953 0.955 112 98 79
0.225882 0.192804 0.517 18 26 25
0.309646 0.0651356 0.867 96 89 81
-0.722598 -0.0468441 1.71 141 121 99
-0.848242 0.229927 1.831 102 88 71
0.375673 -0.237198 0.776 107 101 86
-0.5115 -0.181308 1.551 152 137 127
0.377908 -0.254268 0.778 109 102 94
-0.865152 -0.268 1.774 54 44 32
-0.494042 -0.307359 1.513 170 150 142
-0.563282 -0.404014 1.583 175 154 141
-0.87387 -0.046638 1.81 60 42 31
0.247902 0.0851855 0.932 130 116 101
-0.688901 -0.499047 1.624 152 135 117
0.280723 0.294954 0.901 97 90 71
0.2573 -0.139616 0.886 105 94 87
0.23046 0.163267 0.954 162 141 124
-0.206846 0.0257774 1.302 129 108 107
0.109659 0.284548 1.046 134 115 100
-0.0315271 -0.147814 1.167 157 137 129
-0.738146 -0.273262 1.682 139 122 108
0.160839 0.217022 0.994 104 87 69
0.251055 0.135734 0.505 35 76 100
0.150785 -0.307713 0.951 164 144 136
-0.85311 0.262135 1.848 103 94 75
-0.0991439 -0.297429 1.158 191 175 168
0.118729 0.140211 1.036 127 106 91
-0.498968 -0.260579 1.513 136 121 111
0.228485 -0.0791858 0.921 106 92 84
0.16519 -0.0535171 0.972 161 141 133
-0.738092 0.491249 1.774 109 97 79
-0.21737 -0.00594435 1.289 124 108 101
0.259477 0.0752172 0.507 40 76 82
-0.40389 0.128958 1.463 113 90 69
0.310699 -0.00681218 0.866 98 87 80
-0.200923 -0.351093 1.227 145 126 122
0.169194 0.12911 1.015 173 155 135
-0.0580226 -0.17031 1.165 138 118 110
-0.692823 0.285797 1.719 123 109 94
0.266038 -0.0274614 0.896 170 150 142
0.370995 -0.123671 0.793 98 90 78
-0.01223 -0.179484 1.139 132 113 107
-0.933917 0.224025 1.784 45 15 0
0.230311 0.285356 0.947 103 94 75
0.206444 -0.204026 0.923 114 100 94
-0.66594 -0.210131 1.659 152 138 123
0.360944 -0.0542897 0.817 91 87 76
0.325691 -0.278594 0.812 155 141 124
-0.511892 0.557947 1.616 112 105 84
0.220416 0.183905 0.518 16 24 13
-0.0259167 0.272818 1.171 134 115 100
-0.217143 -0.0316952 1.313 124 104 96
0.0363392 -0.283168 1.043 134 118 113
0.231773 0.113719 0.517 20 25 15
-0.764602 -0.531817 1.686 141 129 111
0.262035 0.090371 0.923 134 119 107
0.379695 -0.0929333 0.795 94 92 84
-0.917646 0.307665 1.815 40 14 1
0.353646 -0.304209 0.786 115 108 102
0.0817938 0.0244362 1.06 109 93 88
0.32256 0.13278 0.895 127 118 101
0.191682 0.161009 0.978 192 175 161
0.282505 -0.18438 0.866 109 100 95
0.246187 0.0364574 0.519 25 25 25
0.26662 -0.250086 0.874 116 106 94
-0.313537 -0.466853 1.305 187 171 164
-0.373623 -0.323827 1.403 140 125 115
-0.00110167 0.0446353 1.135 147 128 115
-0.121122 -0.0743743 1.208 123 107 102
-0.0336845 0.287379 1.176 134 115 98
-0.306807 0.226575 1.39 137 117 107
0.126562 -0.334921 0.967 133 119 111
0.0186287 -0.0229734 1.1 123 105 94
0.377083 -0.282149 0.761 161 147 139
-0.23995 0.427171 1.345 131 112 95
0.13808 0.0068136 1.005 153 133 123
0.196041 0.106813 0.992 139 119 109
-0.313131 0.12595 1.378 106 86 64
0.365042 -0.248257 0.783 108 100 88
-0.315176 0.0184319 1.387 123 110 97
0.157459 -0.0717191 0.983 111 97 89
-0.594813 0.52307 1.664 119 107 91
0.131449 -0.119191 0.992 183 158 149
0.121395 0.260082 1.03 104 85 72
0.170191 0.174398 0.947 170 151 136
-0.503987 0.434249 1.559 123 106 92
0.371558 -0.128975 0.786 100 91 82
0.312501 -0.308984 0.819 113 110 96
-0.35992 0.100838 1.403 110 91 66
0.329254 -0.0214123 0.831 165 153 137
0.329548 -0.206678 0.815 139 129 117
0.222533 0.32208 0.96 129 117 101
0.228005 0.115625 0.518 21 28 22
-0.258625 -0.481364 1.265 156 141 131
-0.756866 0.444025 1.805 111 99 81
0.271957 0.284796 0.906 100 91 74
-0.376967 0.13884 1.442 108 87 70
0.0944769 -0.168848 1.029 115 101 95
0.160457 0.31153 1.012 131 117 100
-0.304076 -0.498487 1.31 152 141 134
0.173892 -0.249615 0.942 186 170 165
-0.313572 0.219092 1.4 137 118 103
-0.843893 -0.205642 1.784 106 92 73
-0.552975 0.0184604 1.583 121 98 77
-0.161632 -0.168076 1.232 155 132 127
0.0127749 -0.325732 1.06 161 139 129
-0.333225 0.256639 1.406 136 116 106
-0.876344 0.384704 1.859 64 53 46
-0.905828 0.387413 1.815 39 16 0
0.268691 0.0163539 0.9 97 89 77
0.237664 0.104465 0.517 23 22 7
0.0723382 -0.156617 1.048 113 102 93
0.0241314 -0.0824929 1.106 151 132 119
-0.0872175 0.43233 1.229 130 113 97
-0.182724 0.066321 1.267 175 155 135
-0.0084919 0.0741876 1.135 146 124 114
0.240422 0.0205676 0.523 35 35 29
-0.129092 0.249938 1.247 137 118 103
0.308075 -0.250833 0.825 110 104 91
0.343772 -0.167391 0.811 103 96 86
0.246804 -0.00572727 0.515 36 40 33
-0.249234 -0.262377 1.302 181 162 149
0.223789 0.173789 0.518 16 23 17
-0.0546022 0.231289 1.173 108 91 73
0.349458 -0.248219 0.791 110 104 91
0.251691 0.0894644 0.513 22 33 33
0.177159 -0.351238 0.927 127 113 105
0.151466 0.328286 1.018 133 119 102
-0.0102028 0.127885 1.12 202 180 170
-0.578743 -0.259754 1.583 166 149 133
-0.833825 0.73984 1.893 98 68 36
0.221522 -0.0937645 0.917 116 102 94
-0.592495 0.344138 1.65 126 109 84
-0.0340569 -0.119642 1.189 147 127 117
0.187174 -0.0199451 0.955 103 93 81
0.376338 -0.275079 0.762 187 183 172
-0.495193 -0.304091 1.509 169 154 144
0.336392 -0.133544 0.822 99 91 88
-0.42626 -0.0747016 1.442 126 112 95
-0.600952 -0.565682 1.567 158 143 131
-0.334798 0.0140782 1.403 126 112 97
0.298932 -0.205447 0.837 111 100 93
0.15402 0.339862 1.013 130 118 100
0.273766 0.161412 0.917 163 151 133
-0.138862 0.289911 1.262 136 117 102
0.278919 -0.102879 0.868 115 107 95
-0.636234 0.135435 1.659 106 87 72
-0.440123 -0.270778 1.449 136 118 107
-0.0986302 -0.40462 1.152 149 131 122
0.323798 -0.180801 0.824 105 97 85
0.310362 0.18006 0.877 171 158 134
-0.619744 -0.25202 1.616 148 129 116
0.190084 -0.0680508 0.954 111 98 87
-0.656007 0.118153 1.682 101 82 65
0.241872 0.0767007 0.517 15 23 12
-0.625196 -0.469116 1.603 172 154 143
-0.0258724 0.255231 1.169 133 114 99
-0.315176 0.00940344 1.387 126 111 99
0.0377088 -0.385049 1.034 144 128 121
0.393565 -0.133694 0.769 135 127 115
-0.836942 -0.0666618 1.794 115 101 82
0.311891 -0.156078 0.828 177 164 151
0.336142 -0.25917 0.793 110 102 90
-0.143877 0.357884 1.27 132 112 104
-0.0468844 -0.146415 1.171 153 132 127
0.259028 -0.00900905 0.511 29 35 37
0.147678 -0.301566 0.961 136 118 109
0.246681 0.101152 0.513 29 33 26
-0.207871 0.394051 1.322 127 115 95
0.000721576 -0.38744 1.098 143 128 118
0.261056 0.00612885 0.904 97 88 81
-0.811562 -0.128263 1.758 126 112 97
-0.268268 0.363651 1.378 129 112 94
-0.314389 -0.264476 1.345 169 146 143
0.227879 0.0703945 0.937 101 93 81
0.0468829 0.150793 1.051 193 168 150
-0.263444 0.0484081 1.342 178 155 136
-0.719815 -0.0190168 1.71 147 129 109
-0.600864 -0.293811 1.629 146 129 115
0.276984 -0.0243534 0.889 151 137 120
0.0683901 0.427567 1.094 124 107 91
-0.751916 -0.449057 1.664 144 125 108
0.136981 -0.0386691 0.997 111 97 89
-0.314389 -0.262287 1.345 161 140 137
0.0300013 -0.166878 1.059 119 103 96
0.160747 0.171209 0.955 189 168 153
-0.0648971 -0.382445 1.12 150 132 123
0.267788 -0.214886 0.864 128 109 103
0.18995 -0.201236 0.938 116 103 90
0.252049 0.123895 0.507 40 77 96
0.0640581 0.227222 1.081 108 89 72
0.315893 -0.280605 0.814 158 141 125
-0.605648 0.393092 1.664 121 104 86
0.203609 -0.259405 0.917 123 108 96
0.323047 -0.260094 0.812 108 102 89
-0.737138 -0.00508818 1.705 150 137 115
-0.0183233 0.454625 1.173 126 108 86
-0.731085 -0.1619 1.691 139 120 107
0.147223 -0.329883 0.948 126 117 108
0.204702 0.216731 0.957 93 77 56
0.242244 0.0967052 0.516 20 21 15
0.125241 -0.050528 1.007 149 130 124
0.0734629 0.399397 1.09 127 115 97
0.191419 -0.288139 0.923 122 106 99
-0.560152 -0.555574 1.539 155 145 131
0.255575 0.0494386 0.916 98 89 80
0.128657 -0.201292 0.983 118 107 100
0.104313 -0.216703 0.995 119 108 99
-0.0534115 0.0370845 1.189 158 138 128
0.122743 -0.0192576 1 109 94 82
-0.0662276 0.113229 1.176 193 171 161
0.247763 0.0480955 0.517 13 20 14
-0.430058 -0.456247 1.439 150 136 128
-0.294453 -0.18472 1.354 129 113 106
-0.711383 0.0222857 1.677 107 82 62
0.0179513 -0.17221 1.06 119 105 97
-0.942629 0.325636 1.784 39 15 1
-0.43867 0.0618275 1.452 193 172 155
-0.0273001 -0.229675 1.149 171 149 139
-0.462306 -0.469821 1.452 150 138 122
0.286999 -0.297 0.834 181 165 158
-0.638356 0.412007 1.686 120 98 88
-0.296411 0.553414 1.416 121 104 86
0.174867 -0.271741 0.939 122 109 96
0.172909 0.241682 0.989 104 87 69
-0.00293623 -0.124738 1.13 125 112 101
-0.0502205 -0.248863 1.16 140 126 118
-0.321766 0.0571712 1.396 102 76 65
0.15647 -0.260961 0.967 158 139 133
0.116817 0.2409 1.034 105 88 70
-0.254056 -0.252349 1.316 155 134 129
0.349347 -0.113341 0.821 97 94 80
0.288011 -0.291221 0.833 178 159 153
-0.5115 -0.18888 1.551 136 121 111
-0.127485 -0.365206 1.176 182 161 156
0.218535 0.336485 0.97 129 117 97
0.281982 0.215534 0.882 84 75 54
0.337766 0.0239123 0.856 95 87 73
-0.868796 -0.199784 1.758 28 17 8
0.191357 -0.240382 0.93 168 146 138
-0.0664529 0.109773 1.18 181 162 147
-0.0262265 0.0273178 1.185 140 120 110
-0.122827 0.175757 1.225 110 89 74
-0.0733169 0.318099 1.198 132 113 100
-0.941635 0.468818 1.81 40 19 2
0.0622984 0.118155 1.081 179 156 137
-0.064097 0.387592 1.208 129 112 96
0.272111 -0.0142746 0.892 100 89 80
0.188346 0.333487 0.994 129 117 99
-0.39817 -0.462065 1.393 151 135 128
-0.0904173 -0.369838 1.143 181 160 155
-0.268268 0.365893 1.378 131 113 91
-0.415718 -0.286559 1.422 176 156 146
-0.681491 -0.132236 1.664 140 121 106
0.0112475 -0.226218 1.079 129 116 103
-0.12012 -0.159538 1.198 154 135 131
-0.111677 0.249341 1.234 137 118 103
0.206475 0.223193 0.958 102 88 73
0.217657 -0.241683 0.901 184 171 158
-0.243435 0.00247652 1.305 165 145 137
0.0609153 -0.0255155 1.057 114 98 93
-0.596493 -0.317817 1.603 154 135 133
-0.203379 -0.438252 1.242 169 149 139
-0.891056 0.0979596 1.815 21 11 0
0.0320127 0.423248 1.13 126 112 93
0.21067 0.233723 0.624 121 116 98
-0.849199 -0.576371 1.696 69 51 40
-0.205719 0.40911 1.322 129 113 92
0.0164861 -0.160951 1.077 121 105 100
-0.116845 0.0421943 1.225 126 105 104
0.0150202 -0.0533073 1.098 115 100 90
0.104832 0.0120349 1.032 144 123 120
-0.938342 0.676328 1.905 30 16 0
0.239347 0.157468 0.517 24 42 40
-0.900567 0.165931 1.753 42 17 0
-0.909531 0.467889 1.865 17 13 2
-0.302296 0.514106 1.422 124 107 89
0.0684659 -0.194534 1.041 166 143 138
-0.268143 -0.333691 1.291 172 158 143
0.134782 -0.19769 0.981 118 107 102
0.131589 -0.204075 0.981 118 104 98
0.118042 0.0706767 1.03 170 148 138
0.151895 0.174865 0.958 120 96 80
0.25136 0.369334 0.945 126 112 97
-0.62254 0.441501 1.673 114 104 92
0.16736 0.341744 1.004 129 117 101
0.0791619 -0.0423527 1.048 110 94 89
-0.554743 -0.0073924 1.603 127 117 105
-0.0700562 -0.122161 1.176 126 110 103
-0.0430721 0.242328 1.171 120 102 82
-0.112319 -0.046465 1.198 139 122 106
0.0663657 0.291196 1.09 133 114 101
-0.307821 -0.25791 1.345 147 128 122
-0.119718 -0.221183 1.194 143 124 122
-0.860998 -0.538198 1.655 74 32 2
-0.620531 -0.227235 1.646 140 125 115
0.13728 0.323975 1.036 134 120 103
-0.0807111 0.0953713 1.192 155 135 127
0.0699786 0.0643524 1.064 176 151 142
-0.249699 -0.107614 1.327 129 110 104
-0.320137 0.295959 1.419 136 113 94
-0.362978 -0.0957168 1.406 124 108 101
0.309109 -0.109045 0.85 103 95 83
-0.402916 0.537157 1.513 121 104 88
-0.374627 -0.469998 1.357 174 159 147
0.367372 -0.0663441 0.802 97 93 82
-0.544804 0.540874 1.62 113 104 85
0.097858 0.17484 1.012 94 77 59
0.294798 0.106934 0.886 167 153 138
0.355643 -0.133402 0.805 105 94 89
-0.0141582 0.212725 1.145 106 87 72
-0.0847337 0.0527847 1.194 124 105 99
-0.700884 0.39383 1.739 115 101 82
-0.831532 -0.465126 1.734 110 96 81
0.229735 0.294299 0.951 115 99 78
-0.313961 0.349646 1.412 129 112 96
0.167814 -0.177716 0.951 168 150 141
0.155697 -0.153168 0.972 111 97 89
-0.567297 0.346644 1.624 123 107 86
-0.691836 0.177095 1.696 126 108 86
0.11575 -0.00794492 1.01 110 94 87
0.198565 0.202778 0.95 102 88 71
0.367591 -0.253354 0.783 110 100 88
-0.0433296 -0.170294 1.178 159 137 127
-0.521878 -0.150028 1.567 129 114 104
-0.828158 -0.180883 1.769 119 105 88
0.172168 -0.140049 0.958 108 100 88
0.234298 0.136435 0.517 16 22 22
-0.372927 -0.0959211 1.409 126 113 102
-0.417765 -0.350757 1.429 165 145 137
0.262247 -0.0450588 0.898 102 93 84
-0.153697 0.158875 1.249 109 90 77
-0.293258 0.145178 1.369 106 88 68
0.241782 -0.135662 0.898 104 94 80
-0.544737 0.315226 1.612 128 112 91
0.263123 0.0339667 0.901 163 148 136
-0.263847 0.128345 1.333 105 85 63
-0.220574 0.149352 1.308 113 89 73
-0.732955 -0.557372 1.664 150 136 121
0.371463 -0.0773113 0.794 168 160 146
0.252458 0.0372301 0.518 20 27 21
-0.126496 -0.168035 1.203 184 163 158
-0.94958 0.53385 1.831 31 17 0
-0.309316 -0.0243473 1.381 124 109 99
-0.579651 0.246976 1.629 128 111 93
-0.11258 0.189247 1.222 109 91 71
0.00450753 0.388371 1.152 128 114 95
-0.292294 -0.405267 1.305 183 170 159
0.239632 -0.0115713 0.514 55 46 41
0.23989 0.0263731 0.52 33 35 19
0.306778 0.00595936 0.879 93 84 75
-0.269011 0.204373 1.348 131 113 93
-0.336306 0.270558 1.419 132 114 103
0.0292655 0.0234825 1.096 115 99 94
0.332881 -0.297891 0.807 121 112 103
0.106933 -0.00636371 1.02 116 100 93
0.110708 0.18089 1.009 98 79 62
0.169402 -0.105972 0.96 133 117 112
0.0888574 0.379208 1.083 128 114 97
0.344307 -0.255942 0.791 108 101 93
-0.0220289 -0.0414645 1.167 140 118 110
-0.128081 0.301036 1.257 131 113 104
-0.652078 0.285798 1.686 126 109 95
0.294903 0.181087 0.882 186 175 152
0.0762916 -0.34324 1.01 140 124 117
-0.179602 0.210111 1.289 111 92 75
-0.106176 0.186492 1.217 111 93 73
0.0491948 -0.12611 1.064 128 109 105
0.250728 0.144237 0.506 27 82 101
0.0773402 0.252769 1.07 104 87 71
0.26102 0.0461023 0.909 102 91 82
-0.372133 0.0919011 1.406 103 80 61
-0.6865 -0.260008 1.65 144 125 108
-0.865763 -0.330735 1.696 61 27 3
-0.1096 -0.324985 1.169 139 126 115
0.238904 0.131898 0.963 136 121 109
-0.633534 -0.11564 1.659 135 121 106
-0.881594 0.395704 1.826 16 14 2
0.19423 0.322805 0.991 134 115 100
0.0753096 -0.381005 0.997 169 152 138
0.248181 -0.0847032 0.9 106 95 90
-0.454266 0.294762 1.52 129 112 96
0.129778 0.224882 1.03 107 86 69
0.175287 0.163952 0.958 196 179 165
0.254775 0.155856 0.501 25 34 44
-0.323342 -0.0336264 1.393 122 108 100
-0.0961151 -0.233273 1.167 176 157 144
-0.023744 -0.274816 1.158 162 137 128
-0.0208396 -0.39854 1.104 171 147 135
0.166796 -0.131378 0.963 110 100 88
0.0579161 0.280826 1.098 133 114 101
-0.373047 0.223782 1.445 136 115 100
-0.30787 -0.482826 1.308 163 148 136
0.271667 0.30866 0.92 124 115 94
0.249803 0.0480025 0.516 18 19 15
0.103998 -0.285465 0.992 126 112 108
-0.445761 -0.361128 1.452 171 149 141
0.25508 0.16775 0.5 20 36 46
-0.0332835 0.232902 1.162 108 89 74
-0.311584 -0.314178 1.333 140 124 119
0.0413349 0.0232468 1.085 113 98 88
-0.198024 0.0631301 1.286 176 156 136
-0.400832 -0.247145 1.435 133 117 110
-0.250828 0.0198835 1.333 123 110 97
0.0588982 -0.325697 1.022 166 146 138
-0.220911 0.17303 1.31 113 93 73
0.0940645 0.0664769 1.043 166 146 136
-0.870375 0.0684236 1.815 59 51 39
0.31306 0.131617 0.897 127 117 103
0.0864511 0.33967 1.075 131 117 102
0.244718 -0.309113 0.872 159 144 134
-0.0424468 -0.230674 1.154 180 160 150
0.246921 0.0556675 0.517 15 22 14
-0.0371623 0.218336 1.165 108 90 70
-0.571013 -0.311275 1.583 150 134 131
-0.229629 -0.122255 1.299 179 160 147
0.261947 0.0325366 0.902 162 149 136
0.0360364 -0.0526762 1.085 114 100 94
0.270659 -0.00411355 0.892 96 87 80
-0.18012 0.46012 1.308 129 113 92
-0.942926 0.662127 1.865 41 17 1
-0.91036 -0.0193393 1.739 45 13 9
0.271541 -0.160607 0.867 171 153 144
0.261141 0.135871 0.947 130 117 104
-0.769304 0.214427 1.753 121 107 90
0.251531 -0.201614 0.886 115 101 95
0.241356 0.162241 0.948 83 71 55
-0.484267 -0.0507875 1.498 135 122 109
0.2938 0.0261035 0.883 99 89 75
-0.649334 0.274823 1.686 123 111 93
-0.189805 -0.00794216 1.273 119 105 97
-0.853745 -0.661732 1.739 126 107 94
0.28796 0.05855 0.874 95 86 77
0.23956 0.34854 0.947 128 119 98
0.218631 -0.306385 0.893 180 167 154
0.039897 0.217492 1.094 107 86 69
0.146118 0.137322 1.027 172 153 128
0.352584 -0.162021 0.804 107 100 92
0.148546 -0.152366 0.977 110 99 90
0.142836 -0.305939 0.96 159 139 129
0.247877 0.0280116 0.519 24 26 17
-0.433302 -0.375067 1.442 154 141 130
0.293022 -0.288126 0.828 166 148 139
0.0146372 -0.389749 1.07 144 126 115
-0.282748 -0.429083 1.281 148 133 132
0.204878 -0.239744 0.916 173 154 150
0.288389 0.215681 0.871 85 76 57
-0.297619 0.342118 1.4 131 112 95
0.179247 -0.303945 0.93 165 145 137
-0.869106 0.107762 1.831 75 62 49
-0.248168 0.328673 1.354 132 115 99
-0.552609 0.346705 1.612 125 108 92
-0.159862 -0.317001 1.189 140 124 117
-0.371423 -0.15357 1.412 154 136 125
-0.958283 0.561038 1.842 33 13 3
0.0640581 0.111118 1.081 176 152 136
0.322473 0.105606 0.875 144 131 120
0.169914 0.0721037 0.981 136 121 109
-0.733247 0.030818 1.696 123 107 86
-0.343964 -0.47796 1.324 184 168 161
0.0135703 0.0259577 1.126 117 98 94
-0.10548 0.256956 1.232 139 118 105
0.211547 0.111318 0.989 136 121 109
-0.886147 0.115044 1.805 22 16 3
0.364697 -0.21951 0.785 152 143 126
-0.0665774 0.123718 1.149 198 179 164
-0.583097 -0.504481 1.567 163 146 128
-0.280055 0.0224829 1.359 121 108 95
-0.1456 0.299307 1.267 134 113 100
-0.843926 -0.620553 1.719 114 103 78
0.149025 0.363549 1.024 130 113 95
-0.764602 -0.537305 1.686 143 131 113
-0.0232724 -0.2121 1.135 166 143 138
-0.600552 0.26627 1.65 131 110 93
0.353646 -0.30293 0.786 112 110 100
-0.634256 0.20403 1.668 128 111 93
0.0877907 0.0856102 1.07 137 119 108
-0.75158 0.0253578 1.7 121 107 90
-0.110591 0.193224 1.222 111 91 69
0.277805 0.0724119 0.887 98 88 76
0.363986 -0.15001 0.789 150 143 122
-0.398947 0.185851 1.48 126 106 84
0.220267 0.229782 0.603 222 223 217
-0.42626 -0.095821 1.442 155 140 128
0.133593 -0.14385 0.984 114 98 91
-0.12042 0.105864 1.201 196 177 162
-0.0642031 0.429584 1.21 126 112 95
-0.68193 -0.590087 1.62 161 142 125
0.194444 -0.0243497 0.945 104 93 86
-0.855427 -0.601318 1.629 49 24 17
0.0135462 0.0185951 1.124 117 99 90
0.199131 -0.266867 0.917 120 104 97
-0.718738 0.34751 1.748 119 102 86
0.107965 -0.336005 0.984 144 131 118
0.326941 -0.110798 0.832 102 93 86
-0.222204 -0.279901 1.257 136 117 111
-0.351264 -0.25751 1.378 134 118 111
-0.061032 -0.337493 1.116 161 141 133
-0.178685 -0.231535 1.239 140 121 117
0.240535 -0.236751 0.888 183 170 157
0.299577 0.194537 0.835 199 192 175
-0.218407 -0.40146 1.247 149 134 124
0.110791 -0.206988 0.995 118 107 98
0.230929 0.131143 0.969 135 123 107
0.115266 -0.333956 0.978 147 134 123
0.223628 -0.0740649 0.932 103 94 85
0.226658 -0.23451 0.896 169 150 144
-0.30412 0.367246 1.409 130 113 97
-0.0342001 0.0236392 1.194 147 125 115
0.193272 0.216518 0.97 96 81 55
-0.463053 -0.261589 1.477 133 120 107
-0.310696 -0.461542 1.302 177 162 152
0.205773 -0.25726 0.92 120 106 98
-0.932295 0.702011 1.899 38 12 0
-0.684405 0.114219 1.705 102 86 63
-0.8863 -0.0252004 1.753 51 19 0
0.191005 -0.280021 0.921 120 109 100
-0.125025 0.170054 1.227 110 89 72
0.112127 -0.147213 1.007 113 99 91
0.287882 -0.174908 0.861 108 100 88
0.133002 0.224664 1.029 108 87 72
0.321894 -0.0831154 0.826 167 153 138
-0.17613 0.509855 1.31 125 106 91
-0.929475 0.571673 1.887 31 17 2
-0.314257 -0.476441 1.308 180 166 160
-0.140035 -0.375715 1.185 195 176 163
-0.630097 -0.139179 1.65 140 123 109
0.288997 -0.151605 0.856 145 129 122
0.0147329 -0.220541 1.077 129 114 104
0.23909 -0.236751 0.888 184 171 158
0.195473 0.0497277 0.95 102 91 82
-0.853636 -0.615629 1.646 73 49 37
-0.210527 -0.12188 1.273 167 146 133
-0.115068 0.44343 1.249 127 113 96
0.105012 0.406978 1.068 126 114 96
0.304381 -0.198637 0.837 110 100 88
-0.176402 0.254669 1.281 136 117 102
0.250411 0.0237887 0.519 23 22 24
-0.726179 -0.158677 1.686 140 121 108
-0.175055 0.434702 1.302 127 109 89
0.180974 0.111705 1.007 138 120 109
0.14568 -0.32217 0.948 188 168 158
-0.654946 -0.518968 1.612 160 151 134
0.366839 -0.125749 0.798 102 91 82
-0.518406 -0.504207 1.498 167 151 144
-0.302844 -0.0927214 1.362 126 107 101
0.209809 -0.208896 0.918 115 101 95
0.129125 -0.0826407 0.999 111 97 91
0.343457 -0.20886 0.798 150 137 124
0.238967 0.0608329 0.518 31 32 21
-0.889462 0.0260738 1.748 44 19 0
-0.00464887 0.134552 1.1 200 179 164
0.250089 -0.249194 0.886 117 107 95
0.372531 -0.251114 0.78 109 103 88
-0.258625 -0.485481 1.265 151 137 129
-0.716555 0.0989453 1.729 97 81 49
-0.502742 0.460377 1.579 122 105 91
-0.0105672 0.360865 1.16 132 115 101
0.149808 0.102986 1.018 140 123 107
-0.136008 -0.432678 1.167 185 168 154
0.0886933 0.41545 1.081 123 109 94
-0.486234 0.257704 1.535 133 115 93
0.25513 -0.332991 0.864 116 107 102
0.219839 -0.30459 0.892 174 159 149
-0.200871 -0.251698 1.239 172 150 140
0.0817868 -0.241354 1.017 125 111 105
0.097922 -0.0768243 1.03 115 100 90
-0.485406 0.0709096 1.494 95 77 57
-0.699178 0.12319 1.714 98 85 63
-0.759804 0.538019 1.805 108 97 72
-0.165896 -0.0565732 1.249 130 112 103
0.12041 -0.291878 0.981 124 114 102
-0.380194 -0.188969 1.419 130 112 101
0.183657 -0.0419645 0.961 172 147 138
-0.546149 0.565994 1.624 114 107 88
-0.286269 -0.22267 1.357 133 117 110
0.159868 0.0790494 0.988 169 149 139
0.344743 -0.280754 0.792 174 163 158
0.247763 0.0539848 0.517 18 22 17
-0.229629 -0.177216 1.299 130 114 109
-0.465761 0.523179 1.567 119 105 88
0.266351 0.0428116 0.902 122 107 106
0.226197 0.134297 0.969 138 123 111
-0.281672 -0.371288 1.305 146 127 121
0.149025 0.143586 1.024 103 77 77
0.240081 0.232024 0.937 100 88 70
0.332952 -0.275849 0.804 154 144 130
-0.0840966 0.366163 1.242 128 114 99
-0.119897 0.431951 1.257 128 115 93
0.0942932 -0.163506 1.027 115 99 92
0.00776337 -0.168897 1.083 125 106 100
-0.706608 0.164162 1.705 133 111 101
-0.513864 -0.240783 1.528 169 151 140
-0.467134 -0.535749 1.445 151 138 125
0.101535 0.108044 1.068 142 125 111
0.221244 -0.344354 0.886 122 112 110
-0.586697 -0.54389 1.563 174 160 145
0.275537 0.0711284 0.889 98 88 76
0.144024 0.343552 1.024 133 119 104
0.355505 -0.143028 0.793 165 147 136
0.0310361 -0.30487 1.036 133 114 110
0.38424 -0.13779 0.778 151 138 127
0.268094 0.0323923 0.898 155 142 131
0.316887 -0.214618 0.82 149 135 131
-0.43942 0.317024 1.52 129 112 94
0.303654 0.198613 0.835 185 176 157
0.149461 0.391354 1.027 127 113 96
-0.535997 -0.342151 1.571 144 129 119
-0.023785 -0.00157405 1.16 137 117 109
-0.760559 -0.144577 1.714 133 114 99
0.214928 0.199462 0.519 20 24 17
0.192089 -0.151346 0.941 112 98 90
0.214986 -0.00734709 0.934 101 92 83
-0.248168 0.33969 1.354 133 114 99
-0.758784 -0.199894 1.71 138 121 105
0.259207 0.0577413 0.513 28 32 27
0.0595867 0.182093 1.064 118 93 73
0.146204 -0.183222 0.972 180 162 151
-0.597867 -0.0854768 1.65 131 117 98
0.239687 -0.00414552 0.527 128 116 114
-0.12103 0.0901847 1.227 138 112 112
0.295237 0.0332882 0.883 126 116 102
-0.225938 0.227103 1.327 141 120 107
0.266476 0.344568 0.928 127 114 101
0.253654 0.0405236 0.517 25 33 22
-0.301065 -0.0635326 1.354 159 140 134
-0.408326 0.436901 1.524 129 110 95
-0.0959991 -0.358678 1.143 184 164 156
-0.414968 0.226334 1.477 132 113 98
0.136981 -0.0354243 0.997 107 93 85
-0.919798 0.33531 1.837 39 15 0
0.0493363 0.432257 1.106 123 109 94
-0.119217 -0.264759 1.189 135 116 112
-0.113225 0.238331 1.229 137 120 104
0.100275 -0.0942218 1.037 109 95 87
0.383073 -0.159673 0.786 104 98 83
0.13222 0.356008 1.036 128 116 96
0.148609 -0.326453 0.947 156 144 128
0.139716 0.0689613 1.005 142 125 111
0.236285 0.183321 0.514 23 47 45
0.240969 0.181181 0.508 30 56 74
-0.621033 0.0290554 1.599 182 164 153
0.132642 -0.282738 0.977 123 112 105
-0.093166 -0.380909 1.154 145 130 120
0.21308 0.0567922 0.939 105 91 83
0.160114 -0.268084 0.97 126 113 102
0.0773082 -0.0286543 1.046 113 97 90
-0.0103759 0.0466462 1.139 162 142 132
0.14093 0.202463 1.002 95 76 61
0.275063 -0.268616 0.856 113 99 91
-0.510181 -0.346994 1.547 142 127 117
-0.340091 0.0369885 1.406 174 150 136
-0.289541 0.035831 1.362 136 121 111
-0.0626113 0.226908 1.18 111 90 73
0.251513 0.172162 0.501 73 148 199
-0.169083 0.205432 1.273 111 90 73
-0.190223 0.515504 1.319 124 106 86
-0.831038 -0.258609 1.769 114 105 86
-0.354593 0.105179 1.4 113 95 75
-0.208965 0.0596779 1.302 177 153 137
-0.304158 0.0205547 1.378 123 113 101
-0.0144055 -0.111539 1.165 131 113 104
-0.287929 0.0865413 1.324 200 181 164
0.0380465 0.227757 1.092 108 88 68
0.234621 -0.248257 0.893 123 112 103
0.0753159 0.210191 1.066 108 87 70
-0.938465 0.43907 1.821 33 16 0
-0.376076 0.593144 1.524 122 105 89
0.249085 0.0338583 0.518 20 21 17
-0.208593 0.286671 1.313 132 115 99
-0.502532 0.138161 1.539 105 86 71
-0.874933 0.539532 1.882 68 59 50
0.208172 -0.193721 0.924 114 104 92
0.305347 0.180471 0.879 181 167 148
-0.862264 -0.112109 1.774 44 39 21
0.377422 -0.257735 0.777 109 100 95
0.34173 -0.21638 0.797 185 172 159
0.278714 0.281226 0.904 97 92 72
-0.634256 0.201315 1.668 129 111 91
0.134405 0.000270926 1.002 123 110 99
-0.0278757 -0.335623 1.098 170 148 140
0.171732 0.179021 0.947 117 100 86
0.131449 -0.0949761 0.992 109 96 85
-0.486253 0.384065 1.551 126 108 88
-0.402855 -0.519878 1.378 149 138 131
-0.0973506 -0.203572 1.182 128 113 103
0.244289 0.099032 0.515 29 34 22
0.254086 -0.108992 0.895 112 103 94
0.249597 0.144031 0.95 166 150 129
0.11892 -0.0391346 1.009 111 92 86
0.0511367 0.340466 1.106 133 116 98
-0.283797 -0.371288 1.305 144 128 121
-0.384027 -0.521556 1.359 156 142 134
0.211994 -0.119653 0.921 111 100 91
0.153107 0.226416 1.007 108 89 74
0.20238 -0.0578125 0.939 108 95 84
-0.284884 -0.338602 1.31 175 158 144
0.00819347 0.351856 1.143 131 114 98
-0.886617 -0.192958 1.748 53 17 0
0.139945 -0.0434492 0.995 114 98 95
-0.509828 -0.416518 1.516 151 133 122
0.00255004 -0.119561 1.116 121 107 101
0.124625 0.371992 1.043 132 115 101
0.369358 -0.233409 0.776 108 101 93
-0.559808 0.577103 1.633 121 105 84
0.139716 0.00844906 1.005 158 141 127
-0.535567 0.547428 1.616 119 106 84
-0.0701754 -0.00543247 1.178 124 105 101
-0.310241 0.36907 1.416 127 113 94
-0.715521 -0.341593 1.655 151 128 109
0.235728 0.284452 0.944 100 90 76
0.151692 -0.337241 0.947 127 114 101
0.202172 -0.155798 0.931 113 99 93
0.105506 -0.302916 0.991 128 113 101
0.250728 0.154941 0.506 24 82 114
0.215438 0.191488 0.904 99 79 69
-0.878081 -0.210026 1.748 45 17 0
0.191681 -0.102126 0.939 140 125 115
-0.8041 -0.195803 1.748 129 112 94
0.212626 -0.00127146 0.937 102 92 80
-0.264386 0.496821 1.393 125 106 91
0.227354 0.102721 0.954 138 119 117
0.0245678 0.286154 1.126 133 114 97
-0.584437 0.416635 1.65 121 104 86
0.267624 -0.101668 0.882 159 150 133
-0.113725 0.00624983 1.213 123 108 98
0.175835 -0.0920081 0.961 109 95 91
0.0753159 0.0401871 1.066 112 96 91
-0.670656 0.00586567 1.664 174 158 137
0.136288 -0.297769 0.969 124 108 103
-0.231299 0.369129 1.333 132 113 98
0.25457 0.173911 0.499 113 191 248
-0.291332 0.198139 1.381 114 97 81
0.235927 0.343822 0.951 128 114 97
-0.85336 -0.55295 1.744 95 86 65
-0.308813 -0.242902 1.359 134 113 108
-0.731085 -0.170155 1.691 140 119 106
0.170204 0.244029 0.992 107 90 76
-0.173494 -0.318776 1.203 141 128 117
0.252063 0.0649771 0.925 94 87 77
0.22126 0.109724 0.518 91 78 67
0.0024952 -0.383546 1.092 142 127 117
0.0807135 -0.101848 1.046 112 98 90
-0.0816807 -0.187547 1.178 129 113 106
0.122205 -0.078542 1.009 111 97 91
0.159192 0.163439 0.955 194 176 165
0.222352 0.341385 0.966 127 115 97
-0.224786 -0.278518 1.26 136 117 111
0.107984 -0.199691 0.999 127 113 105
0.281818 -0.00120225 0.886 94 90 81
0.0478197 0.000289853 1.072 171 149 139
0.178877 -0.0296987 0.969 109 95 87
0.247707 0.305215 0.937 127 114 92
0.302949 0.185827 0.864 187 178 157
0.233064 0.145971 0.518 16 24 11
-0.266066 -0.374883 1.281 158 138 128
-0.239737 0.123809 1.308 121 98 77
-0.132888 -0.307009 1.173 164 144 136
0.106724 -0.0245741 1.018 109 95 87
-0.438866 -0.520279 1.422 148 138 124
0.199349 -0.234292 0.918 159 140 134
0.034744 0.0360987 1.1 116 97 91
-0.90731 0.357205 1.842 26 14 0
0.217634 0.314661 0.966 127 118 99
-0.315176 0.0387458 1.387 170 150 130
0.269157 -0.144671 0.873 109 96 85
-0.0220666 -0.165188 1.169 160 138 128
0.0062387 0.21286 1.126 106 87 70
0.132603 0.392545 1.039 129 116 94
-0.422619 0.313102 1.513 130 113 95
0.0701709 0.377719 1.094 128 114 95
-0.466403 -0.380134 1.48 165 150 138
0.0307379 0.000293368 1.085 134 111 108
0.235204 0.0634841 0.519 34 32 20
-0.157877 -0.146259 1.234 127 107 99
-0.771173 -0.198149 1.719 133 116 102
0.107143 -0.0396388 1.022 107 91 84
0.017328 0.300574 1.132 132 115 99
0.215907 0.0475731 0.938 100 91 84
-0.378999 -0.0613965 1.406 128 112 107
-0.0028323 0.140424 1.09 195 169 158
0.270789 0.262937 0.912 102 94 68
0.0473454 -0.303005 1.024 130 114 109
0.25548 0.121522 0.504 28 56 87
-0.173532 -0.417548 1.217 147 132 122
-0.715521 -0.328126 1.655 146 126 116
0.213384 0.224285 0.626 124 119 101
0.0146645 -0.24394 1.072 129 110 106
-0.0627174 -0.00160391 1.182 128 109 105
-0.351619 -0.343177 1.362 181 163 152
0.373922 -0.0744447 0.791 161 151 139
-0.52212 0.481616 1.607 122 103 88
-0.0370666 -0.2058 1.162 151 131 123
-0.399994 -0.176718 1.432 131 113 102
-0.673304 0.366708 1.705 120 102 80
-0.81961 -0.128627 1.763 120 105 93
-0.404145 -0.270361 1.422 139 121 112
0.252552 0.329963 0.938 126 117 98
-0.536978 0.124735 1.559 105 88 63
0.280525 -0.0779001 0.873 106 92 84
-0.425635 -0.379457 1.432 146 133 122
-0.909927 0.618197 1.917 30 26 19
0.146956 -0.196883 0.977 119 108 99
-0.00482214 0.252831 1.141 126 109 95
0.119919 -0.359053 0.977 130 117 104
0.136158 -0.331458 0.957 137 127 113
-0.846781 -0.3807 1.748 89 74 64
0.102899 -0.275546 0.997 130 114 107
0.036618 -0.23232 1.051 125 111 105
0.210266 -0.201865 0.92 114 100 92
-0.626759 0.434369 1.677 116 102 85
0.0919979 -0.250839 1.002 162 141 136
-0.738855 -0.453107 1.659 145 131 114
-0.0217835 0.225664 1.154 108 87 70
0.0250408 -0.159606 1.068 121 105 98
-0.27346 0.106173 1.327 106 82 66
-0.562657 -0.512998 1.539 162 146 143
-0.824103 0.683469 1.899 103 93 79
-0.0756058 0.166388 1.173 107 87 65
0.217657 -0.240217 0.901 186 171 159
-0.745482 0.136698 1.744 126 106 86
-0.736012 0.377594 1.769 114 101 88
-0.0308247 -0.302347 1.141 168 149 132
0.0328336 -0.115635 1.096 116 100 93
0.375479 -0.227475 0.773 101 103 90
0.145095 0.034341 0.997 106 93 82
-0.17351 0.0639042 1.26 174 156 136
0.17078 0.228112 0.986 105 88 70
0.170341 0.132022 1.012 172 151 134
0.188531 0.0111252 0.954 128 115 104
0.245013 -0.0456609 0.91 106 93 82
-0.102226 -0.0812844 1.194 129 110 104
0.183122 0.287615 0.992 116 104 88
0.141026 -0.216625 0.98 118 104 98
-0.377575 -0.434305 1.384 151 136 126
0.230311 0.239123 0.947 102 88 71
0.0299597 0.27966 1.122 132 115 99
0.16436 -0.00454704 0.986 104 94 82
-0.561254 0.0309448 1.563 187 168 151
0.272111 -0.0360482 0.892 151 134 120
-0.0959916 -0.0364415 1.189 159 138 125
0.00804294 0.0550793 1.122 177 155 147
0.0266117 0.402957 1.135 126 112 93
-0.489789 0.48337 1.587 120 105 93
-0.204078 -0.39125 1.234 181 163 154
0.216506 -0.030146 0.934 111 97 93
0.276669 -0.200129 0.861 110 101 94
0.316027 -0.0371174 0.85 97 90 82
-0.531903 0.16279 1.559 132 112 90
-0.34642 -0.366748 1.359 143 130 119
-0.151057 0.0124827 1.244 144 127 111
0.227234 0.0504522 0.524 87 85 73
0.38254 -0.199438 0.762 148 134 126
0.238858 -0.137123 0.898 106 96 82
0.256073 -0.290666 0.872 155 141 135
-0.210527 -0.123951 1.273 154 133 120
-0.851178 -0.214697 1.763 77 67 55
0.252533 0.00674045 0.578 91 87 76
0.392587 -0.179442 0.772 99 96 82
-0.313595 0.265028 1.39 133 113 105
0.0606848 -0.0871077 1.053 117 102 92
0.0310661 -0.289976 1.037 133 114 110
0.307111 -0.0610603 0.856 99 92 82
0.150018 -0.183663 0.966 183 163 153
0.0912154 0.184655 1.03 116 98 78
0.293889 -0.165758 0.85 141 129 113
0.253335 0.15566 0.503 23 32 44
0.274603 0.275646 0.905 101 93 79
-0.187995 0.298212 1.289 135 114 99
-0.568353 -0.0310432 1.612 134 115 100
-0.233695 0.0175681 1.322 145 124 123
-0.200953 -0.193069 1.278 137 119 110
0.142594 -0.363823 0.948 135 120 108
0.236569 0.19223 0.511 24 48 50
-0.885966 0.00619703 1.758 50 16 0
0.240139 -0.0339626 0.914 172 155 141
0.3205 -0.202361 0.819 110 99 92
-0.863403 -0.49615 1.686 65 25 0
-0.209928 -0.0230603 1.308 122 104 95
0.307363 -0.0909562 0.849 175 158 144
-0.371452 -0.374118 1.378 142 131 124
0.121634 -0.252788 0.978 169 149 141
-0.898911 0.277602 1.831 22 13 0
-0.420688 -0.21505 1.439 147 128 122
-0.0975948 -0.315475 1.162 144 123 120
-0.313688 -0.139405 1.342 167 149 138
0.0134498 0.185544 1.116 103 89 70
-0.355655 -0.275879 1.369 181 161 153
-0.0778456 -0.0150174 1.178 130 111 105
0.202389 -0.111982 0.932 164 149 137
-0.0122514 -0.265211 1.141 149 126 121
0.26481 0.291239 0.917 100 93 72
0.0188997 0.209153 1.116 110 90 70
-0.273348 0.391411 1.381 129 112 94
-0.619744 0.0135858 1.616 177 159 137
-0.0180577 -0.0373113 1.156 130 110 100
-0.103168 0.210145 1.205 111 92 75
-0.447906 0.556329 1.567 118 106 90
-0.909343 0.68171 1.929 63 55 31
0.245726 0.367033 0.947 127 115 99
-0.531698 -0.410991 1.551 153 135 126
0.114837 -0.277882 0.988 125 114 107
0.231426 0.143685 0.958 169 149 129
0.32529 -0.311245 0.811 116 109 99
0.237511 -0.0939063 0.904 129 114 113
-0.121458 0.37726 1.252 130 113 97
0.248647 -0.161244 0.886 155 135 127
-0.171828 0.274869 1.278 134 115 102
0.0426756 -0.354075 1.032 135 120 110
0.24212 0.151921 0.951 168 150 130
0.325691 -0.249523 0.812 114 108 95
0.346252 -0.1092 0.82 100 91 82
0.0386039 0.261746 1.108 124 110 93
0.190919 0.130326 0.999 160 143 125
-0.293949 -0.324493 1.322 165 145 137
-0.903529 -0.17485 1.71 52 20 0
0.239632 -0.0107348 0.514 57 49 46
0.270049 -0.318921 0.849 119 108 99
0.238884 0.136171 0.516 26 34 35
-0.0226367 0.15121 1.104 100 79 64
-0.676034 0.476019 1.719 112 103 86
0.190329 -0.32188 0.925 161 151 137
-0.703563 0.681726 1.789 108 100 86
-0.285927 -0.281986 1.345 140 119 116
-0.636157 0.357103 1.673 121 108 86
-0.222696 -0.468696 1.237 154 140 132
-0.44126 -0.319412 1.445 140 127 116
-0.52309 -0.0886004 1.563 127 112 102
0.381483 -0.057492 0.788 94 89 71
-0.55442 -0.476614 1.551 160 142 133
-0.817876 -0.45253 1.729 126 112 93
-0.244712 -0.459909 1.257 193 178 166
0.341329 -0.132046 0.821 100 93 87
0.178261 0.07545 0.983 138 123 111
-0.130629 -0.260478 1.205 136 117 111
-0.54783 0.618104 1.629 114 100 83
0.0608581 -0.275481 1.027 144 125 121
-0.295728 0.0869335 1.33 195 174 159
-0.0578605 -0.0641712 1.201 133 115 106
0.24213 0.358569 0.945 126 114 96
0.241356 0.34428 0.948 127 115 99
0.382766 -0.113915 0.788 92 88 77
-0.262059 0.521678 1.369 121 107 90
0.254525 0.0991438 0.507 45 61 71
-0.515539 0.396687 1.571 119 105 88
0.302263 0.158285 0.891 166 150 129
0.150722 0.288759 1.013 132 114 94
0.348132 -0.269077 0.788 148 137 128
0.0451567 0.215317 1.092 107 86 69
-0.557857 0.459505 1.612 120 108 81
0.144446 0.356257 1.027 128 117 94
0.0893976 0.0497411 1.048 112 98 90
-0.0320134 -0.0729582 1.185 148 123 114
0.373051 -0.270996 0.768 151 140 133
0.122116 0.0368652 1.022 107 92 82
0.215156 0.227157 0.955 102 88 69
0.00777771 -0.222179 1.085 135 116 110
0.104527 0.197872 1.029 104 85 70
-0.312546 0.366766 1.416 127 113 96
0.270716 0.0411145 0.897 153 139 133
0.244869 0.0304865 0.518 29 30 26
0.171988 0.108966 1.012 139 122 108
0.112107 0.10824 1.053 144 125 112
-0.131642 -0.44217 1.162 190 173 159
-0.0417987 0.425998 1.189 122 110 94
-0.66339 -0.00227017 1.673 143 121 95
0.24213 0.164803 0.945 119 112 95
0.157139 -0.074766 0.981 107 96 87
0.132348 0.352976 1.037 130 116 97
-0.591201 0.0439976 1.575 113 91 65
0.122456 0.110183 1.039 143 126 112
-0.0953739 -0.291776 1.158 180 160 152
0.266382 -0.226134 0.864 162 142 134
0.143461 0.259216 1.02 104 87 69
-0.22689 -0.424462 1.249 151 134 120
0.245345 -0.143947 0.895 104 95 86
0.10689 -0.184352 1.004 161 138 133
0.231378 0.129955 0.518 23 24 20
-0.169004 0.00852208 1.257 140 123 109
-0.0460823 -0.336268 1.106 165 145 137
0.0524608 0.169334 1.06 97 79 59
-0.107802 0.0575725 1.213 138 120 111
-0.0993151 -0.286617 1.16 174 149 142
-0.669553 -0.110839 1.668 141 127 108
-0.294043 -0.46713 1.294 188 173 161
0.303918 -0.251607 0.832 115 107 93
-0.842422 -0.531556 1.739 82 69 58
-0.00489399 0.428083 1.158 127 113 94
-0.917426 0.190475 1.769 39 16 0
-0.427734 0.294302 1.505 130 112 92
-0.136406 0.114288 1.187 195 171 157
-0.90113 0.580227 1.905 39 34 16
0.135629 -0.0436238 0.999 115 99 96
-0.304338 -0.446711 1.302 163 145 134
0.199382 0.273062 0.969 107 90 74
-0.100028 0.395522 1.239 127 113 96
-0.244319 0.0567604 1.333 176 155 138
-0.138683 0.20245 1.242 111 90 75
-0.0307707 -0.277721 1.139 169 144 135
-0.0100388 -0.275873 1.102 169 147 139
0.275096 0.0571714 0.897 97 87 75
0.257066 0.0509292 0.916 98 89 80
0.234611 0.186667 0.514 23 45 57
-0.499957 -0.229024 1.516 138 120 111
-0.362229 -0.0248939 1.412 143 125 116
-0.0103121 0.0868865 1.132 151 127 115
-0.120621 0.145193 1.203 119 98 81
0.107228 -0.269322 0.992 134 118 113
0.302447 -0.149302 0.843 144 129 117
-0.477326 0.0631901 1.484 120 93 87
-0.0568488 0.249951 1.18 139 118 105
-0.370012 -0.338975 1.381 165 145 135
0.0309362 -0.0636783 1.092 123 107 104
-0.00649799 -0.220073 1.11 174 152 142
-0.557857 0.375561 1.612 122 106 85
0.285008 0.170546 0.91 90 72 63
0.334118 -0.225182 0.81 153 144 135
0.148077 0.402163 1.029 123 114 95
0.243084 0.137011 0.516 19 41 42
0.332056 -0.252612 0.805 107 103 94
0.0896998 0.296854 1.072 134 115 102
-0.675111 0.0193001 1.655 182 165 149
-0.4324 -0.334478 1.439 137 122 112
-0.575044 -0.46385 1.559 176 164 148
-0.0273714 -0.00718725 1.152 146 123 118
-0.912775 0.526251 1.923 38 36 17
0.284242 0.203403 0.867 108 90 79
-0.140705 0.194365 1.242 110 91 74
-0.432833 -0.417024 1.425 171 153 144
0.000720261 -0.388518 1.096 143 128 118
0.367831 -0.0625066 0.803 96 88 74
-0.163903 -0.160316 1.234 131 110 105
0.217391 0.0953569 0.958 169 150 137
-0.346017 -0.187773 1.393 129 111 102
0.022957 0.416619 1.137 129 113 92
0.188498 0.235811 0.978 105 89 68
0.129221 0.363802 1.039 126 117 98
-0.162206 -0.447766 1.192 192 179 168
-0.695377 -0.461951 1.633 152 133 120
0.354773 -0.0929076 0.806 97 93 82
0.329755 -0.31311 0.809 115 109 94
0.273866 -0.236558 0.861 162 154 140
0.12667 0.232037 1.032 105 86 69
0.264224 -0.289849 0.857 155 141 135
0.260815 0.0994909 0.924 163 148 136
0.0423635 0.432793 1.112 127 113 96
-0.857706 -0.434329 1.691 62 23 3
0.0630476 0.279803 1.094 135 118 102
-0.340116 0.465986 1.445 128 112 91
0.206084 -0.0134412 0.935 100 91 82
0.287478 -0.0574129 0.864 98 89 82
-0.244319 -0.236086 1.333 131 112 108
0.169518 0.235006 0.988 103 85 65
0.0244546 -0.345968 1.043 177 156 151
-0.949288 0.591013 1.842 32 13 0
0.247929 0.184759 0.502 71 153 181
0.320019 0.12053 0.88 127 111 106
-0.852136 0.357477 1.859 105 88 74
-0.0397246 -0.389537 1.13 165 145 137
0.271315 -0.120054 0.88 104 93 84
-0.737684 0.269313 1.739 122 111 88
0.0300297 -0.16186 1.06 120 104 97
-0.390525 -0.406782 1.39 168 148 140
-0.0679681 -0.0340423 1.173 154 133 120
-0.206558 -0.296412 1.249 139 119 111
-0.893105 -0.0364232 1.744 54 18 0
-0.507663 -0.117903 1.547 138 124 109
-0.897714 0.125993 1.753 46 18 0
-0.952286 0.701922 1.842 34 17 0
0.0768958 -0.271411 1.018 165 145 137
-0.102338 0.137755 1.173 99 80 65
-0.15222 -0.0197956 1.237 121 105 98
-0.878722 0.708665 1.917 85 66 39
0.303968 0.215893 0.855 86 77 58
0.240535 -0.186174 0.888 117 98 92
-0.578126 0.625277 1.655 114 102 82
0.14318 0.290184 1.018 133 119 100
0.339135 -0.251399 0.797 111 104 83
-0.126504 0.000330411 1.222 122 107 97
0.0951196 -0.00477762 1.036 140 119 106
-0.305862 -0.347315 1.327 154 139 129
-0.0517791 -0.0483338 1.196 149 128 115
-0.780724 -0.12369 1.734 132 113 96
-0.840434 -0.229508 1.789 113 108 90
-0.102338 -0.240199 1.173 144 126 117
0.23646 -0.135964 0.9 105 97 85
-0.312213 0.526785 1.425 125 109 88
-0.385531 0.459243 1.484 123 109 92
0.179523 -0.0248393 0.964 106 93 82
0.0402616 0.0847373 1.104 144 124 116
0.23068 -0.334101 0.878 120 109 100
-0.0847337 0.0508416 1.194 125 106 102
0.17907 -0.268113 0.937 124 109 99
0.343296 -0.0765152 0.813 142 127 115
-0.882145 0.08643 1.821 33 30 14
-0.10027 0.386374 1.242 132 113 96
0.263135 -0.29298 0.858 158 142 137
0.00634397 0.445636 1.145 123 109 94
-0.664123 -0.0484079 1.668 144 127 111
-0.120537 0.211122 1.222 110 91 74
-0.650299 -0.530434 1.607 158 145 134
0.135344 0.0872975 1.009 139 119 109
0.23989 0.0322966 0.52 38 31 23
0.104324 -0.0816144 1.027 113 98 88
0.0183408 0.150097 1.083 162 132 125
-0.61193 0.346015 1.659 120 107 83
-0.817876 -0.430021 1.729 127 113 98
-0.019905 0.233176 1.154 108 87 70
0.260033 -0.218045 0.871 137 123 117
0.197462 0.304202 0.983 131 117 98
0.279569 -0.239643 0.857 122 108 104
0.347343 -0.233949 0.795 110 105 87
0.150179 -0.233344 0.957 127 111 108
0.305553 -0.138492 0.844 106 92 86
0.291122 -0.200338 0.85 104 95 86
-0.728812 -0.0633547 1.705 138 119 102
-0.106507 0.346508 1.244 131 113 102
-0.171425 0.284598 1.275 138 118 98
0.136992 0.161935 0.974 198 179 166
-0.377514 -0.231203 1.409 137 118 112
0.321677 0.0921546 0.869 92 89 75
-0.114746 -0.0172938 1.203 124 108 101
0.211945 -0.0453452 0.934 157 140 126
0.254946 -0.290999 0.873 154 140 134
0.0462138 -0.257665 1.036 165 145 137
0.0848588 0.343807 1.077 131 115 108
-0.104314 0.380311 1.242 131 114 96
-0.257366 -0.117966 1.322 136 120 115
0.0226137 0.255468 1.12 121 107 90
0.0981481 0.178662 1.015 97 81 58
-0.0317941 0.144807 1.11 108 84 70
-0.477748 -0.147612 1.516 126 113 100
0.286734 -0.0561365 0.866 98 89 82
-0.275315 -0.284447 1.336 137 121 114
-0.0866169 -0.142116 1.167 128 112 107
0.108594 -0.0329217 1.02 108 94 88
-0.508001 0.553942 1.612 112 103 82
0.0945687 -0.0684436 1.03 147 129 120
0.25137 0.0969012 0.928 165 147 136
-0.117101 0.388552 1.249 131 112 95
0.0246987 0.363207 1.132 133 116 100
-0.0244781 -0.352467 1.106 182 160 152
-0.142185 -0.130703 1.22 129 108 103
0.27342 -0.14325 0.873 107 93 85
0.243924 0.0883082 0.516 17 26 19
0.260694 -0.245515 0.878 120 109 100
-0.770091 -0.361709 1.686 135 118 100
0.290409 -0.239213 0.836 118 107 98
0.0808217 -0.317009 1.005 168 146 136
0.0850035 0.024367 1.057 110 94 87
-0.699209 -0.445792 1.642 150 132 112
-0.611809 -0.180705 1.637 141 126 116
0.265929 -0.31532 0.858 119 110 105
0.199059 -0.0289632 0.945 103 92 83
0.119718 0.216502 1.03 104 87 69
-0.506425 0.536534 1.607 121 107 88
-0.0686634 0.0408165 1.185 175 155 147
-0.932419 0.408088 1.815 34 13 0
-0.924711 0.492169 1.865 37 13 0
0.275096 0.0513325 0.897 106 92 86
-0.173785 0.00855598 1.262 143 124 111
-0.845252 -0.395719 1.739 83 66 52
0.248434 0.298158 0.934 111 104 75
0.268883 -0.262387 0.863 115 106 97
-0.693863 -0.424416 1.642 152 133 120
0.323945 0.00443104 0.86 93 90 76
0.210843 -0.172666 0.916 181 161 151
0.239962 -0.00155779 0.522 70 63 57
0.216062 0.309945 0.966 132 115 99
-0.875837 0.00338552 1.784 20 17 3
-0.574982 0.592412 1.646 115 102 80
0.211075 0.371977 0.972 121 111 97
0.212001 0.15322 0.969 126 107 103
0.106795 -0.35988 0.988 130 116 101
-0.430999 0.585473 1.543 118 101 85
-0.219553 -0.450379 1.242 178 163 153
-0.160275 -0.11642 1.237 143 125 114
-0.851748 -0.581927 1.612 37 23 4
-0.460859 0.0721627 1.47 97 78 61
-0.266816 0.235084 1.348 138 114 98
-0.882836 0.501142 1.899 72 63 56
-0.197911 0.264589 1.299 139 118 101
-0.0962338 0.0235996 1.192 148 129 116
0.287338 0.161305 0.908 169 153 130
0.234298 0.111195 0.517 16 20 13
-0.121153 0.133829 1.189 102 79 58
0.320798 -0.277614 0.813 156 142 125
0.279432 0.328187 0.916 125 116 99
-0.0339423 0.00996233 1.185 143 123 115
0.227193 0.0881465 0.52 50 41 44
-0.804819 0.187328 1.794 113 104 83
0.227923 -0.162507 0.901 152 134 125
0.249238 0.145634 0.508 29 84 103
-0.12597 -0.180983 1.198 130 114 109
0.174815 0.053598 0.964 102 91 82
0.0565378 0.385462 1.106 129 112 98
-0.496303 0.24147 1.543 132 114 92
0.0130039 -0.208659 1.079 184 164 154
-0.384986 0.584166 1.52 119 102 84
0.109298 0.384591 1.059 128 112 91
0.193621 -0.151346 0.941 113 99 91
-0.924886 0.236298 1.789 38 12 0
0.286259 -0.264588 0.852 116 106 92
0.240564 0.102583 0.516 22 24 15
-0.319298 -0.084102 1.366 135 117 106
-0.678782 -0.170146 1.664 148 127 110
0.219802 -0.344354 0.886 122 114 113
0.176661 -0.160149 0.957 110 100 88
0.00435101 -0.144467 1.112 182 160 152
0.312687 -0.236832 0.823 117 109 97
0.17602 -0.237617 0.937 162 139 134
-0.0202845 0.0271103 1.176 122 106 103
0.356969 -0.105752 0.814 102 92 80
0.339481 -0.102903 0.823 101 94 86
-0.208004 -0.0539375 1.283 170 146 134
-0.663056 0.335184 1.686 119 102 84
-0.358786 0.367017 1.435 127 108 93
-0.193537 0.434411 1.327 129 112 94
-0.0700733 -0.223285 1.145 189 169 159
-0.338616 0.222065 1.419 136 115 100
0.125443 0.0651384 1.022 143 126 112
-0.0495711 0.156826 1.145 115 97 75
-0.223044 0.147448 1.31 112 88 72
0.24604 -0.250919 0.887 119 108 99
-0.394482 0.351564 1.509 126 112 93
0.0784758 -0.264524 1.017 188 169 163
-0.481728 -0.115312 1.513 134 122 106
-0.61073 -0.276371 1.62 151 132 119
-0.591707 -0.220125 1.633 139 121 112
-0.040165 0.0237184 1.198 147 125 115
-0.096904 0.273438 1.225 133 114 101
-0.215988 0.249344 1.319 139 118 101
-0.010467 0.00405027 1.149 124 106 97
-0.90446 -0.0165568 1.744 47 16 3
0.322456 -0.159347 0.824 151 141 129
-0.794593 0.557688 1.831 106 94 76
0.192955 -0.33998 0.909 126 113 102
0.00425319 -0.204899 1.087 170 147 142
-0.830649 -0.595521 1.744 127 108 95
-0.533439 -0.0967235 1.571 136 119 103
0.118173 0.366253 1.046 128 116 98
0.145452 -0.179132 0.967 161 140 135
-0.740511 -0.088067 1.7 131 117 98
-0.85311 0.277172 1.848 104 95 76
-0.403765 0.376118 1.48 129 110 95
-0.775659 -0.114892 1.729 128 114 95
-0.89675 0.323075 1.87 36 31 11
0.274502 -0.197785 0.863 112 101 94
-0.573688 -0.579109 1.535 165 151 136
-0.484999 0.400697 1.547 121 108 86
-0.0229238 -0.396317 1.118 165 145 135
-0.253903 -0.459685 1.262 193 176 162
-0.537977 -0.580037 1.505 165 151 145
0.206368 0.174615 0.523 103 94 73
-0.190655 0.443531 1.322 128 112 91
0.173637 0.214839 0.984 100 87 65
-0.0730052 -0.145289 1.162 134 113 112
-0.25677 0.0961382 1.308 192 167 160
-0.147598 0.0918017 1.249 140 119 114
-0.69607 -0.122061 1.673 137 119 97
-0.344968 -0.281117 1.362 165 148 134
0.0681371 -0.235748 1.036 121 105 100
0.365381 -0.242539 0.781 110 102 88
-0.113888 0.144107 1.194 113 94 77
