ply
format ascii 1.0
comment Created by Open3D
element vertex 1288
property double x
property double y
property double z
property uchar red
property uchar green
property uchar blue
end_header
0.15776 0.046523 0.509 255 255 255
-0.28077 -0.0356388 0.667 255 255 255
0.22172 0.00366546 0.436 0 0 0
0.000348959 0.191112 0.531 255 255 255
-0.180208 0.0985486 0.587 255 255 255
0.115775 -0.0802524 0.449 255 255 255
0.189007 0.0320886 0.479 255 255 255
-0.443332 -0.379688 1.156 255 255 255
0.124401 0.0332703 0.522 255 255 255
-0.17227 0.103149 0.586 255 255 255
-0.120475 0.177419 0.534 255 255 255
0.122989 0.133634 0.558 255 255 255
0.169343 0.184527 0.527 255 255 255
-0.27645 -0.0258127 0.614 255 255 255
0.167071 -0.0516767 0.436 255 255 255
-0.211737 0.178502 0.517 255 255 255
0.175172 -0.0873166 0.407 255 255 255
-0.259249 -0.0383198 0.676 255 255 255
0.132169 -0.10839 0.422 255 255 255
0.145095 -0.112647 0.41 255 255 255
-0.267699 0.0597252 0.61 255 255 255
-0.152257 -0.0932109 0.617 255 255 255
0.17957 -0.0734604 0.411 255 255 255
-0.251687 0.119319 0.559 255 255 255
-0.139837 -0.129533 0.586 255 255 255
-0.073949 -0.0741508 0.578 255 255 255
0.0650616 -0.108019 0.468 255 255 255
0.177564 -0.0189181 0.45 255 255 255
0.113705 0.0585747 0.544 255 255 255
-0.250366 -0.162841 0.634 0 0 0
0.169232 0.186035 0.524 255 255 255
-0.274554 -0.0386756 0.612 255 255 255
-0.276037 -0.160534 0.629 0 0 0
-0.169181 0.194652 0.513 255 255 255
-0.117503 -0.150315 0.557 255 255 255
-0.119924 -0.197689 0.524 255 255 255
0.0604804 0.0764476 0.586 255 255 255
0.119784 0.120444 0.56 255 255 255
0.0349731 -0.0804189 0.495 255 255 255
-0.0666493 0.130482 0.564 255 255 255
0.15594 0.155686 0.54 255 255 255
-0.145513 0.18774 0.524 255 255 255
-0.278917 -0.0264704 0.655 0 0 0
-0.252111 0.127243 0.55 255 255 255
0.201467 -0.051514 0.412 255 255 255
0.0259845 -0.00442084 0.562 0 0 0
-0.214558 0.0178225 0.638 255 255 255
0.000370645 -0.0246285 0.564 0 0 0
-0.0114958 0.029896 0.609 255 255 255
-0.220281 -0.0896737 0.699 255 255 255
0.141586 0.112722 0.567 255 255 255
0.100978 0.0893385 0.583 255 255 255
0.144838 -0.10389 0.415 255 255 255
0.0199732 -0.105979 0.483 255 255 255
0.175489 -0.0443771 0.434 0 0 0
-0.0536596 -0.10697 0.544 255 255 255
-0.181567 -0.036654 0.686 255 255 255
-0.176973 0.0795146 0.602 255 255 255
0.00489069 -0.0342319 0.556 255 255 255
-0.110197 -0.166509 0.539 0 0 0
-0.277188 -0.0229529 0.646 255 255 255
0.202156 -0.0763858 0.395 255 255 255
0.138759 -0.117603 0.411 255 255 255
0.120781 -0.0925417 0.438 255 255 255
0.195565 0.178822 0.533 255 255 255
-0.121548 0.191384 0.52 255 255 255
0.215153 0.0659099 0.487 255 255 255
0.180088 0.165 0.536 255 255 255
-0.148702 -0.166033 0.555 255 255 255
-0.195181 -0.0849474 0.707 255 255 255
0.0833995 0.179897 0.526 255 255 255
0.165652 -0.0538053 0.436 255 255 255
-0.259853 0.118892 0.557 255 255 255
-0.0336597 0.168414 0.55 255 255 255
0.236975 0.0634738 0.469 255 255 255
0.0573041 -0.126285 0.449 255 255 255
0.0818331 0.134403 0.55 255 255 255
0.0420595 -0.0415621 0.523 255 255 255
-0.100235 -0.0160528 0.665 255 255 255
0.166484 -0.0662058 0.429 255 255 255
-0.190357 0.17802 0.523 255 255 255
0.126293 -0.125873 0.414 255 255 255
-0.257807 -0.142787 0.632 255 255 255
-0.0552268 0.177431 0.542 255 255 255
0.104616 -0.102737 0.442 255 255 255
-0.31131 0.0694059 0.591 255 255 255
0.186556 0.0786118 0.513 0 0 0
0.0966361 -0.0123112 0.51 255 255 255
0.183387 0.159487 0.538 255 255 255
0.0539782 -0.0296468 0.523 255 255 255
-0.000581409 0.0557238 0.599 255 255 255
-0.215512 0.183554 0.51 255 255 255
0.1697 0.00166735 0.473 255 255 255
-0.223009 0.151916 0.536 255 255 255
0.230663 0.101843 0.5 255 255 255
0.138301 -0.13138 0.4 255 255 255
-0.148725 -0.0468473 0.705 255 255 255
0.00237897 0.0456775 0.608 255 255 255
-0.281307 -0.039946 0.56 255 255 255
0.165308 -0.115651 0.393 255 255 255
0.169672 0.124015 0.581 255 255 255
0.0349838 -0.0967473 0.484 255 255 255
0.124168 0.0202137 0.514 255 255 255
0.206966 0.116018 0.516 255 255 255
0.0574221 0.0818889 0.584 255 255 255
-0.209289 0.194903 0.505 255 255 255
0.0675304 0.0937594 0.581 255 255 255
0.141416 0.152693 0.545 255 255 255
-0.0545277 0.00627147 0.625 255 255 255
0.202174 0.0687423 0.496 255 255 255
0.0806706 0.0536696 0.567 255 255 255
-0.0550002 0.069139 0.597 0 0 0
-0.156654 0.0659088 0.603 255 255 255
-0.144165 -0.01077 0.673 255 255 255
-0.717569 -0.433718 1.375 255 255 255
-0.18449 0.122438 0.565 255 255 255
0.0652802 -0.133366 0.434 255 255 255
0.0492386 0.00829349 0.556 0 0 0
-0.16882 0.093924 0.594 255 255 255
-0.127981 0.16711 0.54 255 255 255
-0.289544 0.0527765 0.61 255 255 255
0.271807 0.198489 0.554 255 255 255
0.0149298 -0.0667505 0.527 255 255 255
0.0720383 -0.0562531 0.495 255 255 255
-0.26375 -0.17589 0.644 255 255 255
0.137449 -0.145338 0.392 255 255 255
0.131085 0.0738247 0.539 255 255 255
-0.270626 -0.0639088 0.691 255 255 255
0.0645218 0.0450453 0.563 255 255 255
0.104287 0.124089 0.56 255 255 255
-0.222176 0.0147309 0.639 255 255 255
0.11725 0.0953211 0.579 255 255 255
0.115906 0.0996867 0.577 255 255 255
-0.203129 -0.0988239 0.676 255 255 255
0.188946 0.0488729 0.491 255 255 255
0.124284 -0.0273227 0.482 255 255 255
0.061051 0.17969 0.518 255 255 255
0.0509597 -0.0281584 0.527 255 255 255
0.111852 0.171238 0.531 255 255 255
0.0427832 0.162903 0.532 255 255 255
0.226685 0.133393 0.515 255 255 255
-0.0844663 -0.193166 0.521 255 255 255
-0.185616 0.0960089 0.589 255 255 255
0.0399844 -0.020983 0.541 255 255 255
-0.191417 0.0190381 0.644 0 0 0
-0.0992332 -0.0570335 0.606 255 255 255
0.102381 0.0471528 0.545 255 255 255
0.0837166 0.00186122 0.528 255 255 255
0.133304 -0.0284719 0.475 0 0 0
0.0717472 -0.0616417 0.493 0 0 0
0.220841 0.189084 0.523 255 255 255
0.090504 -0.13024 0.433 255 255 255
-0.0522786 0.19334 0.53 255 255 255
0.0398365 -0.126787 0.467 255 255 255
0.0966821 0.0718895 0.58 255 255 255
-0.0963013 0.0687916 0.594 255 255 255
0.135798 0.170915 0.53 255 255 255
-0.269636 -0.0923284 0.661 255 255 255
-0.252637 0.0220758 0.612 255 255 255
-0.0997297 -0.141903 0.549 255 255 255
-0.281287 -0.0594991 0.539 0 0 0
0.0358551 0.00106082 0.559 255 255 255
-0.212524 -0.0377153 0.685 255 255 255
0.229313 0.118711 0.506 255 255 255
-0.0513699 0.0528877 0.6 255 255 255
0.0843698 0.0744658 0.593 255 255 255
0.102131 0.0352309 0.539 0 0 0
-0.183897 0.158029 0.539 255 255 255
0.144437 0.0246924 0.503 255 255 255
0.0920698 0.0631185 0.569 0 0 0
0.0326202 -0.0865081 0.484 255 255 255
0.128151 -0.0494956 0.462 255 255 255
-0.274268 0.139609 0.539 255 255 255
-0.0674284 0.0102902 0.622 255 255 255
0.156819 0.165352 0.54 255 255 255
-0.166896 0.0813385 0.601 255 255 255
0.00137099 0.0567933 0.6 255 255 255
0.17389 -0.0983393 0.398 255 255 255
-0.211099 0.00123921 0.653 255 255 255
0.16996 0.0755985 0.521 255 255 255
-0.154686 0.126563 0.567 255 255 255
-0.0684409 0.0102902 0.622 255 255 255
-0.156423 0.101144 0.591 255 255 255
0.145627 0.0573832 0.525 0 0 0
0.104475 -0.148419 0.413 255 255 255
-0.288184 -0.00474335 0.603 255 255 255
-0.410202 -0.412342 1.122 255 255 255
-0.0131907 0.0651436 0.596 0 0 0
0.0921077 -0.147184 0.421 255 255 255
0.098152 0.00266893 0.518 255 255 255
-0.0564502 0.104597 0.563 255 255 255
-0.0342964 -0.00479055 0.609 255 255 255
0.0662038 0.0869374 0.586 255 255 255
-0.149872 -0.0208106 0.679 255 255 255
-0.32038 0.0151044 0.612 0 0 0
-0.0726696 0.0953588 0.568 0 0 0
0.0618942 0.200764 0.518 255 255 255
-0.202829 -0.105268 0.675 255 255 255
-0.0858035 -0.0208504 0.646 255 255 255
-0.606618 -0.409361 1.278 255 255 255
0.14481 0.190752 0.516 255 255 255
-0.566462 -0.464373 1.21 255 255 255
0.157502 -0.0515517 0.441 255 255 255
-0.244667 0.0270555 0.612 0 0 0
-0.00138237 0.17762 0.532 255 255 255
0.0688437 -0.0152653 0.526 255 255 255
0.227668 0.18639 0.525 255 255 255
0.0775685 0.155403 0.533 255 255 255
-0.129297 0.131639 0.569 255 255 255
-0.16794 -0.0487236 0.699 255 255 255
-0.0130228 -0.143546 0.755 255 255 255
0.121152 0.0254778 0.519 255 255 255
-0.117838 -0.114246 0.581 0 0 0
-0.215679 0.132437 0.553 255 255 255
0.0985759 0.177419 0.534 255 255 255
0.244192 0.0978107 0.488 255 255 255
-0.0395282 -0.0750824 0.557 0 0 0
0.137935 0.0505485 0.525 255 255 255
-0.206318 0.0683959 0.599 255 255 255
0.149711 -0.0738694 0.433 255 255 255
-0.124731 -0.17191 0.545 255 255 255
-0.0970503 -0.147692 0.544 255 255 255
0.0110444 0.138121 0.547 255 255 255
0.152689 -0.0937578 0.418 255 255 255
0.0649794 -0.13486 0.432 255 255 255
0.0682885 -0.116609 0.454 0 0 0
-0.138295 0.0597225 0.6 255 255 255
0.227602 0.0518037 0.467 255 255 255
0.0492462 0.199078 0.518 255 255 255
-0.230986 -0.143132 0.629 0 0 0
-0.0888489 0.0987477 0.577 255 255 255
0.08941 -0.152257 0.418 255 255 255
-0.194611 0.18834 0.514 255 255 255
-0.268413 -0.0180254 0.658 255 255 255
0.066508 -0.12063 0.447 255 255 255
0.0467688 -0.0164891 0.538 255 255 255
0.106535 -0.097422 0.444 255 255 255
-0.00189426 -0.133857 0.729 255 255 255
-0.114011 -0.117949 0.576 255 255 255
-0.185127 0.0200861 0.644 255 255 255
-0.123101 -0.201568 0.523 255 255 255
-0.172185 0.195105 0.512 255 255 255
0.0946994 -0.00820949 0.513 255 255 255
-0.222539 0.0652505 0.606 0 0 0
-0.0353214 -0.0854623 0.548 255 255 255
0.0684422 -0.11291 0.46 255 255 255
-0.131586 0.163921 0.544 255 255 255
0.0315238 -0.0185452 0.547 0 0 0
-0.118531 0.166539 0.541 255 255 255
-0.223914 -0.177986 0.644 255 255 255
-0.526853 -0.429118 1.205 255 255 255
-0.273772 -0.063709 0.545 255 255 255
0.167687 -0.0256788 0.453 255 255 255
0.0878148 0.0105327 0.532 255 255 255
-0.270387 -0.0989516 0.655 255 255 255
0.115225 0.109416 0.569 0 0 0
-0.278093 -0.0345259 0.576 0 0 0
0.0270492 -0.0902594 0.483 255 255 255
-0.28197 -0.0518922 0.542 255 255 255
0.092318 0.0157567 0.533 255 255 255
-0.179956 0.110954 0.577 255 255 255
-0.224654 -0.0797771 0.702 255 255 255
0.136752 -0.118941 0.411 255 255 255
-0.316354 0.0428498 0.61 255 255 255
-0.0351472 -0.019043 0.59 255 255 255
0.156078 0.102392 0.566 255 255 255
-0.178793 0.0502066 0.615 255 255 255
-0.246605 0.175637 0.516 255 255 255
0.0783942 0.0297387 0.551 255 255 255
-0.299659 -0.1142 0.576 255 255 255
0.0662379 0.177503 0.519 255 255 255
-0.199213 -0.0471777 0.693 255 255 255
0.0925726 -0.148201 0.42 255 255 255
-0.0674012 -0.0102579 0.641 0 0 0
0.0788176 0.183477 0.524 255 255 255
-0.0998331 -0.110228 0.57 255 255 255
0.0604558 0.0144955 0.551 255 255 255
0.108591 0.136729 0.545 255 255 255
0.0825113 -0.105019 0.455 255 255 255
-0.122336 0.103677 0.589 255 255 255
-0.259306 0.192974 0.5 255 255 255
0.238724 0.124228 0.505 255 255 255
-0.23365 -0.0249703 0.672 255 255 255
-0.0272593 -0.106805 0.53 255 255 255
-0.271522 0.0991684 0.574 255 255 255
0.0231659 -0.0865081 0.484 255 255 255
0.0954291 0.184199 0.531 255 255 255
0.0152451 0.027868 0.608 255 255 255
0.0636664 0.0567106 0.589 255 255 255
-0.271711 -0.066735 0.548 255 255 255
0.135329 -0.0681035 0.446 255 255 255
-0.403615 -0.409418 1.124 255 255 255
0.197013 0.0151943 0.463 255 255 255
0.226849 0.150447 0.592 255 255 255
-0.000528024 -0.05651 0.544 255 255 255
0.249692 0.174809 0.559 255 255 255
0.0212199 0.121611 0.557 255 255 255
-0.225447 0.0337326 0.625 255 255 255
0.194153 -0.0971312 0.388 255 255 255
-0.223855 -0.00726196 0.653 0 0 0
0.192484 0.0832947 0.511 0 0 0
0.175559 -0.114219 0.386 255 255 255
-0.215597 -0.128569 0.638 255 255 255
0.151823 0.198693 0.517 255 255 255
0.0867818 -0.0863242 0.466 255 255 255
0.211177 -0.016639 0.429 0 0 0
-0.0529719 -0.0743219 0.565 255 255 255
0.156228 0.082389 0.532 255 255 255
0.0684 -0.101597 0.47 255 255 255
-0.711431 -0.44194 1.359 255 255 255
0.162701 -0.102452 0.404 255 255 255
0.0614588 0.147987 0.544 255 255 255
0.189516 -0.0200203 0.442 255 255 255
-0.444397 -0.429993 1.13 255 255 255
0.049277 -0.0784895 0.493 255 255 255
0.15269 0.099857 0.557 255 255 255
0.0683551 -0.0750024 0.486 0 0 0
0.212545 0.0318388 0.464 255 255 255
-0.24787 0.160453 0.524 255 255 255
-0.0921757 -0.0480786 0.605 255 255 255
-0.199392 -0.169565 0.636 255 255 255
0.147415 -0.141961 0.388 255 255 255
-0.23635 0.0642643 0.606 255 255 255
-0.0163984 0.0139932 0.607 0 0 0
-0.0798265 -0.0350464 0.601 0 0 0
0.0174354 0.0863439 0.582 255 255 255
0.109476 -0.118841 0.43 255 255 255
0.144812 -0.108766 0.413 255 255 255
-0.0700763 0.0735008 0.593 0 0 0
0.100859 -0.081647 0.461 255 255 255
0.15594 0.156565 0.54 255 255 255
-0.550453 -0.428966 1.227 255 255 255
-0.0974708 0.122434 0.578 255 255 255
-0.247184 0.130585 0.549 255 255 255
-0.206408 0.193642 0.506 255 255 255
0.0554938 -0.138573 0.424 255 255 255
-0.137209 0.106191 0.587 255 255 255
-0.0819192 -0.0380437 0.602 255 255 255
0.247335 0.156181 0.564 255 255 255
-0.00241741 0.097892 0.572 0 0 0
0.0179405 -0.00169507 0.568 255 255 255
-0.11696 -0.0694356 0.611 0 0 0
-0.0295316 0.185564 0.54 255 255 255
0.101543 -0.1181 0.435 255 255 255
-0.121921 0.0851752 0.587 255 255 255
-0.256622 0.0220758 0.612 255 255 255
-0.177602 0.0150075 0.651 255 255 255
-0.0343941 -0.062038 0.562 255 255 255
0.0555594 0.190012 0.514 255 255 255
-0.162005 -0.123069 0.601 255 255 255
-0.134383 -0.192772 0.534 255 255 255
-0.091871 -0.0547886 0.603 255 255 255
-0.144648 0.0760668 0.598 255 255 255
0.169754 -0.0366465 0.443 255 255 255
0.202992 0.180218 0.532 255 255 255
-0.269891 0.0754308 0.593 255 255 255
-0.133469 -0.142943 0.571 255 255 255
0.0677307 0.0761381 0.591 255 255 255
-0.125835 0.114006 0.583 255 255 255
-0.248848 -0.0697324 0.693 255 255 255
0.00206595 0.205499 0.528 255 255 255
-0.0809957 -0.159925 0.526 255 255 255
-0.652929 -0.485169 1.275 255 255 255
0.00633326 -0.124003 0.72 255 255 255
0.117249 -0.134978 0.413 255 255 255
-0.175066 0.0715198 0.609 255 255 255
0.183881 0.0969802 0.522 255 255 255
0.0856002 0.111011 0.563 255 255 255
0.0307515 0.0817486 0.583 255 255 255
0.0235295 0.10386 0.569 255 255 255
0.0397457 -0.128186 0.475 255 255 255
0.0720054 -0.120815 0.445 255 255 255
-0.111556 -0.139029 0.559 0 0 0
-0.269184 0.0959308 0.577 255 255 255
-0.209439 -0.0916856 0.697 255 255 255
-0.188901 0.130235 0.559 255 255 255
0.15206 0.000130596 0.483 255 255 255
0.055878 -0.0137337 0.533 0 0 0
-0.0246618 0.128799 0.549 255 255 255
0.21913 0.0526912 0.475 255 255 255
0.162473 -0.073714 0.424 255 255 255
0.113454 -0.0972604 0.44 255 255 255
-0.260052 -0.0214314 0.664 255 255 255
-0.0516403 -0.0110542 0.627 255 255 255
0.190257 -0.0919875 0.393 255 255 255
-0.268346 -0.0531827 0.596 255 255 255
-0.088433 0.160651 0.551 255 255 255
-0.180826 0.16919 0.53 255 255 255
-0.29497 0.0901405 0.576 255 255 255
-0.0409588 0.182049 0.54 255 255 255
-0.511237 -0.394772 1.196 255 255 255
0.11858 0.0583594 0.542 255 255 255
-0.106669 -0.000875228 0.645 255 255 255
-0.280941 -0.0873191 0.578 255 255 255
-0.0697049 -0.0123826 0.643 255 255 255
0.193108 -0.0915194 0.391 255 255 255
-0.0198257 -0.0831816 0.539 255 255 255
-0.0938732 0.171821 0.541 255 255 255
-0.0888489 0.0978088 0.577 255 255 255
-0.0407478 0.145773 0.549 255 255 255
-0.0263658 0.00611092 0.609 0 0 0
0.0712821 -0.109677 0.459 255 255 255
-0.180878 0.103569 0.583 255 255 255
-0.0299144 0.169276 0.547 255 255 255
-0.232155 0.00947188 0.635 255 255 255
0.220173 0.00799524 0.44 255 255 255
-0.28872 0.0690232 0.596 255 255 255
0.153962 -0.0210621 0.465 255 255 255
-0.0735875 -0.0397372 0.598 255 255 255
-0.239147 -0.0911147 0.66 255 255 255
-0.135514 0.197605 0.512 255 255 255
-0.0222901 0.0366518 0.606 255 255 255
0.126315 -0.0367411 0.472 0 0 0
-0.0705096 0.0405295 0.605 255 255 255
-0.133685 -0.0142226 0.681 255 255 255
0.15296 0.198235 0.518 255 255 255
-0.038673 0.0577697 0.6 0 0 0
-0.647396 -0.43027 1.31 255 255 255
-0.0221245 -0.097501 0.531 255 255 255
-0.226523 0.158301 0.534 255 255 255
0.113589 -0.0152325 0.497 255 255 255
-0.0550405 0.137266 0.558 255 255 255
-0.194927 0.196978 0.504 255 255 255
-0.0726141 -0.0407103 0.598 255 255 255
-0.423814 -0.390478 1.149 255 255 255
-0.0798502 0.151428 0.56 255 255 255
-0.189549 0.00866444 0.652 255 255 255
-0.0109484 0.00110067 0.58 255 255 255
-0.140432 -0.100259 0.605 255 255 255
0.127893 -0.14811 0.396 255 255 255
-0.162868 0.00232653 0.66 255 255 255
-0.294053 -0.0247595 0.567 255 255 255
-0.134143 -0.151823 0.566 255 255 255
-0.0588346 0.166927 0.551 255 255 255
0.111252 0.148259 0.545 255 255 255
0.174414 0.179352 0.532 255 255 255
-0.165297 0.173503 0.53 255 255 255
-0.0121063 -0.064833 0.547 255 255 255
-0.274227 0.0323492 0.618 255 255 255
0.0939399 -0.146834 0.42 255 255 255
-0.0980214 0.0202481 0.617 255 255 255
0.151381 0.0129171 0.491 255 255 255
-0.158617 -0.119553 0.603 255 255 255
-0.153611 -0.0636215 0.676 255 255 255
0.113795 0.175889 0.532 255 255 255
0.0271954 0.174157 0.532 255 255 255
0.123823 -0.112353 0.424 255 255 255
0.121928 -0.141241 0.404 255 255 255
-0.16869 0.198104 0.509 255 255 255
-0.169125 0.121453 0.569 255 255 255
0.256148 0.191715 0.54 255 255 255
0.138355 0.0001333 0.493 255 255 255
-0.296329 -0.0916213 0.688 255 255 255
0.071025 0.00101717 0.536 255 255 255
-0.104045 -0.0454537 0.623 255 255 255
0.116597 0.036299 0.529 255 255 255
-0.0555451 -0.0181385 0.625 255 255 255
0.0615718 0.147372 0.545 255 255 255
-0.122253 0.171744 0.538 255 255 255
0.0263544 0.0196332 0.57 255 255 255
0.0624593 -0.129902 0.439 255 255 255
-0.237542 -0.104626 0.644 255 255 255
-0.240355 0.157978 0.53 255 255 255
-0.0486013 0.0471861 0.602 0 0 0
-0.237336 0.0632782 0.606 255 255 255
0.163175 0.0103057 0.481 255 255 255
-0.134544 0.142315 0.56 255 255 255
-0.0348033 0.0152524 0.618 0 0 0
0.103668 -0.115268 0.435 255 255 255
-0.285689 0.0869911 0.58 255 255 255
-0.0494129 0.13587 0.556 255 255 255
0.199194 -0.0646384 0.406 255 255 255
-0.154727 0.11785 0.574 255 255 255
-0.048689 -0.111919 0.538 255 255 255
-0.051223 0.139489 0.556 255 255 255
-0.0664549 0.000170884 0.632 255 255 255
-0.0660473 -0.0185157 0.638 0 0 0
0.19313 -0.0753096 0.403 255 255 255
-0.121996 0.0704867 0.592 255 255 255
0.20101 0.132332 0.568 255 255 255
0.174037 0.0506835 0.501 255 255 255
0.0141788 -0.0620725 0.531 255 255 255
-0.298988 0.00508625 0.605 255 255 255
-0.626885 -0.484566 1.252 255 255 255
-0.213033 -0.099924 0.676 255 255 255
0.0548656 0.119105 0.558 255 255 255
-0.0444032 -0.0911444 0.55 255 255 255
-0.200492 0.0716774 0.602 255 255 255
-0.0290362 0.0836461 0.583 255 255 255
0.142046 -0.119108 0.407 255 255 255
-0.255364 0.029896 0.609 255 255 255
-0.415597 -0.421334 1.112 255 255 255
-0.0594064 0.169586 0.548 255 255 255
-0.298817 -0.111775 0.578 255 255 255
-0.297266 -0.0166874 0.575 255 255 255
0.0925505 -0.123338 0.436 255 255 255
-0.0814829 -0.102825 0.565 255 255 255
0.0831506 -0.0481005 0.494 255 255 255
-0.229726 -0.152524 0.634 255 255 255
0.11858 0.0610054 0.542 255 255 255
-0.0509092 0.177758 0.543 255 255 255
0.160479 -0.129922 0.386 255 255 255
-0.208791 0.0299016 0.63 255 255 255
-0.235698 -0.110053 0.639 255 255 255
-0.0186073 0.123884 0.555 255 255 255
-0.250204 -0.0908386 0.658 255 255 255
0.0511761 -0.0565186 0.512 255 255 255
0.199982 0.000121944 0.451 0 0 0
-0.28609 -0.103131 0.577 255 255 255
0.00387093 -0.0596095 0.54 255 255 255
-0.23129 -0.0137005 0.656 0 0 0
0.101786 -0.149764 0.413 255 255 255
-0.15414 -0.156152 0.565 255 255 255
-0.312198 -0.0853673 0.701 255 255 255
-0.165564 0.185461 0.52 255 255 255
-0.289949 -0.0257275 0.568 255 255 255
0.213357 0.0737924 0.492 255 255 255
-0.240237 -0.0204121 0.666 255 255 255
0.171839 0.0421911 0.497 255 255 255
-0.705915 -0.458376 1.336 255 255 255
-0.178686 0.0291514 0.636 255 255 255
0.0779954 -0.125754 0.442 0 0 0
0.0968709 0.103115 0.57 0 0 0
0.0238206 -0.0476503 0.534 255 255 255
0.208209 0.199535 0.517 0 0 0
0.0841715 -0.0712847 0.477 255 255 255
-0.118852 0.087891 0.586 255 255 255
0.0863292 -0.00496515 0.523 255 255 255
0.00906199 0.0656698 0.592 255 255 255
-0.178937 0.129105 0.562 255 255 255
0.155708 -0.0655649 0.434 255 255 255
-0.0183391 0.136341 0.547 255 255 255
-0.132715 0.160675 0.545 255 255 255
-0.291413 -0.0999779 0.669 0 0 0
-0.0642162 -0.10476 0.551 255 255 255
0.202121 -0.00205677 0.446 255 255 255
0.073535 -0.033956 0.511 255 255 255
-0.573485 -0.452188 1.225 255 255 255
0.0822766 -0.0976124 0.462 255 255 255
0.239571 0.189084 0.523 255 255 255
0.173399 -0.120501 0.384 255 255 255
0.143367 -0.0780972 0.433 255 255 255
0.153531 -0.0796077 0.426 255 255 255
-0.113043 -0.0777429 0.606 255 255 255
0.191895 -0.102912 0.386 255 255 255
0.133316 -0.067831 0.449 255 255 255
0.0835698 -0.0706563 0.478 255 255 255
-0.243789 -0.11211 0.633 255 255 255
0.0601031 -0.0128422 0.532 255 255 255
-0.10209 0.147897 0.557 255 255 255
0.0345082 0.148981 0.538 255 255 255
0.242681 0.105231 0.493 255 255 255
0.140074 -0.139027 0.394 255 255 255
0.176923 -0.110675 0.389 255 255 255
-0.28099 -0.0263616 0.582 255 255 255
-0.0113636 0.0511047 0.602 255 255 255
0.0430308 -0.0796134 0.495 255 255 255
0.148357 0.0841937 0.538 255 255 255
0.011953 0.0685599 0.592 255 255 255
-0.102361 0.0396757 0.607 255 255 255
0.174255 -0.0405095 0.438 0 0 0
-0.282447 0.050125 0.614 255 255 255
-0.144046 0.18144 0.528 255 255 255
-0.164538 0.0903607 0.596 255 255 255
0.180767 -0.0627664 0.42 255 255 255
-0.271454 -0.0158114 0.655 255 255 255
-0.0334241 0.192338 0.532 255 255 255
0.237735 0.0592761 0.466 255 255 255
0.129458 -0.130368 0.407 255 255 255
-0.104472 -0.119503 0.57 255 255 255
0.0543459 -0.0146559 0.535 255 255 255
-0.158881 0.0709326 0.604 255 255 255
-0.147846 0.0211998 0.646 255 255 255
-0.133606 0.0324015 0.619 0 0 0
-0.257715 -0.0304381 0.672 255 255 255
0.0200579 -0.0258072 0.55 255 255 255
-0.292586 -0.0185588 0.575 255 255 255
0.00436555 0.0437706 0.609 255 255 255
-0.0172243 0.100156 0.569 255 255 255
0.205437 0.0810107 0.502 255 255 255
0.00218333 0.120013 0.558 255 255 255
0.145288 0.171778 0.53 255 255 255
-0.060251 0.0989956 0.573 255 255 255
0.153291 0.0161459 0.492 255 255 255
0.0798984 -0.103993 0.457 0 0 0
-0.0233421 -0.0197657 0.583 255 255 255
-0.278203 -0.0486485 0.682 255 255 255
0.0374245 -0.0882654 0.485 255 255 255
0.0770753 0.140157 0.548 255 255 255
-0.177307 0.162951 0.535 255 255 255
-0.129611 0.0612641 0.596 255 255 255
0.181473 -0.0195194 0.447 255 255 255
0.214737 0.0523554 0.479 255 255 255
-0.251355 0.189661 0.502 255 255 255
0.225234 0.0939531 0.497 255 255 255
-0.10055 -0.048317 0.608 255 255 255
-0.250647 -0.0881589 0.662 255 255 255
0.159993 -0.146137 0.376 255 255 255
0.14497 0.0676715 0.532 255 255 255
0.170689 -0.130305 0.378 255 255 255
-0.224677 -0.0540998 0.695 255 255 255
-0.150992 0.0860852 0.6 255 255 255
-0.281603 -0.163864 0.63 255 255 255
0.0886808 0.0105327 0.532 255 255 255
0.182499 -0.00802175 0.455 0 0 0
0.192123 0.0546879 0.493 255 255 255
-0.301926 0.007032 0.603 255 255 255
0.0898749 -0.151893 0.417 255 255 255
0.119246 -0.100402 0.435 255 255 255
-0.275887 0.00633168 0.631 255 255 255
-0.240889 0.180588 0.511 255 255 255
0.0715668 -0.0757962 0.481 255 255 255
-0.151465 -0.0828321 0.622 255 255 255
-0.278937 0.0655808 0.6 255 255 255
0.229281 0.0234505 0.448 255 255 255
0.160341 -0.0574844 0.437 255 255 255
-0.246366 -0.160502 0.637 255 255 255
-0.0020455 -0.11565 0.484 255 255 255
-0.00557511 0.0260595 0.612 255 255 255
-0.238737 0.143383 0.54 255 255 255
0.18487 0.193077 0.52 255 255 255
-0.233265 -0.0701349 0.697 255 255 255
0.191524 -0.0206457 0.44 255 255 255
-0.294074 0.0570772 0.603 255 255 255
-0.0622489 0.0753036 0.592 255 255 255
0.0115492 0.00946298 0.572 255 255 255
-0.233907 0.158872 0.533 255 255 255
-0.249174 0.062292 0.606 255 255 255
-0.0879208 0.142666 0.565 255 255 255
0.131634 0.13229 0.56 255 255 255
-0.27475 -0.0964829 0.571 255 255 255
0.196366 0.0783625 0.506 255 255 255
-0.121411 0.120026 0.58 255 255 255
-0.156066 -0.159896 0.562 255 255 255
0.0369514 0.192488 0.523 255 255 255
0.121451 0.155667 0.543 255 255 255
-0.170313 0.118577 0.573 255 255 255
-0.212084 -0.0603566 0.702 255 255 255
0.140837 0.120386 0.564 255 255 255
0.171857 -0.11384 0.389 255 255 255
0.188561 0.0463812 0.49 255 255 255
0.176381 -0.04898 0.431 255 255 255
0.0178142 -0.00810782 0.564 255 255 255
-0.253381 0.0269228 0.609 255 255 255
-0.0200096 0.159495 0.544 255 255 255
0.150398 0.200439 0.515 255 255 255
0.174673 0.064873 0.51 255 255 255
-0.136403 0.079692 0.596 255 255 255
0.187049 0.196084 0.519 255 255 255
0.130308 -0.052162 0.459 255 255 255
0.138723 0.0771897 0.538 255 255 255
0.086275 -0.132354 0.433 255 255 255
0.000377874 0.0955983 0.575 255 255 255
0.209541 0.10056 0.51 255 255 255
-0.204709 0.0714392 0.6 255 255 255
0.0488844 0.127706 0.552 255 255 255
-0.200104 0.174097 0.524 255 255 255
0.0965107 -0.0204085 0.505 255 255 255
-0.227399 0.171538 0.524 255 255 255
-0.113688 0.05085 0.599 255 255 255
0.0936119 -0.117576 0.441 255 255 255
-0.146317 -0.145562 0.574 255 255 255
0.185135 0.184018 0.528 255 255 255
-0.231097 0.0540336 0.613 255 255 255
-0.0339895 -0.0940549 0.541 0 0 0
0.102611 0.0593284 0.551 255 255 255
0.161812 0.156263 0.542 255 255 255
-0.0494675 -0.0681261 0.567 255 255 255
0.0223318 -0.126415 0.483 255 255 255
-0.186725 -0.0917697 0.657 255 255 255
-0.122662 0.1241 0.577 255 255 255
0.130244 0.182972 0.525 255 255 255
0.167489 0.193271 0.516 255 255 255
-0.051901 -0.120001 0.535 255 255 255
0.126865 0.160639 0.536 0 0 0
-0.275588 0.116448 0.554 255 255 255
-0.199417 0.123837 0.563 255 255 255
-0.101161 0.087441 0.583 255 255 255
0.056835 0.20245 0.518 255 255 255
0.0334081 -0.0967473 0.484 255 255 255
-0.0817831 -0.0458046 0.601 255 255 255
-0.154248 0.0507079 0.609 255 255 255
0.184679 -0.104077 0.388 255 255 255
0.0649308 0.163706 0.529 255 255 255
0.155476 -0.0180353 0.465 255 255 255
-0.182374 -0.0717804 0.702 255 255 255
-0.146704 -0.0834399 0.619 255 255 255
-0.400696 -0.420622 1.096 255 255 255
-0.282823 0.0443456 0.617 255 255 255
-0.122741 0.158884 0.548 255 255 255
0.156171 -0.00527131 0.474 255 255 255
0.0432118 0.115887 0.56 255 255 255
0.0576938 0.0283511 0.559 255 255 255
0.00644772 0.156856 0.535 255 255 255
0.159092 0.0838043 0.53 255 255 255
-0.292874 -0.0333271 0.556 255 255 255
-0.270203 0.0343605 0.618 255 255 255
-0.301956 0.0100751 0.609 255 255 255
0.188841 0.120956 0.554 255 255 255
-0.0443102 0.185752 0.538 255 255 255
0.106448 0.12705 0.557 255 255 255
-0.0662041 0.179624 0.538 255 255 255
-0.543348 -0.403665 1.229 255 255 255
-0.109898 0.188098 0.525 255 255 255
-0.226099 0.162342 0.533 255 255 255
-0.109054 0.060193 0.595 255 255 255
0.130214 0.014929 0.505 255 255 255
-0.151492 -0.17322 0.552 255 255 255
-0.192234 0.0597252 0.61 255 255 255
0.184203 -0.106957 0.387 255 255 255
-0.306988 -0.114246 0.581 255 255 255
0.193943 -0.0533681 0.416 255 255 255
0.0232407 0.199383 0.521 255 255 255
-0.455409 -0.412381 1.158 255 255 255
0.262619 0.195447 0.548 255 255 255
-0.614232 -0.466397 1.247 255 255 255
0.111134 -0.11491 0.431 255 255 255
0.0564534 -0.0551416 0.507 255 255 255
-0.0159832 -0.0995279 0.528 255 255 255
-0.215796 0.137338 0.551 255 255 255
0.175758 -0.142428 0.368 255 255 255
-0.0748218 -0.00922912 0.642 255 255 255
-0.130582 0.0544749 0.596 255 255 255
0.15985 -0.133691 0.386 255 255 255
0.0460281 -0.119936 0.476 255 255 255
0.177414 -0.0368613 0.437 255 255 255
-0.0619489 0.12567 0.563 255 255 255
-0.237173 -0.171431 0.643 255 255 255
0.135415 -0.12775 0.405 255 255 255
-0.220358 0.0996034 0.582 255 255 255
0.108579 -0.115176 0.432 255 255 255
0.0845761 0.187455 0.528 255 255 255
0.13934 0.0735507 0.537 255 255 255
-0.269927 0.127672 0.548 255 255 255
-0.0849875 0.136508 0.57 255 255 255
0.11893 0.0834894 0.569 255 255 255
-0.21564 0.109993 0.572 255 255 255
-0.176819 0.128646 0.564 255 255 255
-0.651016 -0.426982 1.313 255 255 255
0.067031 -0.0076478 0.532 0 0 0
-0.0315794 0.180187 0.545 255 255 255
0.180137 0.0900117 0.521 0 0 0
0.176535 -0.0146211 0.453 255 255 255
0.163759 -0.112951 0.397 255 255 255
-0.0369424 -0.021849 0.588 255 255 255
0.066386 -0.102798 0.472 255 255 255
-0.244951 -0.0238057 0.67 255 255 255
-0.0174487 0.139901 0.547 255 255 255
-0.0220609 0.125681 0.551 255 255 255
-0.154199 -0.00417384 0.669 255 255 255
-0.126748 0.190298 0.524 255 255 255
-0.172737 -0.0286714 0.682 255 255 255
0.167867 -0.111813 0.393 255 255 255
0.0691777 -0.159268 0.415 255 255 255
-0.0799928 0.14896 0.561 255 255 255
0.101466 -0.1563 0.409 255 255 255
-0.22148 0.130873 0.554 255 255 255
0.212734 0.186887 0.524 255 255 255
0.154268 0.00881294 0.485 255 255 255
-0.138367 0.00663271 0.661 255 255 255
0.155349 0.152453 0.541 255 255 255
0.114616 -0.0206417 0.491 255 255 255
0.152818 -0.1456 0.381 255 255 255
0.0322015 0.0946626 0.575 255 255 255
0.0385764 -0.0122917 0.546 255 255 255
-0.309415 0.0295219 0.622 255 255 255
0.0168631 -0.126677 0.484 255 255 255
0.163309 -0.0688374 0.428 255 255 255
0.0357717 -0.095172 0.484 255 255 255
-0.180881 -0.0117594 0.667 255 255 255
0.0781494 -0.0484899 0.498 255 255 255
0.175913 -0.0741753 0.415 255 255 255
-0.27665 -0.0651274 0.692 255 255 255
0.0767118 -0.0313997 0.51 255 255 255
0.047725 -0.00342517 0.549 255 255 255
0.236715 0.0659037 0.47 255 255 255
0.142075 -0.135866 0.396 255 255 255
-0.203436 0.172193 0.526 255 255 255
-0.119397 0.1123 0.584 255 255 255
0.00298084 0.163865 0.538 255 255 255
0.0531526 -0.0417645 0.515 255 255 255
-0.0912509 0.195992 0.521 255 255 255
0.111368 0.164434 0.537 255 255 255
-0.0690926 -0.0850336 0.569 255 255 255
0.218459 0.000831199 0.438 255 255 255
0.0787261 0.101793 0.573 255 255 255
-0.135258 -0.114289 0.591 255 255 255
0.115238 0.197773 0.519 255 255 255
-0.198865 0.062292 0.606 255 255 255
-0.161452 0.0497985 0.61 255 255 255
-0.277642 -0.0080059 0.628 255 255 255
0.0676418 -0.0102065 0.53 255 255 255
0.26943 0.180397 0.568 255 255 255
-0.255297 0.00638185 0.636 255 255 255
-0.2926 0.0690232 0.596 255 255 255
-0.0946795 -0.0235925 0.664 255 255 255
-0.102077 -0.12072 0.567 255 255 255
0.126079 -0.0353541 0.474 255 255 255
-0.145621 0.0916371 0.598 255 255 255
-0.280989 0.0540336 0.613 255 255 255
-0.0579483 0.00221725 0.629 255 255 255
-0.270116 -0.0529953 0.573 255 255 255
-0.18932 0.0211341 0.644 255 255 255
-0.11435 0.130699 0.573 255 255 255
-0.197855 0.0827402 0.597 255 255 255
0.120759 -0.0722804 0.454 255 255 255
0.110538 0.169281 0.533 255 255 255
0.0968374 0.174812 0.534 255 255 255
-0.0960966 0.18781 0.529 255 255 255
0.0296948 0.0616753 0.6 255 255 255
0.0852738 -0.000715109 0.527 255 255 255
0.0152698 0.149258 0.539 255 255 255
-0.0641735 0.0490637 0.601 255 255 255
0.0321772 0.142413 0.543 255 255 255
0.175761 -0.126893 0.377 255 255 255
-0.293142 0.0184469 0.624 255 255 255
0.160703 0.191151 0.524 255 255 255
-0.0610209 0.191112 0.531 255 255 255
0.147615 0.200376 0.517 255 255 255
-0.307425 0.0383833 0.618 255 255 255
-0.283908 0.0462034 0.615 255 255 255
0.227918 0.0363243 0.454 255 255 255
0.225859 0.0204885 0.447 255 255 255
-0.284974 0.0986501 0.571 255 255 255
0.174825 0.116741 0.602 255 255 255
-0.29272 -0.0512159 0.672 255 255 255
0.161985 0.172102 0.531 0 0 0
-0.192475 0.188706 0.515 255 255 255
-0.31791 0.0161266 0.613 0 0 0
0.181231 0.0100058 0.467 255 255 255
0.0413657 -0.039158 0.525 255 255 255
0.231633 0.0902377 0.49 255 255 255
-0.0896542 0.157634 0.553 255 255 255
0.185409 0.0406329 0.488 255 255 255
-0.142939 -0.113886 0.599 255 255 255
-0.0912497 0.0270555 0.612 255 255 255
0.141463 0.036036 0.513 255 255 255
-0.129439 -0.0339846 0.7 255 255 255
0.125766 -0.0799009 0.443 255 255 255
-0.285959 -0.0615706 0.69 255 255 255
0.208154 0.047778 0.48 255 255 255
0.100372 0.084885 0.585 0 0 0
-0.187148 -0.0172638 0.67 255 255 255
-0.077967 -0.0686187 0.587 255 255 255
0.164835 -0.0617477 0.432 255 255 255
0.239347 0.143166 0.517 255 255 255
-0.0407979 0.107155 0.562 255 255 255
0.260649 0.174543 0.567 255 255 255
-0.0137332 -0.017715 0.578 0 0 0
0.0998827 -0.141353 0.422 255 255 255
0.028048 0.0783549 0.586 255 255 255
-0.148635 0.188846 0.52 255 255 255
0.0990136 0.137868 0.546 255 255 255
-0.272561 0.0559373 0.612 255 255 255
0.0530751 0.104602 0.568 0 0 0
0.104464 0.158909 0.542 255 255 255
0.17389 0.130253 0.567 255 255 255
0.087514 0.193225 0.525 255 255 255
0.204985 -0.0568497 0.407 255 255 255
-0.180453 0.163515 0.534 255 255 255
0.0431049 0.15715 0.536 255 255 255
0.142513 -0.0030446 0.488 255 255 255
-0.0379667 0.203553 0.523 255 255 255
-0.078717 -0.0427992 0.6 255 255 255
0.167659 -0.0787929 0.418 255 255 255
0.20584 0.186745 0.526 255 255 255
-0.299935 -0.065679 0.686 255 255 255
-0.0692491 -0.0608729 0.586 0 0 0
0.134058 -0.136246 0.399 255 255 255
0.232557 0.0687787 0.474 255 255 255
0.164023 0.1926 0.521 255 255 255
0.130166 -0.0871525 0.436 255 255 255
-0.0277736 -0.086851 0.54 255 255 255
0.145072 0.0529092 0.523 255 255 255
-0.13901 -0.201182 0.522 255 255 255
-0.245719 0.0869374 0.586 255 255 255
0.234133 0.100423 0.497 255 255 255
-0.0783132 -0.0280828 0.62 255 255 255
0.103157 0.102905 0.574 255 255 255
-0.0809857 -0.00394924 0.633 255 255 255
0.162928 -0.0700664 0.427 255 255 255
0.227134 0.107366 0.503 255 255 255
-0.109421 -0.0833889 0.597 0 0 0
-0.143434 0.0924554 0.597 255 255 255
0.0405314 -0.0826682 0.494 255 255 255
0.0425269 0.0148112 0.563 255 255 255
0.136868 -0.142874 0.394 255 255 255
0.249115 0.163725 0.581 255 255 255
0.00863338 0.109372 0.564 255 255 255
0.097697 -0.111581 0.44 255 255 255
0.120358 0.111799 0.567 255 255 255
0.117872 0.188815 0.527 255 255 255
-0.105263 0.0471077 0.601 255 255 255
0.164299 0.0126803 0.482 255 255 255
0.25457 0.138993 0.499 255 255 255
-0.229001 -0.12016 0.632 255 255 255
-0.111074 0.173818 0.539 255 255 255
0.21397 -0.0131484 0.429 255 255 255
0.140812 -0.0772193 0.436 255 255 255
-0.117365 -0.194279 0.524 255 255 255
-0.113887 0.106781 0.585 255 255 255
-0.256079 0.0642643 0.606 255 255 255
0.0523324 0.0550233 0.602 255 255 255
-0.261312 0.0606183 0.609 255 255 255
-0.28969 0.0690232 0.596 255 255 255
0.062273 0.0581586 0.594 255 255 255
-0.109074 -0.130408 0.565 255 255 255
0.145298 -0.131999 0.396 255 255 255
0.0974141 0.0455455 0.547 0 0 0
-0.00938328 0.155954 0.544 255 255 255
0.178274 0.0903573 0.523 0 0 0
0.0661958 0.127267 0.554 255 255 255
0.0833881 -0.0919944 0.464 0 0 0
-0.0843686 0.011266 0.62 255 255 255
0.119013 0.0481186 0.536 255 255 255
0.0799735 -0.117918 0.445 255 255 255
-0.00870083 0.12705 0.557 255 255 255
-0.0728569 0.0480057 0.6 255 255 255
0.163405 0.0158834 0.484 255 255 255
-0.181194 0.0776841 0.603 255 255 255
-0.242111 -0.200304 0.645 255 255 255
-0.251664 0.0780617 0.591 255 255 255
-0.0765795 -0.15194 0.531 255 255 255
-0.131528 0.177087 0.533 255 255 255
-0.164234 0.0824535 0.602 255 255 255
-0.086242 -0.0601732 0.598 255 255 255
0.133831 0.138085 0.554 255 255 255
-0.122505 0.164504 0.543 255 255 255
-0.0915479 0.0241463 0.614 0 0 0
-0.101173 0.158248 0.552 255 255 255
0.135771 -0.0155248 0.481 255 255 255
-0.26676 0.109899 0.562 255 255 255
-0.0962505 0.0816084 0.582 0 0 0
-0.221381 0.110536 0.57 255 255 255
0.067409 -0.00420845 0.535 255 255 255
-0.100276 0.14971 0.557 255 255 255
-0.276871 -0.192939 0.638 255 255 255
0.190861 -0.00355555 0.452 0 0 0
0.0590184 0.144088 0.546 255 255 255
0.181359 -0.0116982 0.454 0 0 0
0.0012316 0.149258 0.539 255 255 255
0.246757 0.145634 0.508 255 255 255
0.0796588 0.0999281 0.573 255 255 255
0.0370387 -0.117038 0.48 255 255 255
-0.0481976 0.0759396 0.597 0 0 0
-0.233717 0.0861305 0.587 255 255 255
0.113778 0.0420128 0.536 0 0 0
0.168035 0.0206943 0.486 255 255 255
0.0897202 -0.0988774 0.454 255 255 255
-0.275642 0.0597252 0.61 255 255 255
0.0518603 0.123884 0.555 255 255 255
0.12922 -0.00229658 0.498 255 255 255
-0.162954 0.176285 0.528 255 255 255
0.0239829 -0.00983767 0.558 255 255 255
0.127695 -0.125935 0.412 255 255 255
-0.276002 -0.135466 0.622 255 255 255
0.0788776 0.152788 0.536 255 255 255
-0.215379 0.117633 0.564 255 255 255
-0.044346 0.197766 0.528 255 255 255
-0.311057 -0.0842265 0.701 255 255 255
-0.0298475 -0.106805 0.53 255 255 255
0.0477086 0.167149 0.529 255 255 255
-0.271763 0.155097 0.529 255 255 255
-0.171618 0.130934 0.562 255 255 255
-0.0879816 -0.163481 0.532 255 255 255
-0.115949 -0.0153308 0.681 255 255 255
-0.0916175 -0.190606 0.528 255 255 255
0.0559265 -0.0800758 0.488 255 255 255
0.071418 -0.0787631 0.48 255 255 255
0.0850795 -0.142333 0.427 255 255 255
0.205493 0.169598 0.534 255 255 255
0.189799 0.0378586 0.483 255 255 255
-0.0752404 -0.135183 0.54 255 255 255
-0.0453808 0.144511 0.551 255 255 255
-0.179462 0.175617 0.526 255 255 255
-0.0222912 0.192552 0.535 255 255 255
-0.275808 -0.0274487 0.606 255 255 255
-0.222168 0.0188016 0.636 255 255 255
0.152709 -0.0458086 0.448 255 255 255
0.0659259 -0.117826 0.453 255 255 255
0.177568 0.190752 0.516 255 255 255
-0.218333 0.00959121 0.643 255 255 255
0.198612 0.117188 0.525 255 255 255
-0.294594 -0.0281492 0.561 0 0 0
-0.201504 -0.0701886 0.709 255 255 255
0.172826 -0.0640542 0.424 255 255 255
-0.224573 -0.19399 0.652 255 255 255
-0.148714 -0.0289657 0.689 255 255 255
0.232638 0.100015 0.499 255 255 255
-0.273772 -0.0663697 0.545 0 0 0
0.193652 -0.0994 0.387 255 255 255
-0.272481 -0.0705534 0.69 255 255 255
-0.15284 -0.15486 0.567 255 255 255
0.083995 -0.0726845 0.476 255 255 255
-0.0622349 -0.133681 0.534 0 0 0
-0.0838749 0.177326 0.539 255 255 255
0.119291 -0.00232425 0.504 255 255 255
-0.0283389 0.10386 0.569 255 255 255
0.159374 0.0209072 0.491 255 255 255
-0.0755191 0.172139 0.542 255 255 255
0.12298 -0.146065 0.401 255 255 255
-0.150593 0.148366 0.552 255 255 255
0.031048 0.0977209 0.571 255 255 255
0.0609332 -0.032672 0.517 255 255 255
-0.187059 0.15686 0.538 255 255 255
-0.073864 0.198826 0.524 255 255 255
0.155706 -0.139766 0.382 255 255 255
0.0369337 0.133915 0.548 0 0 0
-0.110039 -0.122286 0.57 255 255 255
-0.0611561 0.0142929 0.62 255 255 255
-0.208894 0.070228 0.598 255 255 255
-0.0921224 0.0753036 0.592 255 255 255
0.14341 -0.1157 0.409 255 255 255
0.0642391 -0.0605243 0.497 255 255 255
0.22716 0.0475927 0.463 255 255 255
-0.390937 -0.382026 1.135 255 255 255
-0.116029 -0.0929481 0.596 0 0 0
0.0325072 0.195615 0.52 255 255 255
-0.162889 -0.0845183 0.627 255 255 255
-0.0553845 -0.122613 0.535 0 0 0
-0.0105044 0.0348512 0.609 255 255 255
-0.0532239 -0.0861138 0.558 255 255 255
-0.174578 -0.112727 0.625 255 255 255
0.00496106 0.112126 0.564 255 255 255
-0.130683 -0.152851 0.563 255 255 255
0.20861 -0.0307159 0.421 255 255 255
-0.272472 -0.0576526 0.555 255 255 255
0.188255 -0.0827665 0.401 255 255 255
0.272783 0.201373 0.533 255 255 255
-0.26767 -0.114836 0.631 255 255 255
0.176111 -0.138386 0.37 255 255 255
0.119544 -0.0709587 0.455 255 255 255
-0.207565 0.182001 0.515 255 255 255
0.0763241 0.106638 0.569 255 255 255
0.110781 0.00515766 0.514 255 255 255
0.0687904 0.151889 0.539 255 255 255
0.250509 0.124377 0.499 255 255 255
0.0718651 0.0354373 0.556 255 255 255
0.0869373 0.048833 0.554 255 255 255
0.125836 -0.134011 0.406 255 255 255
0.158918 -0.0164863 0.464 255 255 255
0.208268 0.131241 0.53 255 255 255
-0.0652912 0.172205 0.545 255 255 255
0.17585 -0.054211 0.428 255 255 255
0.0699999 -0.0647193 0.492 255 255 255
0.181015 0.0579054 0.5 255 255 255
-0.140102 0.0335168 0.621 0 0 0
-0.0610348 0.0625472 0.599 0 0 0
0.0185703 0.178822 0.533 255 255 255
-0.315967 0.019244 0.617 255 255 255
0.00236723 0.0484057 0.605 255 255 255
-0.286948 0.0144312 0.626 255 255 255
-0.211178 0.136036 0.553 255 255 255
0.239363 0.176755 0.532 255 255 255
-0.227552 -0.138817 0.628 255 255 255
0.0816871 0.191025 0.526 255 255 255
0.126559 -0.139887 0.402 255 255 255
-0.0344293 0.175828 0.548 255 255 255
0.167637 -0.106491 0.397 255 255 255
0.211095 0.0811756 0.498 255 255 255
0.0788176 -0.00923824 0.524 255 255 255
0.110803 -0.0449868 0.478 255 255 255
0.100109 -0.0831474 0.461 255 255 255
-0.119109 0.132565 0.569 255 255 255
0.0422484 -0.0924018 0.486 0 0 0
0.0688907 -0.130616 0.439 255 255 255
-0.262599 0.0240677 0.612 255 255 255
0.150896 -0.142372 0.384 255 255 255
-0.204886 0.115694 0.568 255 255 255
0.0509506 -0.0884473 0.486 255 255 255
-0.137115 -0.169627 0.552 255 255 255
-0.287617 -0.0709624 0.694 255 255 255
0.153841 -0.141631 0.382 255 255 255
-0.226987 0.0587325 0.61 255 255 255
-0.20846 -0.160534 0.629 255 255 255
0.085112 0.169625 0.526 255 255 255
-0.248342 0.108299 0.568 255 255 255
0.123017 -0.147284 0.399 255 255 255
0.0986362 0.0850301 0.586 255 255 255
0.180064 -0.0299541 0.44 255 255 255
0.190044 0.155381 0.542 255 255 255
0.0758454 -0.110942 0.455 255 255 255
0.28211 0.18262 0.575 255 255 255
0.0195958 0.0740891 0.59 255 255 255
-0.280271 -0.0368842 0.569 255 255 255
-0.0879097 0.0846632 0.577 0 0 0
-0.175514 0.176809 0.527 255 255 255
-0.0926227 -0.146807 0.544 0 0 0
-0.224148 -0.0788588 0.704 255 255 255
-0.277683 0.119405 0.551 255 255 255
0.17832 0.0301849 0.486 255 255 255
0.17186 -0.0782274 0.415 255 255 255
0.023776 0.179689 0.533 255 255 255
-0.271804 0.169759 0.516 255 255 255
-0.270212 -0.130017 0.625 255 255 255
-0.267321 -0.108142 0.64 255 255 255
-0.165921 0.166366 0.532 255 255 255
0.0110646 0.131239 0.548 255 255 255
0.034767 -0.125892 0.481 255 255 255
0.168272 -0.0600623 0.43 255 255 255
0.188365 -0.121014 0.374 255 255 255
0.0281111 0.0140184 0.568 255 255 255
-0.155137 -0.178532 0.549 255 255 255
-0.442565 -0.405322 1.154 255 255 255
0.181182 -0.129189 0.373 255 255 255
-0.206729 0.130002 0.558 255 255 255
0.0696778 -0.149536 0.418 255 255 255
0.0668242 0.186073 0.517 255 255 255
-0.073723 -0.160715 0.523 255 255 255
-0.200419 -0.0251932 0.678 255 255 255
-0.118166 -0.0153308 0.681 255 255 255
-0.0724926 -0.0338416 0.597 255 255 255
-0.116659 -0.155535 0.553 255 255 255
0.159192 -0.146525 0.377 255 255 255
-0.319948 0.0361953 0.615 255 255 255
-0.0311158 -0.096855 0.537 255 255 255
0.0706997 0.0957646 0.576 255 255 255
-0.265847 -0.150461 0.634 255 255 255
0.0904128 -0.000708324 0.522 255 255 255
0.0106923 0.0929525 0.576 255 255 255
-0.228774 -0.168548 0.64 255 255 255
0.0833279 0.00705647 0.531 255 255 255
-0.227399 0.00226308 0.642 255 255 255
-0.0445331 0.0499585 0.6 255 255 255
-0.467346 -0.374446 1.169 255 255 255
-0.0564719 -0.0191249 0.624 255 255 255
-0.0989224 0.0956504 0.581 255 255 255
0.0742007 -0.114392 0.454 0 0 0
0.0710896 0.0207344 0.55 255 255 255
-0.304436 0.0131554 0.614 255 255 255
-0.202816 -0.170868 0.637 255 255 255
-0.0404233 0.0701105 0.597 0 0 0
-0.269133 -0.0552084 0.567 255 255 255
0.245712 0.200764 0.518 255 255 255
0.176775 -0.0253954 0.448 0 0 0
-0.0189426 0.108647 0.565 255 255 255
-0.406716 -0.399599 1.143 255 255 255
-0.310806 0.00902439 0.605 255 255 255
-0.0256501 -0.0407306 0.571 255 255 255
-0.0355602 -0.055111 0.566 255 255 255
0.134205 -0.0170903 0.481 255 255 255
-0.123746 0.0116476 0.641 255 255 255
-0.0246169 0.150858 0.548 255 255 255
-0.113038 0.172382 0.54 255 255 255
-0.185408 0.190012 0.514 255 255 255
-0.751356 -0.418461 1.422 255 255 255
0.13033 -0.00949398 0.493 255 255 255
0.160229 -0.145069 0.378 255 255 255
0.163738 -0.136201 0.379 255 255 255
0.237114 0.180239 0.527 255 255 255
-0.241566 0.174797 0.516 255 255 255
0.18897 -0.00795123 0.451 255 255 255
0.110579 -0.0678318 0.464 255 255 255
0.200119 -0.0134855 0.44 255 255 255
-0.386078 -0.418166 1.085 255 255 255
0.118584 -0.0364303 0.478 255 255 255
0.123853 -0.0590127 0.46 255 255 255
0.0982555 -0.146135 0.418 255 255 255
0.152736 0.165616 0.538 0 0 0
-0.267321 -0.1071 0.64 255 255 255
0.0917407 -0.0736099 0.472 255 255 255
0.0554633 0.141423 0.546 255 255 255
-0.0834611 0.0576734 0.599 0 0 0
-0.0376963 0.0577697 0.6 0 0 0
0.148891 -0.116915 0.404 255 255 255
-0.135298 -0.124023 0.587 255 255 255
0.274751 0.199727 0.56 255 255 255
-0.291862 0.0433415 0.617 255 255 255
0.197436 0.00607308 0.457 255 255 255
0.161009 0.18639 0.525 0 0 0
0.065267 0.198235 0.518 255 255 255
0.190558 0.171106 0.536 255 255 255
-0.123957 -0.132489 0.57 0 0 0
-0.305774 -0.0904916 0.599 255 255 255
0.207456 0.0990944 0.511 255 255 255
0.132579 -0.0386318 0.467 255 255 255
0.136633 -0.0860464 0.434 255 255 255
0.162395 0.137836 0.553 255 255 255
-0.255626 0.0350229 0.612 255 255 255
-0.264519 0.101793 0.573 255 255 255
0.119362 -0.0364303 0.478 255 255 255
-0.273096 0.0193376 0.62 255 255 255
0.162427 -0.00371287 0.472 255 255 255
0.212857 -0.0226549 0.424 255 255 255
-0.101476 -0.0116183 0.659 255 255 255
0.0351804 -0.130006 0.476 255 255 255
-0.12287 -0.142361 0.565 255 255 255
0.183349 -0.0511847 0.426 255 255 255
0.0430556 0.028909 0.57 255 255 255
-0.175879 0.129788 0.561 255 255 255
-0.0534422 -0.123022 0.533 255 255 255
0.243346 0.0831862 0.477 255 255 255
-0.403439 -0.3982 1.139 255 255 255
-0.179003 0.107756 0.58 255 255 255
0.0821032 0.151292 0.54 255 255 255
0.129555 -0.115525 0.418 255 255 255
-0.208748 -0.00840109 0.659 255 255 255
0.0512997 -0.00163837 0.549 255 255 255
-0.150706 -0.000906438 0.668 255 255 255
-0.205953 0.18724 0.511 255 255 255
-0.170529 -0.0571727 0.705 255 255 255
-0.0224315 -0.0140975 0.584 255 255 255
0.239519 0.0706428 0.471 255 255 255
-0.0791417 0.122164 0.568 255 255 255
-0.207766 0.0278512 0.63 255 255 255
-0.250899 -0.17959 0.646 255 255 255
-0.146519 -0.0927577 0.614 255 255 255
-0.122132 -0.0745289 0.612 255 255 255
-0.115759 -0.153736 0.553 255 255 255
0.215109 -0.0205364 0.423 255 255 255
-0.0883572 -0.139982 0.545 255 255 255
0.138017 -0.14777 0.39 255 255 255
-0.0508562 0.0794245 0.594 255 255 255
-0.393206 -0.416787 1.1 255 255 255
-0.171601 0.124013 0.568 255 255 255
0.168361 0.0520128 0.506 255 255 255
0.10879 -0.0502208 0.476 255 255 255
-0.261922 -0.1541 0.632 255 255 255
-0.0141156 0.125917 0.556 255 255 255
0.0378435 0.0740891 0.59 255 255 255
0.150242 -0.099163 0.415 255 255 255
0.178665 -0.0743096 0.412 255 255 255
0.128432 -0.061333 0.455 255 255 255
-0.256621 -0.028251 0.672 255 255 255
0.147342 0.18426 0.519 255 255 255
0.116148 0.0575834 0.543 255 255 255
0.150501 -0.0218657 0.466 255 255 255
-0.0721578 0.150674 0.564 255 255 255
-0.0972158 0.171504 0.54 255 255 255
-0.271935 0.104786 0.569 255 255 255
-0.00404768 0.161257 0.541 255 255 255
0.215228 0.149364 0.584 255 255 255
-0.0439034 0.113949 0.555 255 255 255
-0.248983 0.154528 0.53 255 255 255
0.0650151 0.189072 0.516 255 255 255
-0.0758307 0.0866911 0.578 255 255 255
-0.0552378 0.111331 0.56 255 255 255
0.201277 0.0885924 0.508 0 0 0
0.0814082 -0.127623 0.441 255 255 255
-0.0770063 0.19261 0.528 255 255 255
-0.229503 0.0926591 0.586 255 255 255
-0.083353 -0.121339 0.553 255 255 255
-0.0166188 -0.0668568 0.549 255 255 255
-0.212215 0.0376195 0.622 255 255 255
0.0151935 -0.000772101 0.569 0 0 0
-0.293366 -0.187295 0.64 255 255 255
-0.103589 -0.0971102 0.586 255 255 255
0.108577 -0.0301068 0.489 255 255 255
0.149432 -0.129095 0.395 255 255 255
-0.218319 -0.103241 0.662 255 255 255
0.195449 0.188314 0.528 255 255 255
-0.0412564 0.0766535 0.595 255 255 255
0.158641 -0.0921869 0.414 255 255 255
0.09123 0.145679 0.542 255 255 255
-0.306927 0.0393252 0.617 255 255 255
-0.150866 -0.169034 0.553 255 255 255
0.206947 0.0273672 0.465 255 255 255
0.142263 -0.0394639 0.459 255 255 255
-0.106088 0.0894917 0.584 255 255 255
-0.171327 -0.0969166 0.628 255 255 255
-0.0558347 0.19284 0.531 255 255 255
-0.428599 -0.416017 1.132 255 255 255
-0.0919507 0.153965 0.556 255 255 255
-0.0226245 0.17334 0.543 255 255 255
-0.288078 0.054672 0.609 255 255 255
0.0787364 -0.0345153 0.507 255 255 255
0.201935 0.131407 0.568 255 255 255
0.0965017 -0.0716156 0.469 255 255 255
-0.0501592 -0.11826 0.535 255 255 255
-0.114471 0.0527114 0.598 255 255 255
0.214664 0.138988 0.565 255 255 255
0.12745 0.103839 0.574 255 255 255
0.109007 0.168729 0.534 255 255 255
-0.233776 0.0643704 0.607 255 255 255
0.0491206 0.157727 0.535 255 255 255
-0.141673 0.175889 0.532 255 255 255
0.0641751 0.188233 0.516 255 255 255
-0.313705 -0.0910959 0.603 255 255 255
0.248917 0.140386 0.504 255 255 255
0.0619094 0.123202 0.556 255 255 255
0.132722 -0.0704385 0.447 255 255 255
0.050543 -0.142376 0.423 255 255 255
-0.108544 -0.101097 0.587 255 255 255
0.0437621 0.179722 0.523 255 255 255
0.183448 0.198309 0.516 255 255 255
0.0574221 0.0780874 0.584 255 255 255
0.149636 -0.0298833 0.461 255 255 255
0.123784 0.049677 0.534 255 255 255
