ply
format ascii 1.0
comment Created by Open3D
element vertex 1287
property double x
property double y
property double z
property uchar red
property uchar green
property uchar blue
end_header
0.160128 0.213402 0.633 255 255 255
0.00621012 -0.000958002 0.706 255 255 255
-0.186276 0.166934 0.61 255 255 255
0.321086 -0.240073 0.879 255 255 255
0.264101 -0.107628 0.975 255 255 255
-0.0358688 -0.0207186 0.676 255 255 255
0.286448 -0.152552 0.939 255 255 255
0.372575 0.140141 0.735 255 255 255
0.0781189 0.217091 0.62 255 255 255
-0.126644 0.200024 0.605 255 255 255
-0.286386 0.0134339 0.627 255 255 255
0.423298 -0.122296 0.991 255 255 255
-0.132238 -0.017861 0.652 255 255 255
-0.167864 -0.0612789 0.619 255 255 255
-0.302587 -0.0458486 0.589 255 255 255
-0.248376 0.0866471 0.656 255 255 255
-0.309378 -0.00676152 0.608 255 255 255
-0.145903 0.0625721 0.697 255 255 255
-0.0421571 0.117019 0.671 255 255 255
0.228935 -0.00564623 0.905 255 255 255
-0.171982 0.0217248 0.662 255 255 255
-0.00673204 0.0495062 0.739 255 255 255
-0.218125 -0.0477168 0.613 255 255 255
-0.210776 0.0863623 0.662 255 255 255
-0.125877 -0.179102 0.562 255 255 255
-0.267813 -0.197387 0.51 255 255 255
0.297837 -0.170615 0.913 255 255 255
-0.172382 0.0659537 0.685 255 255 255
-0.137706 -0.0455099 0.638 255 255 255
0.318887 0.186071 0.684 255 255 255
-0.0269577 -0.0830027 0.647 255 255 255
-0.0159435 -0.11429 0.628 255 255 255
0.1513 0.185473 0.662 255 255 255
0.295972 0.137566 0.747 255 255 255
-0.262136 0.212634 0.558 255 255 255
0.0957852 -0.0850271 0.689 255 255 255
0.0127528 -0.0299996 0.687 255 255 255
0.0181036 0.0742159 0.722 255 255 255
0.318114 -0.00117647 0.867 255 255 255
-0.0148772 -0.19724 0.586 255 255 255
-0.0933505 -0.0709057 0.633 255 255 255
-0.0473575 -0.195409 0.575 255 255 255
0.167168 -0.110172 0.692 255 255 255
-0.21733 0.0334229 0.659 255 255 255
-0.126723 -0.00520746 0.662 0 0 0
0.241639 0.220623 0.636 255 255 255
-0.200178 -0.131988 0.56 255 255 255
0.0621555 -0.0160962 0.715 255 255 255
0.199593 0.118153 0.755 255 255 255
0.104853 -0.154838 0.648 255 255 255
-0.201692 -0.178333 0.535 255 255 255
-0.202395 -0.195641 0.53 255 255 255
0.187355 -0.223681 0.631 255 255 255
-0.271298 0.0875641 0.647 255 255 255
0.017675 -0.208187 0.59 255 255 255
0.233931 0.208028 0.655 255 255 255
-0.142444 0.176163 0.618 255 255 255
0.157506 -0.021534 0.742 255 255 255
0.173206 -0.142827 0.676 255 255 255
-0.0904372 0.206182 0.6 255 255 255
-0.23072 0.15553 0.612 255 255 255
-0.180853 0.0353328 0.675 255 255 255
-0.029388 0.209618 0.61 255 255 255
-0.173956 -0.166932 0.552 255 255 255
0.273804 0.0543296 0.811 0 0 0
-0.10082 -0.209385 0.555 255 255 255
0.208004 0.0956543 0.782 255 255 255
-0.248832 0.138146 0.61 255 255 255
-0.229133 0.0449701 0.688 0 0 0
-0.0908153 0.0422334 0.738 255 255 255
-0.102946 0.12988 0.648 255 255 255
0.116352 -0.0781867 0.698 255 255 255
-0.0176445 -0.00320506 0.695 255 255 255
-0.241574 0.212707 0.563 255 255 255
-0.197866 0.17657 0.609 255 255 255
-0.0166686 0.208008 0.617 255 255 255
-0.122618 0.0144623 0.675 255 255 255
0.291329 -0.0401484 0.955 255 255 255
0.0238506 -0.105186 0.654 255 255 255
-0.190973 -0.0737982 0.606 255 255 255
-0.233876 -0.139468 0.543 255 255 255
-0.0974708 -0.170092 0.578 255 255 255
0.101395 0.213402 0.633 255 255 255
-0.305908 0.057535 0.665 255 255 255
0.0266154 0.13756 0.67 255 255 255
0.117699 -0.125729 0.667 255 255 255
-0.328714 0.0453786 0.646 255 255 255
0.191458 0.0392353 0.856 255 255 255
-0.0878192 0.180629 0.623 255 255 255
0.150205 -0.0461327 0.73 255 255 255
-0.253537 0.156235 0.607 255 255 255
0.197259 0.234113 0.617 255 255 255
-0.132247 -0.183275 0.558 255 255 255
-0.21917 -0.144681 0.546 255 255 255
0.235686 0.233348 0.623 255 255 255
0.130628 0.185193 0.661 255 255 255
-0.0703292 -0.127313 0.612 255 255 255
0.138787 -0.146775 0.664 255 255 255
-0.216867 0.09719 0.648 255 255 255
0.272698 0.227868 0.636 255 255 255
0.396643 -0.0792308 0.977 255 255 255
-0.0984005 -0.139269 0.595 255 255 255
0.0998757 -0.124083 0.664 255 255 255
-0.197568 -0.178457 0.538 255 255 255
0.0504592 0.221345 0.615 255 255 255
-0.188486 -0.104739 0.586 255 255 255
0.461815 -0.292465 0.932 255 255 255
0.262818 0.00171743 0.905 255 255 255
-0.190177 0.0352281 0.673 255 255 255
0.0915621 0.198282 0.651 255 255 255
0.121908 -0.20632 0.622 255 255 255
0.112335 0.0972662 0.755 255 255 255
-0.049835 0.0457121 0.736 255 255 255
-0.159568 0.215553 0.578 255 255 255
-0.273265 0.20463 0.566 255 255 255
-0.283787 0.145151 0.602 255 255 255
-0.0550573 0.0228406 0.696 255 255 255
0.0290053 0.224022 0.606 255 255 255
-0.233853 0.143282 0.615 255 255 255
0.140946 -0.105713 0.685 255 255 255
-0.253258 -0.0716062 0.588 255 255 255
-0.232455 -0.00394924 0.633 255 255 255
-0.0308081 0.217536 0.599 255 255 255
0.045571 -0.121582 0.645 255 255 255
0.314965 0.0804885 0.695 255 255 255
-0.0441445 -0.183581 0.582 255 255 255
-0.0467512 0.223286 0.591 255 255 255
-0.0634261 -0.159334 0.594 255 255 255
-0.294875 0.116638 0.617 255 255 255
0.203571 0.21472 0.64 255 255 255
0.165513 -0.0311097 0.74 255 255 255
0.351028 0.143939 0.73 255 255 255
0.32738 0.140594 0.725 255 255 255
-0.082483 0.190155 0.621 255 255 255
0.0640552 0.222888 0.611 255 255 255
-0.146828 0.207369 0.595 255 255 255
0.289404 0.0695744 0.775 255 255 255
0.183392 -0.158767 0.669 255 255 255
0.112282 0.144405 0.687 255 255 255
0.139893 -0.0271998 0.732 255 255 255
-0.196398 0.206386 0.584 255 255 255
0.00147153 0.182526 0.644 255 255 255
-0.136843 -0.0493514 0.634 255 255 255
0.171275 -0.203959 0.64 255 255 255
-0.145204 -0.0403819 0.639 255 255 255
-0.0412314 -0.188938 0.581 255 255 255
-0.108334 0.0023794 0.675 255 255 255
0.314431 0.146043 0.717 0 0 0
-0.0264138 -0.184517 0.588 255 255 255
0.0688767 0.230976 0.601 255 255 255
0.343248 0.0510826 0.695 255 255 255
-0.14407 0.220074 0.58 255 255 255
-0.150642 0.145057 0.627 255 255 255
-0.00357097 -0.16164 0.61 255 255 255
0.468266 -0.161488 0.994 0 0 0
-0.13826 -0.165972 0.564 255 255 255
-0.311704 0.0742192 0.65 255 255 255
0.344206 0.0372172 0.711 255 255 255
-0.00474349 0.191041 0.634 255 255 255
-0.177291 -0.164832 0.554 255 255 255
0.447947 -0.211206 0.992 255 255 255
-0.149733 0.208337 0.595 255 255 255
0.266476 -0.129623 0.928 255 255 255
-0.181059 0.107339 0.652 255 255 255
0.0962424 0.198132 0.654 255 255 255
0.326386 0.0949351 0.71 255 255 255
0.0422693 0.15246 0.659 255 255 255
-0.203781 0.00863786 0.65 255 255 255
0.324893 0.231422 0.643 255 255 255
-0.165581 0.156049 0.618 255 255 255
0.0803958 0.216779 0.622 255 255 255
-0.158283 0.175878 0.617 255 255 255
0.192451 -0.177842 0.659 255 255 255
-0.210142 0.160772 0.613 255 255 255
0.373729 -0.214192 0.928 0 0 0
-0.0348911 0.168367 0.638 255 255 255
-0.185048 -0.0375229 0.626 255 255 255
0.0097262 0.0800274 0.711 255 255 255
-0.224184 0.0529608 0.69 255 255 255
0.0232786 -0.216312 0.586 255 255 255
-0.134421 0.197382 0.609 255 255 255
0.343103 -0.32043 0.952 255 255 255
-0.211919 0.0234105 0.649 255 255 255
0.172615 0.178923 0.678 255 255 255
0.446102 -0.265681 0.967 255 255 255
0.0760157 -0.0242071 0.714 255 255 255
0.0138334 -0.202427 0.59 255 255 255
0.146774 -0.113962 0.681 255 255 255
0.140524 -0.164282 0.652 255 255 255
0.307969 0.092886 0.721 255 255 255
-0.0493611 0.0369731 0.729 255 255 255
0.292432 0.112164 0.773 255 255 255
-0.297494 0.149551 0.6 255 255 255
0.0300532 -0.111947 0.65 255 255 255
0.161655 0.220169 0.623 255 255 255
0.216062 0.188523 0.669 255 255 255
-0.140728 0.121132 0.652 255 255 255
-0.288615 0.00320993 0.623 255 255 255
0.25776 0.198814 0.667 255 255 255
0.179676 0.0494375 0.84 255 255 255
0.286695 -0.165331 0.925 255 255 255
0.0840408 -0.111619 0.667 255 255 255
-0.0416322 -0.100301 0.63 255 255 255
0.323697 0.138 0.73 255 255 255
-0.206076 -0.134755 0.549 255 255 255
0.433061 -0.373875 0.966 255 255 255
-0.00856376 -0.155199 0.612 255 255 255
0.164524 -0.151824 0.672 255 255 255
-0.0408403 -0.177163 0.589 255 255 255
0.0824944 0.221345 0.615 255 255 255
0.29921 -0.0471265 0.882 255 255 255
0.0855965 0.194939 0.654 255 255 255
0.195265 -0.194608 0.647 0 0 0
-0.12374 -0.168369 0.569 255 255 255
0.216826 0.191502 0.668 255 255 255
-0.248509 0.164744 0.602 255 255 255
0.164429 0.197978 0.65 255 255 255
0.0281575 -0.179214 0.609 255 255 255
0.147084 0.207106 0.639 255 255 255
-0.0182355 -0.0316724 0.675 255 255 255
-0.264684 -0.0641688 0.59 255 255 255
0.227889 0.172639 0.675 255 255 255
-0.235994 0.212544 0.565 255 255 255
0.128171 0.00983387 0.74 255 255 255
-0.0852077 0.112895 0.666 255 255 255
-0.158213 0.192427 0.609 255 255 255
0.231507 0.0971747 0.784 255 255 255
-0.147252 -0.153969 0.574 255 255 255
-0.0791225 0.0411993 0.741 255 255 255
-0.134671 0.00126008 0.664 255 255 255
0.0263629 -0.0426051 0.692 255 255 255
0.410285 0.018719 0.812 255 255 255
-0.042656 0.0149337 0.697 255 255 255
0.00337976 0.215574 0.61 255 255 255
0.042258 -0.156962 0.627 255 255 255
-0.093904 0.173533 0.623 255 255 255
-0.206592 -0.162155 0.548 255 255 255
0.127861 -0.233942 0.607 255 255 255
0.217865 0.175613 0.678 255 255 255
-0.106584 0.167237 0.626 255 255 255
-0.16145 0.0077317 0.663 255 255 255
0.12915 0.0524549 0.823 255 255 255
-0.192042 -0.185291 0.53 255 255 255
-0.159567 -0.0469896 0.63 255 255 255
-0.144891 0.208337 0.595 255 255 255
0.178596 -0.128934 0.684 255 255 255
0.148407 -0.172235 0.654 255 255 255
0.00551522 -0.129413 0.627 255 255 255
0.305448 0.201997 0.674 255 255 255
-0.272779 0.122662 0.617 255 255 255
0.175048 -0.0944933 0.701 255 255 255
-0.208746 -0.187207 0.533 255 255 255
0.297876 0.0355904 0.725 255 255 255
0.332338 0.195169 0.662 255 255 255
0.141737 0.0382269 0.834 255 255 255
-0.219712 0.219255 0.561 255 255 255
-0.0797783 -0.0511418 0.657 255 255 255
-0.124413 -0.117785 0.599 255 255 255
-0.0415862 0.227119 0.586 255 255 255
0.363801 -0.318597 0.97 255 255 255
0.140308 -0.170386 0.651 255 255 255
-0.265441 0.204992 0.567 255 255 255
0.126195 -0.137463 0.666 255 255 255
0.33286 -0.356166 0.932 255 255 255
0.0477478 -0.179317 0.606 255 255 255
0.198553 -0.201042 0.644 255 255 255
0.17942 -0.0460063 0.728 255 255 255
0.0681891 -0.206079 0.595 255 255 255
0.268087 -0.111793 0.918 255 255 255
-0.221466 -0.0852915 0.59 255 255 255
0.097714 0.154698 0.664 255 255 255
0.491981 -0.266064 0.98 255 255 255
-0.120748 0.121318 0.653 255 255 255
-0.199039 -0.0976074 0.589 255 255 255
-0.0489864 -0.0610417 0.66 255 255 255
-0.190092 -0.0936028 0.594 255 255 255
-0.0283327 0.118588 0.68 255 255 255
0.360811 0.166544 0.705 255 255 255
-0.175051 -0.182333 0.547 255 255 255
0.124301 0.0911319 0.776 255 255 255
-0.06984 0.222324 0.591 255 255 255
-0.0977418 0.201346 0.609 255 255 255
-0.19013 -0.155254 0.552 255 255 255
-0.0132324 0.0093156 0.701 255 255 255
0.137977 0.193747 0.65 255 255 255
-0.29688 0.181931 0.591 255 255 255
0.039703 -0.0924952 0.67 255 255 255
0.0677245 0.195708 0.646 255 255 255
0.0724273 0.090695 0.713 255 255 255
0.122109 -0.0674981 0.705 255 255 255
-0.162341 0.149732 0.621 255 255 255
0.0345944 -0.0305236 0.699 255 255 255
0.286562 0.0489418 0.788 255 255 255
-0.110069 -0.167337 0.575 255 255 255
0.293891 -0.23056 0.892 255 255 255
0.0189197 0.228258 0.599 255 255 255
0.237761 0.0662479 0.828 255 255 255
0.330546 -0.00299754 0.65 255 255 255
-0.0474652 0.0823241 0.701 255 255 255
-0.0981453 0.224621 0.582 255 255 255
0.380302 -0.0208566 0.864 255 255 255
-0.120668 -0.164603 0.572 255 255 255
0.0708865 0.0500967 0.786 255 255 255
-0.127166 -0.0625881 0.622 255 255 255
-0.102017 -0.0839791 0.623 0 0 0
0.175812 -0.107256 0.695 255 255 255
-0.255297 0.0136267 0.636 255 255 255
-0.168431 0.026152 0.665 255 255 255
-0.264672 0.0593224 0.673 255 255 255
-0.255939 0.12225 0.62 255 255 255
0.258224 0.0759109 0.816 255 255 255
-0.236092 -0.138329 0.542 255 255 255
0.2248 0.118289 0.733 255 255 255
-0.234994 0.132918 0.618 255 255 255
0.470789 -0.278679 0.947 255 255 255
0.289549 0.0582379 0.743 255 255 255
-0.261182 0.197681 0.578 255 255 255
-0.0961982 -0.19293 0.565 255 255 255
-0.274667 0.0621428 0.668 255 255 255
-0.254211 -0.0971588 0.575 255 255 255
0.427979 -0.301242 0.931 0 0 0
-0.0702014 0.160061 0.638 255 255 255
-0.204443 0.128924 0.623 255 255 255
0.0101776 0.0498412 0.744 255 255 255
0.0101781 0.223152 0.601 255 255 255
0.0156714 -0.142222 0.625 255 255 255
0.0358345 0.0994354 0.701 255 255 255
0.00390057 -0.00668349 0.704 255 255 255
0.023486 0.184622 0.644 255 255 255
-0.237056 -0.200871 0.519 255 255 255
-0.279568 -0.099535 0.562 255 255 255
-0.189811 -0.198602 0.531 255 255 255
-0.135456 -0.176642 0.56 255 255 255
0.0241914 0.196509 0.635 255 255 255
-0.0644154 0.117959 0.664 255 255 255
-0.0324301 -0.175471 0.593 255 255 255
-0.199184 0.162963 0.61 255 255 255
0.283285 -0.194599 0.914 255 255 255
-0.0600172 0.0287085 0.701 255 255 255
-0.234147 -0.109133 0.574 255 255 255
0.236881 0.0458224 0.849 255 255 255
0.0719366 -0.04745 0.697 0 0 0
-0.219033 0.201544 0.581 255 255 255
0.130628 0.186269 0.661 255 255 255
-0.0591113 -0.201483 0.571 255 255 255
-0.0458401 0.111455 0.677 255 255 255
0.134419 0.223792 0.619 255 255 255
0.0654448 0.0663426 0.739 255 255 255
0.0442577 0.110227 0.69 255 255 255
-0.259442 -0.0669355 0.589 255 255 255
-0.121368 -0.0355129 0.645 255 255 255
-0.167574 -0.078859 0.607 0 0 0
-0.0802145 0.04765 0.729 255 255 255
0.00708832 -0.0496124 0.68 255 255 255
0.233075 0.112788 0.752 255 255 255
0.16282 -0.142404 0.674 255 255 255
-0.309825 0.0953639 0.629 255 255 255
-0.0205854 -0.143716 0.614 255 255 255
0.446827 -0.175313 0.972 255 255 255
-0.0631438 -0.0342943 0.662 255 255 255
-0.260677 0.0594105 0.674 255 255 255
0.0443251 0.0549781 0.748 255 255 255
-0.24532 -0.00494788 0.629 255 255 255
-0.184813 -0.082128 0.602 255 255 255
-0.264287 0.159315 0.6 255 255 255
0.463188 -0.15224 0.997 255 255 255
-0.201912 -0.183912 0.531 255 255 255
-0.291329 -0.0088841 0.618 255 255 255
0.254637 0.215295 0.648 255 255 255
-0.0423065 -0.215971 0.57 255 255 255
-0.0890242 0.0304028 0.714 255 255 255
0.116371 0.135568 0.705 255 255 255
0.269848 0.0744916 0.815 255 255 255
-0.124634 0.0256353 0.68 255 255 255
0.204612 0.21472 0.64 255 255 255
-0.0885495 -0.110743 0.614 255 255 255
-0.264082 0.155463 0.604 255 255 255
-0.259595 0.142921 0.605 255 255 255
0.26273 0.22166 0.642 255 255 255
0.412887 -0.0813197 0.895 255 255 255
-0.249297 0.198707 0.581 255 255 255
0.241109 0.17437 0.669 255 255 255
0.306808 0.199591 0.677 255 255 255
-0.302761 -0.0716444 0.573 255 255 255
-0.141107 0.156003 0.63 255 255 255
-0.0733615 0.1242 0.657 255 255 255
0.412048 -0.273416 0.961 255 255 255
0.129698 -0.230512 0.611 255 255 255
0.0740394 -0.159465 0.637 255 255 255
0.117702 -0.091355 0.686 255 255 255
0.161341 0.132422 0.732 255 255 255
-0.0738903 0.0215832 0.692 255 255 255
0.0455782 0.106195 0.693 255 255 255
0.160998 -0.165724 0.662 255 255 255
0.0283236 -0.000967501 0.713 255 255 255
0.172633 -0.00834069 0.75 255 255 255
-0.0341868 0.224829 0.59 255 255 255
0.373947 0.144531 0.733 255 255 255
0.175202 -0.153782 0.671 255 255 255
0.386413 -0.359195 0.948 255 255 255
0.0727623 -0.0319328 0.705 255 255 255
0.469228 -0.276411 0.966 255 255 255
-0.235855 0.138278 0.615 255 255 255
-0.0104355 -0.17213 0.605 255 255 255
-0.228701 -0.173329 0.533 255 255 255
-0.144876 -0.0989462 0.603 255 255 255
0.273969 -0.0885574 1.03 255 255 255
0.265572 0.145273 0.702 255 255 255
-0.0194643 0.164454 0.643 255 255 255
-0.0510229 -0.0722499 0.645 255 255 255
0.0959858 -0.0435286 0.707 255 255 255
0.119744 0.206309 0.643 255 255 255
0.425549 -0.169334 0.974 255 255 255
-0.124295 -0.184513 0.559 255 255 255
-0.0666803 -0.138885 0.606 255 255 255
-0.179211 -0.15477 0.56 255 255 255
-0.180556 0.222773 0.57 255 255 255
0.268853 -0.107316 0.931 255 255 255
0.132288 0.136676 0.723 255 255 255
0.325357 0.228297 0.646 255 255 255
-0.287267 0.163797 0.595 255 255 255
0.265322 0.164579 0.678 255 255 255
0.139352 0.145978 0.711 255 255 255
0.188257 0.143338 0.721 255 255 255
0.0753548 0.143457 0.667 255 255 255
0.227159 0.206525 0.657 255 255 255
-0.144768 0.0625721 0.697 255 255 255
0.324401 0.132127 0.737 255 255 255
0.217962 0.0549054 0.84 255 255 255
0.241339 0.0419722 0.855 255 255 255
0.172915 0.151763 0.711 255 255 255
0.333251 0.113091 0.738 255 255 255
0.190691 -0.0180805 0.749 255 255 255
0.00973552 0.195783 0.636 255 255 255
-0.222698 0.12791 0.623 255 255 255
0.0164738 0.14879 0.657 255 255 255
-0.0176952 -0.0744359 0.655 255 255 255
-0.182178 -0.020689 0.641 255 255 255
-0.233997 0.192845 0.595 255 255 255
0.355294 -0.0394833 0.977 255 255 255
-0.261721 0.201566 0.573 255 255 255
-0.230811 -0.109323 0.575 255 255 255
0.129114 -0.170655 0.648 255 255 255
-0.100096 -0.206143 0.556 255 255 255
0.159852 -0.202684 0.636 255 255 255
0.329135 0.120225 0.745 255 255 255
0.00842664 0.213685 0.616 255 255 255
0.162556 -0.0239812 0.743 255 255 255
0.147245 -0.0202443 0.739 255 255 255
-0.0145472 -0.222703 0.573 255 255 255
-0.296592 0.0226169 0.627 255 255 255
-0.222447 -0.165366 0.541 255 255 255
0.0983895 -0.230055 0.602 255 255 255
0.131392 0.0714597 0.796 255 255 255
-0.207097 -0.0630543 0.607 255 255 255
0.0692676 -0.0573273 0.693 255 255 255
-0.0786677 0.10783 0.675 255 255 255
0.430584 -0.30031 0.957 255 255 255
-0.170073 -0.104411 0.595 255 255 255
0.0467569 -0.165033 0.619 255 255 255
-0.248623 -0.00391181 0.627 255 255 255
-0.256421 -0.0838459 0.58 255 255 255
0.0358345 -0.0226256 0.701 255 255 255
0.0648441 -0.0126761 0.719 255 255 255
-0.139939 0.140486 0.634 255 255 255
-0.078043 -0.125904 0.61 255 255 255
0.126635 -0.0969367 0.686 255 255 255
-0.19127 -0.0144078 0.64 255 255 255
-0.110671 -0.0283839 0.65 255 255 255
-0.173381 -0.130361 0.577 0 0 0
0.419982 -0.0983196 0.904 0 0 0
0.0409743 0.211044 0.623 255 255 255
0.400781 -0.0373892 0.964 255 255 255
0.0851265 -0.111619 0.667 255 255 255
-0.353618 0.0792145 0.684 255 255 255
0.313115 0.157051 0.714 255 255 255
0.0587139 -0.221824 0.578 255 255 255
-0.129536 -0.174529 0.562 255 255 255
-0.00469112 0.197094 0.627 255 255 255
0.136059 0.100912 0.764 255 255 255
-0.0978229 0.13008 0.649 255 255 255
0.159434 0.18308 0.669 255 255 255
0.339047 -0.220421 0.904 255 255 255
-0.126308 0.058951 0.708 255 255 255
-0.18662 0.068792 0.68 255 255 255
-0.288709 -0.050899 0.592 255 255 255
-0.16461 -0.0837979 0.607 255 255 255
0.275367 -0.0755404 0.789 255 255 255
-0.105346 0.157737 0.637 255 255 255
-0.0532051 0.142094 0.646 255 255 255
-0.126762 -0.0608558 0.625 255 255 255
0.0392106 0.188814 0.644 255 255 255
0.256702 0.220969 0.64 255 255 255
0.459255 -0.337383 0.906 255 255 255
-0.148314 0.0823124 0.682 255 255 255
-0.254434 0.0636085 0.672 255 255 255
-0.0303033 0.193629 0.629 255 255 255
0.416579 -0.110609 1.002 255 255 255
-0.0706806 -0.0613628 0.652 255 255 255
0.00433688 -0.176068 0.605 0 0 0
0.410864 -0.103879 1 255 255 255
0.298057 0.219082 0.653 255 255 255
0.0317005 -0.221846 0.583 255 255 255
-0.262544 0.0250115 0.636 255 255 255
0.0950269 -0.197145 0.625 255 255 255
-0.175643 0.120986 0.64 255 255 255
-0.0923201 -0.0729659 0.633 255 255 255
-0.0184057 -0.211112 0.577 255 255 255
-0.0685579 0.125376 0.652 255 255 255
-0.154823 0.0164618 0.667 255 255 255
-0.00636732 -0.188981 0.593 255 255 255
-0.327072 0.0888909 0.649 255 255 255
0.143415 0.156715 0.697 255 255 255
0.386694 -0.329855 0.98 255 255 255
-0.306859 -0.0476845 0.588 255 255 255
0.412685 -0.0835828 0.873 255 255 255
-0.113946 0.0786724 0.689 255 255 255
-0.251694 0.100156 0.64 255 255 255
-0.18465 0.109505 0.646 255 255 255
-0.0870304 -0.0738791 0.632 255 255 255
0.336078 0.18899 0.663 255 255 255
-0.203444 0.215839 0.564 255 255 255
-0.262951 0.00942713 0.632 255 255 255
-0.275569 0.0342724 0.635 255 255 255
-0.0705315 0.155598 0.641 255 255 255
-0.302437 0.120068 0.614 255 255 255
0.292618 -0.00851575 0.897 255 255 255
-0.0860692 0.135152 0.648 255 255 255
-0.278579 0.184476 0.593 255 255 255
0.368852 0.12612 0.73 255 255 255
0.0870587 -0.127052 0.657 255 255 255
0.1267 -0.0686454 0.705 255 255 255
0.0129384 -0.0168253 0.697 0 0 0
-0.185738 -0.142613 0.566 255 255 255
-0.0112126 0.227319 0.594 255 255 255
-0.154199 0.0263093 0.669 255 255 255
-0.124939 0.176007 0.621 255 255 255
-0.156021 0.172585 0.616 255 255 255
-0.0460597 0.0183364 0.697 255 255 255
0.250495 0.239047 0.622 255 255 255
0.151172 -0.14177 0.671 255 255 255
0.277002 0.099204 0.79 255 255 255
0.311226 0.158435 0.715 255 255 255
-0.176254 0.129553 0.631 255 255 255
-0.00892772 0.0624666 0.722 255 255 255
0.306688 0.0282363 0.718 255 255 255
-0.223412 -0.0201726 0.625 255 255 255
0.299823 0.0237595 0.724 255 255 255
0.159343 0.0650477 0.813 255 255 255
-0.144952 -0.148882 0.576 255 255 255
0.165309 0.187628 0.662 255 255 255
0.32131 0.0290361 0.709 255 255 255
-0.166583 -0.136917 0.573 255 255 255
-0.0482095 -0.200673 0.574 255 255 255
-0.122336 -0.14074 0.589 255 255 255
0.312702 0.181147 0.695 255 255 255
-0.263562 0.0104391 0.631 255 255 255
-0.216184 0.140507 0.616 255 255 255
0.0840536 -0.0754799 0.694 255 255 255
-0.0351124 0.0804993 0.705 255 255 255
-0.0541096 0.17604 0.632 255 255 255
-0.187852 -0.101614 0.59 255 255 255
0.190285 -0.128194 0.686 0 0 0
0.0629846 0.120751 0.686 255 255 255
-0.0868709 0.0985247 0.679 255 255 255
0.146015 0.000201437 0.745 255 255 255
-0.0896014 -0.197177 0.564 255 255 255
-0.172985 0.0560867 0.701 255 255 255
0.219883 0.216436 0.642 255 255 255
0.203414 0.187738 0.674 255 255 255
0.273828 0.0638815 0.815 255 255 255
0.42191 -0.13104 0.984 255 255 255
0.0495601 -0.149274 0.629 255 255 255
-0.200834 -0.0526186 0.612 255 255 255
0.148493 0.0925138 0.777 255 255 255
0.180112 0.151977 0.712 255 255 255
-0.0504281 -0.171412 0.589 255 255 255
0.283391 -0.147968 0.939 255 255 255
0.170155 -0.104994 0.695 255 255 255
0.273821 -0.0980199 0.827 255 255 255
0.315591 0.239341 0.639 255 255 255
0.406855 -0.0540066 0.901 255 255 255
-0.216768 -0.106498 0.58 255 255 255
-0.0274919 -0.14524 0.612 255 255 255
-0.129784 -0.0724763 0.62 255 255 255
0.0505035 -0.150059 0.628 255 255 255
0.276716 -0.0872186 1.034 255 255 255
-0.0537528 0.159521 0.64 255 255 255
-0.178436 0.0560066 0.7 255 255 255
0.43653 -0.328463 0.914 255 255 255
0.425021 -0.284142 0.955 0 0 0
-0.291129 -0.0292753 0.603 255 255 255
-0.0809795 0.178158 0.625 255 255 255
-0.20736 0.0312306 0.658 255 255 255
-0.114549 0.126716 0.648 255 255 255
-0.294526 0.0925755 0.638 255 255 255
-0.296952 -0.0376013 0.595 255 255 255
0.279106 0.094776 0.796 255 255 255
0.321687 -0.189097 0.909 255 255 255
0.287321 0.228183 0.634 255 255 255
-0.0340117 0.161857 0.641 255 255 255
0.154906 0.19692 0.65 255 255 255
-0.239552 0.123656 0.622 255 255 255
0.15275 -0.127803 0.678 255 255 255
-0.351101 0.0850141 0.677 255 255 255
0.255638 -0.0327847 0.967 255 255 255
-0.0283005 -0.115679 0.63 255 255 255
0.459019 -0.137362 0.995 255 255 255
-0.18536 -0.0729322 0.607 255 255 255
-0.261873 -0.0668219 0.588 255 255 255
-0.099903 -0.0520637 0.642 0 0 0
-0.296611 0.0630405 0.666 255 255 255
-0.24957 0.0788213 0.662 255 255 255
0.116282 0.225806 0.619 255 255 255
-0.205121 0.179942 0.607 255 255 255
-0.00973918 0.0953283 0.696 255 255 255
0.266867 -0.0620382 0.814 255 255 255
0.0530769 0.144099 0.66 255 255 255
-0.0363887 -0.115312 0.628 255 255 255
-0.0189919 0.084847 0.703 255 255 255
0.326801 0.130927 0.737 255 255 255
-0.269123 0.10816 0.632 255 255 255
0.282051 0.0884102 0.797 255 255 255
0.0730318 -0.20511 0.595 255 255 255
-0.0522604 0.00130753 0.689 255 255 255
0.278562 -0.204026 0.923 255 255 255
-0.305091 -0.0374117 0.592 255 255 255
0.387498 -0.112273 0.974 255 255 255
0.135136 -0.148487 0.662 255 255 255
0.184219 0.0995851 0.773 255 255 255
-0.129601 0.136395 0.639 255 255 255
0.040063 0.157583 0.658 255 255 255
0.0152076 -0.0168253 0.697 0 0 0
0.317095 -0.0019547 0.655 255 255 255
0.321182 -0.166703 0.916 255 255 255
0.269921 0.0330341 0.84 255 255 255
0.270228 0.19673 0.671 255 255 255
0.0885517 0.0940438 0.712 255 255 255
0.119331 -0.13813 0.664 255 255 255
-0.244738 0.0893018 0.652 255 255 255
-0.11337 0.0494737 0.721 255 255 255
0.45925 -0.143405 0.992 255 255 255
0.334378 -0.357682 0.932 255 255 255
-0.166638 0.222773 0.57 255 255 255
0.30386 0.212085 0.661 255 255 255
-0.254262 0.0136267 0.636 255 255 255
-0.30595 0.0884225 0.638 255 255 255
0.277559 0.163473 0.692 255 255 255
0.157373 -0.0695217 0.714 255 255 255
0.0771886 0.199913 0.646 255 255 255
0.229327 0.169594 0.676 255 255 255
-0.142996 -0.194795 0.547 255 255 255
-0.10859 0.191867 0.62 255 255 255
0.28911 0.218746 0.652 255 255 255
-0.0722498 0.214146 0.595 255 255 255
0.432525 -0.299727 0.931 255 255 255
0.0732586 0.0486934 0.784 255 255 255
-0.0846893 0.197325 0.615 255 255 255
0.157647 -0.0783755 0.71 255 255 255
0.267108 -0.0683525 0.795 255 255 255
0.355842 0.0101807 0.873 255 255 255
0.14882 0.146183 0.712 255 255 255
0.0987011 -0.0116341 0.727 255 255 255
0.400301 -0.278974 0.948 255 255 255
0.122516 0.235467 0.605 255 255 255
0.101498 -0.230438 0.603 255 255 255
-0.171803 -0.179991 0.548 255 255 255
-0.202102 -0.101531 0.584 255 255 255
-0.0960862 -0.0861448 0.624 255 255 255
-0.191918 0.170624 0.609 255 255 255
0.345263 -0.0140025 0.875 255 255 255
0.218065 0.00309851 0.879 255 255 255
0.332054 -0.15326 0.934 255 255 255
0.133472 -0.107312 0.681 255 255 255
0.200947 0.217176 0.635 255 255 255
-0.348041 0.095985 0.669 255 255 255
-0.182412 -0.138982 0.57 255 255 255
-0.306122 0.176088 0.594 255 255 255
-0.128391 0.216629 0.586 255 255 255
-0.0283484 -0.153447 0.609 255 255 255
0.0218211 -0.0971155 0.657 255 255 255
-0.186412 -0.157567 0.557 0 0 0
0.150534 0.210273 0.636 255 255 255
0.277222 0.214096 0.654 255 255 255
0.311548 -0.0256622 0.635 255 255 255
-0.247683 -0.0525632 0.6 255 255 255
0.0899739 -0.0948426 0.679 255 255 255
-0.0227801 -0.0820765 0.648 255 255 255
0.185579 0.0144459 0.795 255 255 255
-0.0881788 -0.0557138 0.648 255 255 255
-0.200829 -0.0204631 0.634 255 255 255
-0.0984258 -0.0263896 0.653 255 255 255
-0.0452474 0.0824415 0.702 255 255 255
0.262592 -0.0557195 1.012 255 255 255
-0.0797665 0.106732 0.675 255 255 255
0.156172 0.107663 0.759 255 255 255
0.144178 -0.155321 0.659 255 255 255
0.167733 0.109185 0.761 255 255 255
-0.0798265 0.208482 0.601 255 255 255
-0.293946 -0.0727036 0.574 255 255 255
-0.159035 -0.202096 0.538 255 255 255
0.33098 0.0813846 0.693 255 255 255
0.31455 0.236222 0.639 255 255 255
-0.235955 -0.128306 0.552 255 255 255
-0.174691 0.109461 0.652 255 255 255
-0.0987273 0.12169 0.655 255 255 255
-0.249489 -0.0517588 0.602 255 255 255
0.152541 0.167882 0.687 255 255 255
0.41188 -0.342062 0.983 255 255 255
0.135667 0.0671109 0.806 255 255 255
-0.206415 0.181318 0.605 255 255 255
-0.0755005 -0.0383119 0.657 255 255 255
-0.0016552 -0.104525 0.637 255 255 255
0.14209 0.13943 0.719 255 255 255
-0.0243972 0.093925 0.694 255 255 255
-0.0694534 -0.110161 0.622 255 255 255
-0.0669498 -0.0834979 0.627 255 255 255
0.330359 -0.302814 0.96 255 255 255
0.0631423 0.0883745 0.713 255 255 255
-0.113172 0.172519 0.623 255 255 255
-0.100398 0.126437 0.652 255 255 255
-0.150814 0.137986 0.632 255 255 255
-0.15753 -0.140892 0.574 255 255 255
-0.0590999 -0.0301211 0.665 255 255 255
0.0526748 0.167523 0.655 255 255 255
-0.120783 0.225508 0.577 255 255 255
0.0555461 0.130184 0.677 255 255 255
-0.282593 -0.0206811 0.61 255 255 255
0.381851 -0.00395675 0.858 255 255 255
-0.214179 0.146522 0.616 255 255 255
0.298227 0.0728796 0.709 255 255 255
0.0495393 -0.13042 0.642 255 255 255
0.150588 0.105608 0.762 255 255 255
-0.145837 -0.0907124 0.607 0 0 0
-0.00427345 0.056031 0.73 255 255 255
0.148086 0.0565414 0.824 255 255 255
0.0939491 -0.0367291 0.709 255 255 255
0.114826 0.232898 0.606 255 255 255
0.176571 0.160347 0.698 255 255 255
-0.234158 -0.127407 0.552 255 255 255
-0.113167 0.198355 0.612 255 255 255
0.00135956 0.226734 0.595 255 255 255
0.304869 -0.0986019 0.799 255 255 255
0.0447551 -0.220704 0.58 255 255 255
-0.124132 0.210532 0.593 255 255 255
0.458365 -0.275552 0.963 255 255 255
-0.192447 0.120419 0.637 255 255 255
0.119341 -0.218654 0.614 255 255 255
0.16086 0.146594 0.714 255 255 255
0.0320006 -0.154674 0.626 0 0 0
0.191396 -0.136326 0.682 0 0 0
-0.121248 0.038806 0.719 255 255 255
-0.211991 0.00437969 0.646 255 255 255
-0.274926 -0.108294 0.56 255 255 255
0.0515912 0.122446 0.683 255 255 255
-0.175227 0.107668 0.654 255 255 255
0.302928 -0.122127 0.906 255 255 255
-0.27883 0.136787 0.604 255 255 255
0.101845 -0.208678 0.617 255 255 255
-0.0818465 -0.184794 0.574 255 255 255
-0.164066 -0.188219 0.546 255 255 255
-0.117182 0.200685 0.607 255 255 255
-0.151885 0.217617 0.581 255 255 255
-0.164956 -0.0439837 0.631 255 255 255
0.126873 0.202854 0.642 255 255 255
-0.254653 -0.092641 0.576 255 255 255
0.0801079 -0.0441736 0.699 255 255 255
-0.207825 0.158294 0.615 255 255 255
0.142395 -0.119725 0.676 255 255 255
-0.186875 -0.183514 0.54 255 255 255
0.465366 -0.326646 0.93 255 255 255
-0.0758926 -0.101539 0.625 255 255 255
0.391009 -0.342789 0.967 255 255 255
0.342709 0.121368 0.73 255 255 255
-0.199807 -0.187016 0.53 255 255 255
0.0619451 -0.163864 0.63 255 255 255
0.348568 -0.0600357 0.95 255 255 255
0.129286 0.0236203 0.799 255 255 255
-0.0774051 0.223868 0.59 255 255 255
-0.180878 -0.112742 0.583 255 255 255
-0.0776816 -0.114927 0.615 255 255 255
0.136893 -0.115325 0.676 255 255 255
-0.060831 0.212923 0.597 255 255 255
0.279904 0.0876597 0.802 255 255 255
0.150497 -0.152007 0.668 255 255 255
-0.310034 0.0866168 0.64 255 255 255
-0.100814 -0.163411 0.581 255 255 255
-0.299438 -0.00283152 0.614 255 255 255
-0.269567 -0.0665946 0.586 255 255 255
0.0158219 -0.113809 0.631 255 255 255
0.267948 0.0310216 0.86 255 255 255
-0.0911384 -0.104425 0.618 255 255 255
0.0351696 -0.148015 0.628 255 255 255
0.0704403 0.19972 0.642 255 255 255
0.329387 0.147756 0.714 255 255 255
-0.22457 -0.0379875 0.617 255 255 255
0.286881 0.114977 0.775 255 255 255
-0.0700463 0.122943 0.656 255 255 255
-0.138612 -0.12143 0.593 255 255 255
0.127366 -0.107943 0.678 255 255 255
0.312711 -0.202432 0.896 0 0 0
0.091912 0.0276243 0.802 255 255 255
-0.202283 -0.138462 0.546 255 255 255
-0.0546563 0.20333 0.615 255 255 255
0.174041 -0.120731 0.688 255 255 255
0.239041 0.0757249 0.814 255 255 255
-0.0343133 -0.206997 0.576 255 255 255
-0.204631 0.0644604 0.681 255 255 255
0.111261 -0.0482669 0.709 255 255 255
-0.173842 -0.183776 0.546 255 255 255
0.168056 -0.146574 0.673 255 255 255
0.311621 -0.342515 0.932 255 255 255
-0.210095 0.0472093 0.688 255 255 255
0.132706 -0.200772 0.63 255 255 255
-0.238664 -0.168675 0.532 255 255 255
-0.302768 0.104928 0.625 255 255 255
-0.0844593 0.0667321 0.705 255 255 255
0.196611 0.0633227 0.825 255 255 255
-0.262042 -0.0784524 0.582 255 255 255
-0.0118498 0.110865 0.687 255 255 255
-0.270346 -0.0559041 0.594 255 255 255
0.0601383 0.171787 0.655 255 255 255
-0.234129 0.0830049 0.661 255 255 255
0.120747 0.230842 0.611 255 255 255
0.298673 0.237468 0.634 255 255 255
-0.0192524 0.188539 0.636 255 255 255
-0.201395 -0.148235 0.546 255 255 255
0.429674 -0.338768 0.969 255 255 255
0.0629379 0.00608669 0.724 255 255 255
-0.254388 0.167683 0.602 255 255 255
0.00616059 -0.199884 0.591 0 0 0
0.243967 0.157319 0.68 255 255 255
-0.177066 -0.093416 0.599 255 255 255
-0.098701 -0.145065 0.591 255 255 255
-0.237909 -0.0170666 0.623 255 255 255
-0.147235 0.184914 0.617 255 255 255
-0.0256964 -0.0411891 0.669 255 255 255
0.11622 -0.0141158 0.733 255 255 255
-0.105563 -0.0845836 0.62 255 255 255
-0.229095 -0.162698 0.538 255 255 255
-0.117486 0.135779 0.641 255 255 255
-0.1251 0.218741 0.584 255 255 255
-0.227059 0.0297931 0.65 255 255 255
-0.179885 0.114406 0.644 255 255 255
0.261405 0.0521093 0.839 255 255 255
0.273428 0.0894086 0.806 255 255 255
-0.0414878 0.065443 0.716 255 255 255
-0.153124 -0.146752 0.575 255 255 255
0.420601 -0.0756034 0.863 0 0 0
0.174823 -0.142146 0.678 255 255 255
-0.2185 -0.0763317 0.595 0 0 0
-0.185241 0.0709008 0.679 255 255 255
0.0898414 -0.0991163 0.678 255 255 255
-0.146895 -0.178677 0.555 255 255 255
0.282456 -0.167613 0.921 255 255 255
0.329759 0.21037 0.659 255 255 255
-0.234974 -0.199565 0.52 255 255 255
0.307336 0.104084 0.751 255 255 255
-0.154503 -0.0615759 0.622 255 255 255
-0.260024 -0.0392826 0.606 255 255 255
0.164524 -0.148543 0.672 255 255 255
0.289015 -0.0100533 0.904 255 255 255
-0.012036 -0.197576 0.587 255 255 255
-0.15753 -0.13809 0.574 255 255 255
-0.116028 0.181352 0.622 255 255 255
-0.219838 0.143282 0.615 255 255 255
0.0876102 0.23332 0.602 255 255 255
0.022477 -0.202427 0.59 255 255 255
0.00443007 -0.153703 0.618 0 0 0
0.104187 -0.0245461 0.724 255 255 255
-0.205809 0.133563 0.621 255 255 255
-0.242675 0.143579 0.612 255 255 255
0.352463 -0.329883 0.948 255 255 255
-0.105787 0.0840339 0.687 255 255 255
0.0940446 0.189496 0.661 255 255 255
-0.283438 0.00220315 0.625 255 255 255
0.235518 -0.00122396 0.902 255 255 255
-0.109142 0.0406989 0.732 255 255 255
0.123034 -0.190397 0.633 255 255 255
0.049629 -0.00448579 0.719 255 255 255
-0.0864096 0.199676 0.613 255 255 255
-0.0211218 -0.114654 0.63 255 255 255
-0.0969965 -0.200887 0.559 255 255 255
0.279129 0.218411 0.651 255 255 255
-0.270069 -0.00689497 0.62 255 255 255
0.0165553 -0.16429 0.62 255 255 255
-0.154052 -0.018864 0.65 255 255 255
-0.0957544 -0.167559 0.579 255 255 255
-0.0755683 -0.180751 0.576 255 255 255
-0.100966 0.211497 0.593 255 255 255
-0.107552 0.0892324 0.684 255 255 255
-0.161806 0.0531151 0.707 255 255 255
0.429621 -0.306312 0.928 0 0 0
-0.284423 0.0352501 0.634 255 255 255
-0.204443 -0.0393708 0.623 255 255 255
0.270801 0.15559 0.692 255 255 255
0.368177 0.152182 0.724 255 255 255
-0.226819 0.199734 0.584 255 255 255
-0.255368 0.168663 0.602 255 255 255
-0.299423 0.139321 0.598 255 255 255
0.0949511 -0.0909555 0.683 255 255 255
0.165633 -0.169263 0.659 255 255 255
-0.0714394 -0.0319941 0.659 255 255 255
0.351678 0.148647 0.724 255 255 255
0.277293 0.0524216 0.802 0 0 0
0.138003 -0.102668 0.687 255 255 255
-0.0942914 0.0433756 0.737 255 255 255
-0.0545756 -0.0130181 0.676 255 255 255
-0.233549 -0.116311 0.568 0 0 0
-0.210425 -0.0971102 0.586 255 255 255
0.446619 -0.152054 0.975 255 255 255
0.0763132 -0.0308292 0.706 255 255 255
0.148242 -0.00948469 0.744 0 0 0
-0.167384 0.214041 0.579 255 255 255
-0.08213 0.0770955 0.695 255 255 255
0.292455 0.219133 0.65 255 255 255
0.150128 0.0290365 0.843 255 255 255
0.0786176 -0.184281 0.616 255 255 255
0.203716 0.18582 0.675 255 255 255
0.256182 0.236509 0.626 255 255 255
0.297011 -0.0457949 0.884 255 255 255
-0.145157 -0.0766355 0.621 255 255 255
-0.0682212 -0.0523699 0.659 255 255 255
0.0201937 0.221794 0.608 255 255 255
-0.181378 0.101747 0.657 255 255 255
-0.0785658 0.188437 0.622 255 255 255
-0.231424 -0.00394924 0.633 255 255 255
0.292751 0.0520359 0.724 255 255 255
-0.0488836 0.0782048 0.705 255 255 255
-0.15371 0.1974 0.603 255 255 255
0.188032 0.0888067 0.789 255 255 255
0.129661 -0.0579837 0.715 255 255 255
0.24988 0.116305 0.751 255 255 255
0.205938 0.0978227 0.779 255 255 255
-0.237003 0.201544 0.581 255 255 255
0.44295 -0.346297 0.891 255 255 255
-0.134383 -0.208505 0.541 255 255 255
0.269354 0.152178 0.697 255 255 255
0.0674142 -0.223536 0.58 255 255 255
-0.325459 0.0837391 0.65 255 255 255
0.161314 0.200964 0.646 255 255 255
0.174278 0.219235 0.632 255 255 255
0.0239247 -0.144949 0.628 255 255 255
0.198041 0.0597263 0.831 255 255 255
0.267384 0.107687 0.777 255 255 255
0.293933 0.0781057 0.748 255 255 255
-0.155927 -0.0220034 0.649 255 255 255
-0.121118 -0.0211409 0.655 255 255 255
0.0435928 0.218048 0.617 255 255 255
-0.12109 0.140334 0.638 255 255 255
-0.118812 -0.0609532 0.626 255 255 255
-0.0924447 0.0749412 0.696 255 255 255
0.442689 -0.361744 0.963 255 255 255
-0.0844778 -0.0560577 0.652 255 255 255
0.337536 0.109767 0.724 255 255 255
0.378544 -0.231563 0.925 0 0 0
-0.095079 -0.115173 0.611 255 255 255
0.251699 -0.0293616 0.958 255 255 255
-0.220203 0.17738 0.605 255 255 255
0.185507 0.232481 0.618 255 255 255
-0.203037 0.213672 0.568 255 255 255
0.127356 0.213739 0.634 255 255 255
0.292667 0.133415 0.751 255 255 255
-0.147728 0.139015 0.632 255 255 255
0.331173 0.181426 0.675 0 0 0
0.419369 -0.118169 0.997 255 255 255
0.168211 0.234435 0.61 255 255 255
0.527984 -0.189105 1.098 255 255 255
0.187799 0.111808 0.762 255 255 255
0.200272 -0.235788 0.617 255 255 255
-0.188113 -0.154014 0.554 255 255 255
-0.227952 0.134929 0.618 255 255 255
0.0717081 -0.141306 0.644 255 255 255
-0.171982 0.0163384 0.662 255 255 255
-0.227311 0.204266 0.578 255 255 255
0.26433 0.158244 0.684 255 255 255
-0.0113151 0.143226 0.656 255 255 255
0.194282 -0.160944 0.669 255 255 255
0.138198 -0.114394 0.677 255 255 255
0.434287 -0.203544 0.994 255 255 255
-0.15833 0.00125059 0.659 255 255 255
-0.116588 0.162902 0.625 255 255 255
-0.18268 -0.195092 0.538 0 0 0
0.160864 -0.141517 0.675 255 255 255
0.425113 -0.13104 0.984 255 255 255
-0.0939294 -0.209233 0.557 255 255 255
0.343596 0.160808 0.705 255 255 255
-0.284732 0.0976134 0.637 255 255 255
-0.170489 -0.193538 0.541 255 255 255
-0.135402 -0.0853165 0.618 255 255 255
-0.15967 -0.0887369 0.607 0 0 0
0.460361 -0.330196 0.923 255 255 255
0.248759 0.155334 0.681 255 255 255
0.319735 -0.289769 0.938 255 255 255
0.0835214 -0.0498611 0.699 255 255 255
-0.235642 -0.160319 0.533 255 255 255
-0.25184 0.202621 0.576 255 255 255
0.367787 0.00590512 0.871 0 0 0
0.34313 0.136738 0.736 255 255 255
-0.155231 -0.199332 0.54 255 255 255
0.297679 0.223051 0.643 255 255 255
0.266858 0.0268543 0.861 255 255 255
0.162414 -0.16819 0.659 255 255 255
-0.0451345 0.175084 0.636 255 255 255
-0.0993373 0.0382118 0.73 255 255 255
0.436794 -0.350101 0.924 255 255 255
-0.0872585 0.133249 0.649 255 255 255
0.214341 0.113238 0.755 255 255 255
0.155717 -0.0155592 0.745 255 255 255
0.284508 0.086676 0.793 255 255 255
-0.256672 0.217301 0.556 255 255 255
-0.175494 0.102057 0.659 255 255 255
0.235425 0.230029 0.625 255 255 255
-0.166425 -0.157432 0.563 255 255 255
0.400351 0.0241228 0.816 255 255 255
0.265327 -0.12305 0.924 255 255 255
0.550752 -0.256905 1.09 255 255 255
-0.265022 -0.00689497 0.62 255 255 255
-0.163797 -0.0932128 0.604 255 255 255
-0.0984223 -0.048183 0.646 255 255 255
-0.18273 -0.176668 0.546 255 255 255
-0.0318751 0.181392 0.64 255 255 255
0.161921 0.191556 0.657 255 255 255
0.373155 0.00305621 0.867 255 255 255
-0.243659 -0.00188009 0.63 255 255 255
-0.122128 -0.0486246 0.638 255 255 255
-0.139056 0.156003 0.63 255 255 255
0.0334566 -0.0305236 0.699 255 255 255
0.319581 -0.00685151 0.871 255 255 255
0.164647 -0.0143854 0.747 255 255 255
0.137833 -0.202823 0.63 255 255 255
0.164735 0.0212303 0.807 255 255 255
0.324286 0.06605 0.686 255 255 255
-0.274993 0.206842 0.562 255 255 255
-0.241167 -0.172562 0.528 255 255 255
-0.181804 -0.195092 0.538 255 255 255
-0.0834939 -0.10291 0.621 255 255 255
-0.222273 -0.191596 0.526 255 255 255
-0.140485 -0.0261067 0.646 255 255 255
-0.0790434 -0.182926 0.574 255 255 255
-0.190394 -0.101878 0.586 255 255 255
-0.124533 -0.190761 0.556 255 255 255
0.00044162 -0.0523094 0.672 255 255 255
-0.307107 0.0684991 0.656 255 255 255
0.228598 0.216773 0.643 255 255 255
-0.144923 -0.0734853 0.62 255 255 255
-0.207336 0.051838 0.69 255 255 255
-0.0925333 0.0046102 0.68 255 255 255
-0.244589 -0.0537181 0.602 255 255 255
0.330011 -0.313573 0.95 255 255 255
0.0645735 0.0829205 0.716 255 255 255
0.0772369 0.22262 0.613 255 255 255
0.302049 -0.099402 0.795 255 255 255
-0.167672 0.0971352 0.662 255 255 255
-0.216835 0.155291 0.615 255 255 255
-0.178983 0.0957677 0.66 255 255 255
-0.120736 -0.114042 0.605 255 255 255
-0.135204 0.137824 0.636 255 255 255
0.365948 -0.291912 0.955 255 255 255
0.0907689 -0.0878777 0.685 255 255 255
0.336688 -0.285784 0.93 255 255 255
0.334646 -0.335204 0.937 255 255 255
-0.129267 -0.135218 0.59 255 255 255
-0.118905 0.225508 0.577 255 255 255
-0.129684 0.222521 0.579 255 255 255
-0.13959 0.219508 0.581 255 255 255
0.194992 -0.169466 0.664 255 255 255
0.170508 -0.234662 0.622 255 255 255
-0.121892 0.102824 0.671 255 255 255
-0.024441 0.0559543 0.729 255 255 255
-0.22511 -0.0437266 0.613 255 255 255
-0.133606 0.0946489 0.675 255 255 255
-0.192667 0.149732 0.621 255 255 255
-0.214094 0.072034 0.669 255 255 255
-0.00366463 -0.122076 0.626 255 255 255
-0.225882 -0.113407 0.572 0 0 0
0.00350719 -0.109019 0.633 255 255 255
-0.227689 -0.140352 0.543 255 255 255
0.495591 -0.252738 0.984 255 255 255
-0.256189 -0.101701 0.569 255 255 255
-0.285272 0.148822 0.601 255 255 255
-0.0495548 -0.215214 0.568 255 255 255
0.0369178 -0.160016 0.623 255 255 255
0.0643029 0.0895348 0.713 255 255 255
0.183906 -0.167053 0.663 255 255 255
0.00460928 0.185382 0.643 255 255 255
0.0610254 -0.0306546 0.702 255 255 255
-0.127166 -0.0636003 0.622 255 255 255
0.10235 0.22698 0.614 255 255 255
-0.089614 0.0386305 0.738 255 255 255
-0.0990257 -0.102247 0.617 255 255 255
0.276863 0.235596 0.629 255 255 255
0.0533429 0.0530354 0.755 255 255 255
0.173674 -0.0252242 0.744 255 255 255
-0.252834 0.20472 0.574 255 255 255
-0.180593 -0.0878597 0.601 255 255 255
0.0605327 0.213079 0.626 255 255 255
-0.16882 -0.106169 0.594 255 255 255
0.0335551 0.129273 0.678 255 255 255
-0.0771565 -0.201917 0.567 255 255 255
0.298323 -0.0378782 0.901 255 255 255
0.291506 0.216555 0.655 255 255 255
0.0347216 0.211037 0.62 255 255 255
0.100525 0.229096 0.609 255 255 255
-0.00481831 -0.0972898 0.644 255 255 255
0.0241128 -0.181589 0.607 255 255 255
0.278806 -0.15408 0.939 255 255 255
-0.304462 0.191097 0.578 255 255 255
-0.18417 -0.178118 0.545 0 0 0
-0.228048 0.129521 0.621 255 255 255
-0.0235407 -0.0893951 0.64 255 255 255
-0.100506 0.208687 0.596 255 255 255
0.178502 0.0630925 0.822 255 255 255
-0.208242 -0.132316 0.55 255 255 255
0.0214273 -0.171973 0.615 255 255 255
-0.101469 0.111812 0.666 255 255 255
-0.285817 0.182854 0.594 255 255 255
-0.287047 0.00524599 0.624 255 255 255
-0.0659919 0.220401 0.591 255 255 255
0.248091 0.0651356 0.831 255 255 255
-0.26805 -0.00588602 0.62 255 255 255
0.422384 -0.31757 1.012 255 255 255
-0.202756 -0.0789259 0.6 0 0 0
-0.104863 0.0505065 0.719 255 255 255
0.359693 -0.0139545 0.872 255 255 255
-0.0822071 -0.160181 0.59 255 255 255
-0.123815 0.114752 0.658 255 255 255
-0.169963 0.142104 0.623 255 255 255
-0.283231 -0.0313415 0.605 255 255 255
-0.105941 0.0830366 0.688 255 255 255
0.209603 0.208234 0.649 255 255 255
-0.0809473 0.193951 0.617 255 255 255
-0.0782451 -0.181373 0.575 255 255 255
0.0729575 0.064197 0.742 255 255 255
-0.168154 0.194134 0.602 255 255 255
-0.1593 -0.157628 0.567 255 255 255
-0.141931 -0.0979649 0.603 255 255 255
-0.234707 0.118717 0.628 255 255 255
-0.283547 0.201438 0.57 255 255 255
-0.296512 -0.0166557 0.608 255 255 255
-0.229348 0.157264 0.611 255 255 255
-0.018533 0.056031 0.73 255 255 255
-0.220996 -0.192941 0.525 255 255 255
0.0616718 -0.108299 0.66 255 255 255
-0.0069364 -0.0870794 0.646 255 255 255
0.341766 0.0790149 0.692 255 255 255
0.0290532 -0.181589 0.607 0 0 0
-0.185803 -0.184194 0.542 255 255 255
-0.248779 -0.0860292 0.582 255 255 255
-0.15933 -0.201594 0.539 255 255 255
-0.110483 0.17409 0.625 255 255 255
-0.254372 0.148821 0.609 255 255 255
-0.0500736 0.184559 0.633 255 255 255
0.0587751 -0.156439 0.629 255 255 255
0.16936 0.237233 0.607 255 255 255
-0.0586439 0.127771 0.648 255 255 255
-0.160252 0.0251452 0.667 255 255 255
0.272285 -0.0890522 0.795 255 255 255
-0.285045 0.12843 0.611 255 255 255
0.37331 -0.168253 0.95 0 0 0
-0.24843 -0.113656 0.564 255 255 255
0.188395 -0.211628 0.638 255 255 255
0.040345 -0.151321 0.629 255 255 255
-0.223987 -0.192573 0.524 255 255 255
-0.037188 0.111949 0.68 255 255 255
0.103456 -0.177006 0.633 255 255 255
0.168305 0.111221 0.758 255 255 255
-0.144285 0.191696 0.613 255 255 255
0.0592903 -0.180392 0.603 255 255 255
0.0542333 0.160453 0.661 255 255 255
0.342754 0.0894076 0.694 255 255 255
0.10704 -0.207005 0.618 255 255 255
0.266293 0.131879 0.729 255 255 255
0.0916531 -0.207337 0.616 255 255 255
0.283739 -0.1219 0.883 255 255 255
-0.0440773 -0.0378096 0.667 0 0 0
-0.0114359 -0.0677926 0.663 255 255 255
0.0738976 0.0852508 0.716 255 255 255
-0.285057 0.206842 0.562 255 255 255
0.333152 -0.222375 0.9 255 255 255
0.323931 0.169738 0.69 0 0 0
-0.13818 0.121819 0.65 255 255 255
0.0198948 -0.192842 0.599 255 255 255
0.24363 0.182792 0.664 255 255 255
0.129825 -0.206628 0.626 255 255 255
-0.0332689 0.194033 0.627 255 255 255
0.409822 0.0108837 0.819 255 255 255
0.129274 -0.23273 0.609 255 255 255
0.098512 -0.210003 0.615 255 255 255
-0.150413 0.122498 0.648 255 255 255
-0.203363 -0.00296065 0.642 255 255 255
-0.326586 0.121241 0.62 255 255 255
0.452769 -0.238465 0.978 255 255 255
-0.162644 0.133264 0.634 255 255 255
0.261039 0.240445 0.623 255 255 255
-0.170683 0.107093 0.657 255 255 255
0.315241 0.00725527 0.863 255 255 255
-0.18623 0.127297 0.63 255 255 255
-0.235708 0.194763 0.592 255 255 255
0.262715 0.236887 0.627 255 255 255
0.40142 -0.263269 0.947 255 255 255
0.115272 -0.19257 0.63 255 255 255
0.321895 -0.149738 0.931 255 255 255
0.347714 0.00450317 0.874 0 0 0
-0.101998 0.225508 0.577 255 255 255
-0.0355775 -0.133724 0.614 255 255 255
-0.184674 -0.11369 0.583 255 255 255
0.395792 -0.22283 0.952 255 255 255
-0.176057 0.188463 0.609 255 255 255
-0.221094 -0.165672 0.542 255 255 255
-0.299201 -0.0505551 0.588 255 255 255
-0.135214 -0.0146555 0.651 255 255 255
0.0390954 0.013065 0.719 255 255 255
0.353995 -0.0197882 0.879 255 255 255
0.139662 -0.203524 0.629 255 255 255
-0.0516584 0.0194427 0.696 255 255 255
-0.19788 -0.0763767 0.603 255 255 255
-0.091853 -0.00421128 0.675 255 255 255
-0.3042 0.0554539 0.666 255 255 255
-0.258932 0.0851882 0.653 255 255 255
0.186125 -0.153782 0.671 255 255 255
-0.0194202 -0.0273999 0.678 255 255 255
0.0155215 -0.0838498 0.662 255 255 255
0.376223 -0.234066 0.923 0 0 0
0.481175 -0.247934 0.984 255 255 255
0.283827 0.110216 0.777 255 255 255
0.256948 0.0406283 0.856 255 255 255
-0.207485 -0.155021 0.548 255 255 255
-0.174628 0.086058 0.668 255 255 255
0.461326 -0.217792 1 255 255 255
-0.290172 0.177353 0.595 255 255 255
-0.165081 -0.110442 0.591 255 255 255
0.0676884 -0.037402 0.7 255 255 255
0.0538573 0.0860539 0.713 255 255 255
0.353794 0.0396981 0.714 255 255 255
0.0324168 -0.108545 0.655 255 255 255
0.297465 0.0907796 0.773 0 0 0
-0.191979 -0.177138 0.542 0 0 0
-0.0399493 -0.175543 0.59 255 255 255
-0.241145 -0.12057 0.562 255 255 255
0.148781 0.0801225 0.792 255 255 255
0.0916007 0.0806452 0.727 255 255 255
0.415055 -0.0581438 0.875 255 255 255
-0.31573 -0.00869722 0.605 255 255 255
-0.044862 0.143367 0.647 255 255 255
0.104652 0.213739 0.634 255 255 255
-0.0997818 -0.0409506 0.648 255 255 255
-0.206154 0.13817 0.619 255 255 255
0.0404092 -0.144385 0.63 255 255 255
0.151457 -0.162581 0.658 255 255 255
0.27124 -0.0848633 0.934 255 255 255
0.282759 0.0431238 0.799 255 255 255
-0.207762 -0.0884708 0.592 0 0 0
-0.212736 0.165669 0.609 255 255 255
0.0643049 -0.117957 0.654 255 255 255
0.137189 0.0551335 0.823 255 255 255
-0.23908 -0.168358 0.531 255 255 255
-0.115286 -0.0551038 0.629 255 255 255
0.164231 -0.167878 0.662 255 255 255
-0.142851 -0.00937287 0.652 255 255 255
0.288415 0.121595 0.769 255 255 255
0.154383 0.075819 0.801 255 255 255
0.361526 -0.0168118 0.873 255 255 255
0.334733 0.176131 0.68 255 255 255
-0.0355917 -0.0965055 0.632 255 255 255
-0.146235 0.142676 0.63 255 255 255
-0.0296053 0.189574 0.636 255 255 255
0.400232 -0.0668382 0.937 255 255 255
0.241315 -0.0209364 0.93 255 255 255
-0.0896889 0.161897 0.629 255 255 255
0.296575 -0.0445068 0.887 255 255 255
0.0973907 0.230698 0.608 255 255 255
0.359527 -0.317611 0.967 255 255 255
0.408853 -0.0635707 0.912 0 0 0
0.0524885 -0.2101 0.582 255 255 255
0.0804922 0.221345 0.615 255 255 255
-0.180207 0.165759 0.613 255 255 255
0.123312 -0.124831 0.668 255 255 255
0.0640078 0.122804 0.685 255 255 255
-0.06946 0.0607823 0.716 255 255 255
-0.238519 0.174138 0.604 255 255 255
0.139365 0.209567 0.637 255 255 255
0.265247 0.172639 0.675 255 255 255
0.231258 0.233986 0.622 255 255 255
-0.264701 0.11593 0.624 255 255 255
-0.141764 -0.163164 0.567 255 255 255
0.426785 -0.287897 0.952 0 0 0
