ply
format ascii 1.0
comment Created by Open3D
element vertex 1313
property double x
property double y
property double z
property uchar red
property uchar green
property uchar blue
end_header
-0.113469 -0.122752 1.351 140 131 126
0.00478142 -0.0175669 1.222 173 159 153
0.344933 0.265043 0.904 139 135 136
-0.742882 -0.133984 1.758 67 31 8
0.215031 0.0662133 1.013 123 117 119
-0.10954 -0.0624065 1.33 135 123 121
-0.754652 0.266823 1.779 53 19 0
0.336047 0.116889 0.896 104 105 99
0.259321 -0.03916 0.969 129 118 122
-0.802597 -0.200413 1.668 82 35 11
-0.525878 -0.0776845 1.779 158 139 126
-0.673249 -0.272076 1.763 82 35 13
-0.0535822 0.450288 1.286 139 130 121
0.207707 0.225756 1.034 144 135 128
-0.240591 0.32159 1.484 114 101 88
0.404127 -0.188422 0.805 117 121 116
-0.763349 0.538787 1.714 43 12 3
0.293778 0.0887868 0.938 180 173 167
-0.743345 0.198565 1.739 56 22 2
-0.733442 -0.289339 1.729 77 34 9
0.16243 0.376985 1.057 112 103 86
-0.615364 -0.198053 1.821 123 111 109
-0.730646 0.221388 1.763 54 20 0
-0.0624855 0.460471 1.297 139 130 121
0.0815325 0.316033 1.128 126 108 97
-0.222898 -0.544804 1.463 172 163 158
-0.14746 0.458831 1.381 139 129 117
-0.712102 0.156371 1.774 60 24 3
0.296206 -0.221397 0.908 133 128 126
-0.672619 0.406486 1.848 22 13 0
-0.162347 -0.171905 1.393 162 152 152
0.404127 -0.0862423 0.805 110 111 105
0.293185 0.138073 0.941 111 104 96
0.276101 0.218996 0.967 172 169 153
-0.672619 -0.537808 1.848 173 155 146
0.231332 -0.0948803 0.991 123 118 114
-0.307419 0.375883 1.528 139 128 121
-0.696768 0.210684 1.794 54 20 0
0.407156 0.208135 0.819 91 103 93
-0.494239 0.130647 1.739 143 130 119
0.237607 -0.316126 0.977 180 171 164
0.295814 -0.116282 0.93 191 187 180
-0.0803548 -0.0680188 1.313 142 127 128
0.00678722 -0.0116296 1.225 190 178 176
0.340355 0.215075 0.892 141 140 125
-0.243162 -0.0777962 1.456 142 130 128
-0.0941545 -0.354238 1.297 204 195 190
0.103534 0.353703 1.108 113 104 87
0.273052 -0.229502 0.935 143 135 132
0.162891 0.0761852 1.06 171 160 153
-0.317914 0.450849 1.555 139 126 115
0.237536 0.304338 0.939 149 142 134
0.382901 -0.102427 0.83 170 166 159
0.232946 0.0502611 0.991 111 110 110
0.418532 0.255811 0.831 128 133 123
0.214969 0.378064 1.005 109 102 85
0.409579 -0.0813042 0.808 109 112 115
0.0899091 -0.38722 1.118 199 189 187
-0.153199 -0.305508 1.372 176 161 162
0.254548 0.0673144 0.981 114 110 103
0.328387 0.0279147 0.895 161 150 145
-0.339949 0.0850063 1.575 169 158 151
0.0722659 0.363383 1.156 114 102 86
-0.109293 -0.295488 1.327 190 180 178
0.197226 -0.0433854 1.032 127 119 116
-0.58939 -0.0553212 1.805 141 128 115
0.194421 0.141294 1.044 177 170 162
-0.618743 -0.547759 1.831 172 157 147
-0.324638 0.0309448 1.563 139 128 123
0.0563832 -0.24314 1.178 151 142 137
-0.205187 0.405508 1.439 142 126 121
0.00890314 0.157985 1.242 128 121 115
-0.192143 -0.459176 1.412 179 169 167
-0.719112 0.634653 1.821 39 20 3
0.171503 0.341821 1.039 108 101 84
0.0623678 -0.193811 1.147 185 171 167
-0.523867 0.435024 1.734 128 122 109
-0.00116767 0.301807 1.203 120 111 92
-0.368928 0.504101 1.612 133 122 113
0.0556174 0.340686 1.162 115 103 85
0.202266 0.131272 1.032 135 131 122
-0.248413 -0.21329 1.459 154 142 140
0.376587 -0.156078 0.828 136 137 126
-0.341676 0.564585 1.583 127 121 108
0.239931 -0.309123 0.98 177 173 166
-0.00722389 -0.0940482 1.234 146 131 130
0.138219 -0.188284 1.083 176 164 164
0.256414 -0.0844516 0.964 118 116 108
-0.462023 -0.17247 1.714 169 153 146
-0.634888 -0.192654 1.826 87 72 71
0.148255 0.0891474 1.092 123 113 111
-0.0257124 0.257464 1.254 202 191 182
0.397943 -0.054622 0.822 112 113 102
0.0388927 0.0365231 1.171 132 122 122
-0.755418 0.528779 1.774 45 21 0
0.301647 0.269279 0.934 177 172 152
-0.760854 -0.217577 1.696 82 30 8
0.14024 -0.273383 1.085 190 181 176
0.292401 -0.0779401 0.924 121 113 112
0.337763 -0.0200134 0.889 113 111 103
0.145539 0.256313 1.085 183 174 157
0.35598 -0.0531333 0.863 115 117 106
0.41374 -0.0499317 0.811 108 115 107
-0.150306 -0.506459 1.366 201 194 188
-0.803305 0.268539 1.734 52 18 0
0.149346 0.221407 1.087 146 137 128
0.313458 0.221287 0.924 175 169 156
-0.487169 -0.187503 1.724 164 145 139
-0.20228 0.18487 1.435 135 121 117
0.269635 -0.290078 0.939 143 138 134
0.3616 0.0634307 0.863 106 107 96
0.0948952 0.0214418 1.18 154 145 140
-0.0323186 0.236505 1.273 186 171 159
0.0579543 0.446227 1.171 139 131 119
-0.730637 -0.0227429 1.784 71 28 3
0.127534 0.289879 1.053 178 164 156
-0.454779 -0.52352 1.677 184 168 161
0.0448779 0.460397 1.178 138 131 125
0.21975 -0.174955 0.997 169 158 151
0.292401 -0.0568889 0.924 116 116 110
0.308145 -0.217479 0.904 132 124 121
-0.668787 -0.0514842 1.774 69 29 5
-0.647142 -0.0938306 1.87 97 87 73
0.194242 0.0844125 1.034 121 111 111
-0.0837271 -0.426657 1.299 206 197 192
0.377023 -0.117471 0.841 127 122 118
-0.415227 0.314602 1.65 110 96 81
-0.785164 0.554346 1.719 39 14 0
0.280675 -0.269137 0.93 141 136 134
0.366488 -0.280414 0.858 133 129 120
0.00480098 0.23994 1.227 178 165 154
0.302296 -0.0755264 0.913 115 112 109
-0.412415 0.0587275 1.705 148 137 132
-0.430994 -0.544899 1.659 186 177 170
-0.706637 0.729824 1.899 29 16 3
-0.256807 -0.10798 1.48 178 168 166
-0.583513 0.0768586 1.805 134 123 114
-0.609435 -0.174346 1.821 132 118 114
0.201363 0.222821 1.036 144 135 126
-0.649954 -0.721121 1.887 162 153 144
0.320019 0.339634 0.88 114 111 97
-0.183856 -0.528418 1.419 178 170 169
-0.359756 -0.0022281 1.642 139 131 128
0.365693 -0.302154 0.837 171 166 164
0.142268 0.0162141 1.087 127 115 113
-0.481554 -0.334246 1.714 170 154 147
-0.696854 -0.303407 1.729 79 31 14
-0.244761 -0.488514 1.48 178 170 167
-0.126097 0.271425 1.322 122 100 90
-0.844879 -0.379474 1.599 53 28 10
-0.83694 0.116722 1.624 51 22 12
-0.780177 -0.298501 1.655 87 36 7
-0.260387 -0.217734 1.473 158 146 144
-0.9457 -0.795636 2.204 152 137 125
0.0105378 -0.348644 1.198 205 197 196
-0.216899 0.346965 1.439 115 100 88
-0.113185 -0.358914 1.322 203 192 187
-0.509854 0.622007 1.744 124 114 102
0.335003 0.234409 0.905 140 136 129
-0.0091952 0.112332 1.229 158 147 142
-0.671605 -0.483787 1.837 180 163 149
0.19283 -0.35932 1.009 148 144 145
0.137472 -0.0671337 1.12 194 185 180
0.332232 -0.108845 0.882 184 177 169
-0.819664 -0.270429 1.616 84 38 11
-0.818805 0.00312364 1.646 67 26 5
-0.65323 -0.0999168 1.87 74 65 60
-0.58939 -0.0259479 1.805 141 126 116
-0.764401 0.346547 1.729 47 19 0
-0.663562 0.0743308 1.815 47 18 4
-0.425545 0.0940189 1.691 144 130 124
-0.0805384 0.456509 1.316 140 131 122
-0.738339 0.642601 1.81 42 19 0
0.224158 0.261764 1.017 176 168 154
0.200197 0.209797 1.03 178 169 160
-0.667436 0.102414 1.842 33 15 4
-0.498463 0.0992314 1.734 143 129 121
-0.0850162 0.397449 1.319 142 132 118
-0.0991604 0.01558 1.336 130 119 123
0.376407 0.296938 0.852 160 165 153
-0.353821 -0.195212 1.603 164 153 148
-0.751756 0.524479 1.779 48 18 0
-0.104735 -0.324984 1.324 160 150 148
0.414454 0.223034 0.815 133 137 130
0.369989 -0.0163689 0.85 106 106 102
0.171194 0.317818 1.027 113 107 92
0.208425 0.350261 1.005 108 102 89
-0.186836 0.0614017 1.442 130 120 120
-0.102813 -0.0903387 1.327 195 186 177
-0.124465 0.145468 1.351 129 122 116
0.230062 -0.274964 0.972 139 134 132
0.222502 0.177359 1.017 108 106 98
0.056479 -0.305 1.18 161 152 147
-0.823176 0.474917 1.705 51 17 5
0.392491 -0.14905 0.819 119 115 106
-0.673567 -0.14427 1.779 73 30 5
-0.506779 0.230752 1.705 150 127 122
-0.544107 -0.507333 1.763 172 159 146
-0.411611 -0.295417 1.668 162 151 146
-0.768194 0.241707 1.744 52 20 0
0.319129 0.227055 0.923 170 168 158
-0.591022 0.412854 1.81 126 116 102
-0.293261 0.349444 1.532 113 98 88
-0.0823037 -0.0145684 1.31 170 153 155
0.010749 0.121635 1.222 183 169 165
0.344548 0.321108 0.832 100 91 86
-0.669412 0.441482 1.831 20 12 0
0.204133 -0.253593 1 187 179 176
-0.491397 0.0764361 1.729 149 131 120
-0.477646 0.662753 1.71 122 114 102
-0.820762 0.459692 1.7 43 20 0
-0.730646 0.436562 1.763 49 14 0
0.380594 -0.209214 0.825 122 119 116
0.340355 0.135238 0.892 105 105 101
0.0330609 0.298473 1.167 100 90 78
-0.728892 0.266153 1.794 53 17 0
0.24222 -0.299654 0.97 160 153 147
-0.212214 0.45 1.439 143 130 119
-0.437355 0.632077 1.673 123 114 105
-0.440078 0.359825 1.673 137 124 113
0.372431 -0.323526 0.843 138 134 135
-0.206519 -0.377127 1.432 196 187 182
0.322897 -0.228234 0.9 143 136 128
0.118389 0.434602 1.112 137 130 120
-0.317096 -0.357987 1.551 167 155 153
0.10886 -0.158935 1.165 171 155 152
-0.630504 -0.149865 1.848 108 103 85
0.346841 0.204788 0.879 106 107 98
-0.147323 -0.503864 1.359 202 195 189
0.137453 0.0370965 1.077 126 116 114
0.239197 0.337323 0.977 102 95 74
-0.852325 -0.556829 1.935 152 156 151
0.178611 -0.101361 1.041 129 119 117
-0.818303 -0.158615 1.629 77 34 9
-0.211624 -0.100026 1.435 185 174 169
0.393974 0.264738 0.851 139 138 123
0.352989 -0.053318 0.866 113 114 101
0.0723517 -0.319094 1.128 194 184 184
-0.738639 -0.755341 1.985 158 147 138
-0.0357182 -0.164034 1.247 147 135 133
0.204895 -0.149113 1.02 129 125 118
-0.0150238 -0.345682 1.215 206 197 192
0.254772 -0.365358 0.952 179 171 168
-0.142689 -0.202795 1.357 149 137 137
-0.570916 0.308217 1.784 129 120 113
-0.626177 0.359338 1.853 112 104 90
-0.640451 -0.482106 1.842 153 141 125
0.377441 -0.281666 0.845 126 126 120
0.308335 -0.253465 0.896 170 169 169
0.164927 0.0797854 1.062 127 115 115
-1.11357 -0.775526 2.338 136 129 112
-0.176054 0.197992 1.412 138 128 128
0.0832672 -0.129042 1.152 180 169 164
0.149725 0.410407 1.077 136 128 116
0.109234 0.186746 1.169 153 142 135
0.34431 -0.286837 0.869 142 131 135
-0.76316 0.532496 1.739 44 16 0
0.311767 0.264045 0.937 148 142 129
-0.849576 0.518798 1.659 31 18 5
-0.688425 -0.569034 1.842 171 156 144
0.242055 0.228553 1.002 141 134 126
0.234666 -0.380111 0.978 186 181 179
-0.0963323 0.339395 1.327 115 102 89
0.0483408 0.390297 1.169 135 124 115
0.164359 -0.0911831 1.081 131 123 122
0.0531726 0.155504 1.192 131 120 115
0.377052 -0.295997 0.835 169 167 157
0.301453 -0.167832 0.906 164 160 153
-0.49984 -0.323102 1.729 161 143 132
0.222548 -0.0855481 0.995 120 117 114
0.0803322 -0.358645 1.137 167 158 153
-0.852211 -0.453979 1.633 191 186 182
0.0666207 0.21665 1.156 142 130 128
-0.66872 0.216818 1.821 41 12 2
0.36799 0.168586 0.855 116 117 108
0.275455 -0.256187 0.938 198 194 187
0.353609 0.0186617 0.871 145 148 147
-0.528256 0.400993 1.758 130 120 106
-0.216047 0.30929 1.449 111 101 89
0.159946 -0.0556894 1.075 165 155 155
-0.712234 0.0546754 1.753 63 22 3
0.280931 -0.0671235 0.941 123 115 112
-0.382996 0.41331 1.616 140 126 111
-1.08613 -0.872248 2.312 129 129 109
0.0166207 -0.0313068 1.215 136 126 124
0.152826 -0.331532 1.062 201 191 189
-0.362847 -0.202555 1.62 164 149 148
-0.0745157 0.305888 1.286 108 96 80
0.133953 0.0236968 1.106 127 120 114
0.339687 0.194775 0.879 101 102 96
-0.777314 0.246674 1.739 47 17 1
0.271163 -0.235068 0.939 171 162 155
0.0568655 -0.411045 1.149 211 202 197
0.274804 -0.192691 0.941 143 140 137
0.185696 -0.397989 1.024 203 194 189
0.263792 -0.352593 0.951 142 139 136
-0.00313112 -0.342837 1.205 204 195 190
0.356296 -0.089024 0.857 119 116 102
-0.11387 -0.317799 1.33 161 151 151
0.307924 0.281747 0.93 157 156 139
-0.473736 -0.559811 1.696 181 170 163
0.404 -0.222546 0.81 159 160 154
0.375243 -0.314643 0.834 180 172 169
-0.10196 -0.301605 1.316 164 152 150
-0.347732 -0.142683 1.599 156 144 144
-0.27441 -0.567113 1.484 185 181 172
0.192559 0.200516 1.034 161 151 139
-0.499758 0.235609 1.7 115 91 79
0.20884 -0.289781 1.007 145 137 134
0.245558 0.0129834 0.977 185 177 174
0.414141 0.174389 0.817 106 106 100
0.0595538 -0.155144 1.165 144 136 133
-0.657653 0.0477484 1.815 37 20 4
0.0333726 -0.277645 1.178 203 194 189
-0.308828 -0.519158 1.535 189 182 174
-0.734469 0.555768 1.815 43 18 0
-0.68114 0.263967 1.799 55 23 3
-0.321185 0.107799 1.571 131 121 121
-0.071204 -0.00812309 1.302 140 124 129
-0.340643 0.239749 1.532 197 182 170
0.177028 0.237054 1.062 145 138 130
0.0615557 0.247198 1.167 175 161 157
0.321183 0.308327 0.849 170 166 157
0.174695 -0.146385 1.048 131 123 120
0.309438 0.139486 0.93 109 111 100
0.0873199 -0.291272 1.156 159 149 147
0.404884 0.281121 0.842 168 169 160
0.0785177 0.129232 1.165 187 173 169
-0.577037 0.0530348 1.794 140 127 116
0.0488784 -0.317058 1.182 169 154 153
-0.166523 0.158715 1.39 152 142 140
-0.560629 -0.0429442 1.779 149 131 120
0.088604 0.0652183 1.173 186 177 172
-0.712169 0.630452 1.826 46 16 0
-0.791643 0.0857634 1.691 59 25 5
-0.748159 0.553153 1.724 46 18 1
-0.0150238 0.267251 1.215 206 195 186
0.0687395 -0.0751944 1.16 188 178 166
-0.44113 -0.419817 1.677 177 164 153
-0.0805384 0.0817353 1.316 129 119 119
0.307352 -0.13687 0.906 117 117 111
0.396411 0.212282 0.83 117 124 102
0.302722 -0.317927 0.901 199 195 188
-0.0912494 0.343006 1.316 115 103 85
-0.388729 0.509417 1.629 134 123 114
-0.0296761 0.463755 1.249 137 128 119
-0.707405 0.107899 1.784 64 25 5
-0.428294 0.540396 1.659 127 121 108
-0.434631 -0.465099 1.673 179 172 164
-0.746476 0.414117 1.753 47 17 0
-0.792015 0.514034 1.734 49 16 0
-0.81568 -0.252602 1.603 84 37 13
0.298094 -0.0403051 0.923 159 148 143
-0.422792 0.162814 1.691 144 130 122
0.325655 0.268562 0.916 174 174 154
-0.45205 -0.488043 1.677 183 170 157
-0.373396 -0.613814 1.62 189 181 178
0.162123 -0.344798 1.055 157 149 146
-0.698079 -0.594802 1.876 163 149 130
-0.0173374 0.464075 1.239 138 127 118
-0.851748 -0.0153037 1.612 61 27 7
-0.407169 0.376359 1.65 137 124 111
0.334602 0.24173 0.916 138 136 124
0.135999 -0.00871581 1.108 136 125 129
0.104387 0.312988 1.098 118 112 97
-0.480139 0.183355 1.729 161 151 137
-0.787413 -0.322877 1.642 84 35 7
0.352332 0.126545 0.882 106 104 92
-0.197195 0.410526 1.432 143 128 118
-0.860186 0.00309897 1.633 58 22 3
0.377351 0.113788 0.851 102 103 97
-0.133261 -0.27445 1.351 175 162 166
-0.428297 -0.106863 1.691 158 144 138
-0.0788728 0.0154401 1.324 129 119 117
0.15176 0.0547243 1.079 119 114 112
0.335483 -0.15495 0.883 117 117 111
-0.248399 0.156207 1.473 164 153 146
0.382044 0.0398689 0.84 107 105 97
-0.580837 -0.70542 1.815 178 163 153
0.109608 -0.3051 1.173 183 171 169
-0.854298 0.2695 1.637 47 17 0
0.15929 -0.0341805 1.059 125 118 112
0.252213 0.0271528 0.972 115 111 112
-0.159045 0.0364098 1.384 177 165 163
0.389123 -0.186617 0.826 118 125 119
0.126109 -0.313134 1.07 189 179 179
0.19403 -0.342998 1.024 149 146 143
-0.250286 -0.408664 1.47 169 157 157
0.398726 0.00812783 0.81 109 110 101
0.350978 -0.292157 0.868 162 158 159
0.0294873 0.029024 1.176 131 123 122
-0.20228 0.537488 1.435 136 123 110
-0.775079 0.581757 1.734 42 17 0
-0.0195573 0.252978 1.252 170 154 149
0.0451446 -0.302436 1.185 159 149 147
0.0372709 0.401651 1.18 142 133 124
0.0352901 -0.360076 1.178 168 156 154
0.0372709 0.415093 1.18 141 130 121
0.188648 -0.251944 1.013 185 173 173
0.126751 0.268473 1.106 148 141 133
-0.371674 0.497282 1.624 136 123 110
0.147285 -0.27883 1.072 152 144 141
0.407758 0.0396158 0.807 114 109 107
-0.106729 -0.318039 1.322 161 151 151
-0.0867668 -0.0359686 1.313 137 125 123
0.334115 0.0319955 0.887 119 113 115
-0.789332 -0.240627 1.646 85 36 10
-0.248399 0.295236 1.473 108 96 80
0.332296 -0.0372476 0.886 154 150 143
-0.502655 -0.337171 1.729 165 146 144
-1.11357 -0.851619 2.338 135 132 118
-0.729355 -0.202068 1.753 75 30 5
0.166958 -0.124806 1.053 188 176 174
-0.238913 -0.303512 1.459 192 180 178
-0.354257 -0.495281 1.629 173 164 159
-0.793936 -0.0801066 1.65 72 30 2
-0.672734 0.489134 1.865 16 24 13
-0.469318 0.553751 1.7 126 116 102
0.0764797 0.279777 1.108 204 195 188
-0.180267 0.0141384 1.409 133 123 121
-0.188741 0.253171 1.387 207 193 187
0.0786195 -0.186898 1.139 168 153 152
-0.00715365 0.475605 1.222 135 132 118
-0.291337 -0.349298 1.535 162 150 148
-0.532335 -0.222452 1.734 155 140 128
-0.731435 0.22076 1.758 52 20 0
0.0910535 0.190424 1.18 160 151 144
0.177915 0.144773 1.057 184 173 166
-0.528096 0.475516 1.748 129 121 109
0.126981 0.0940598 1.108 129 120 115
-0.0031571 -0.310093 1.215 162 151 144
0.0501578 -0.107933 1.167 141 129 129
-0.673406 -0.43451 1.794 170 148 138
-0.462693 0.599368 1.696 129 116 103
-0.63801 -0.711581 1.87 164 156 144
0.265456 0.0173896 0.957 187 178 173
0.408963 0.113859 0.812 100 102 93
-0.218632 -0.338218 1.435 164 154 152
-0.656274 -0.656805 1.87 168 156 140
0.416084 0.0650477 0.813 101 103 92
-0.112461 -0.468121 1.339 178 169 164
-0.764401 0.1102 1.729 60 23 7
0.0047149 0.0552319 1.205 189 178 171
0.150775 0.39978 1.072 112 109 93
0.121063 0.262758 1.12 139 117 107
0.205227 0.14778 1.03 176 165 158
0.237065 -0.0656527 0.988 126 121 117
-0.6118 -0.373179 1.837 141 126 116
-0.205077 -0.425403 1.422 192 181 176
-0.752196 -0.486854 1.815 149 127 119
-0.153534 -0.480707 1.375 189 181 180
0.284881 -0.277926 0.924 138 136 126
0.390644 0.193178 0.835 95 105 91
0.382929 0.0802036 0.833 100 101 95
0.111333 0.274963 1.096 204 193 184
0.30122 0.104452 0.928 107 105 97
-0.161298 -0.517637 1.384 186 181 177
-0.0297474 0.436345 1.252 141 131 117
-0.188476 -0.0804376 1.419 141 128 132
0.0281592 -0.238115 1.201 148 136 134
0.0589711 0.278663 1.118 201 187 172
0.0595538 -0.134289 1.165 187 176 171
-0.781711 -0.0753706 1.664 69 25 7
0.203489 -0.0689624 1.013 129 121 118
0.385178 0.0232419 0.832 170 166 157
-0.317914 0.157311 1.555 173 162 155
-0.273394 0.365327 1.505 128 114 106
0.344107 0.0519683 0.883 104 101 96
0.0342225 -0.0448871 1.208 138 127 122
-1.21922 -0.78391 2.329 132 129 115
-0.533063 0.589403 1.774 128 118 104
-0.305258 0.329385 1.555 111 101 87
0.405319 0.000219012 0.81 103 107 100
0.257744 -0.0770052 0.969 123 118 116
-0.344253 0.183328 1.583 138 131 123
0.197608 -0.0535655 1.034 173 161 161
0.303714 0.32938 0.891 92 95 72
-0.0477803 0.025718 1.299 131 120 124
0.371188 -0.145825 0.831 118 116 106
0.344107 0.0835808 0.883 146 144 134
0.176064 -0.209086 1.046 141 133 130
0.284616 -0.0531716 0.938 181 173 170
0.208218 -0.0912235 1.004 125 120 118
-0.788066 0.474428 1.744 42 21 4
-0.762649 0.149848 1.7 63 24 6
-0.51094 0.448045 1.719 128 118 104
0.273928 -0.305033 0.938 176 171 167
0.405823 0.1335 0.819 96 102 104
0.35477 0.308104 0.812 200 202 191
0.334023 -0.245544 0.868 199 197 189
0.155848 0.264652 1.083 166 156 142
0.38061 0.114903 0.849 100 104 97
-0.0131212 -0.333754 1.222 191 180 175
0.133468 0.159903 1.102 121 114 106
-0.727031 0.576965 1.826 39 18 1
0.226265 0.328197 0.983 118 112 97
-0.174057 0.28068 1.378 107 99 87
0.322931 -0.200076 0.892 127 123 116
-0.27412 -0.25989 1.509 160 148 146
-0.110281 0.02651 1.339 131 120 124
-0.51094 0.252229 1.719 113 101 83
-0.664022 -0.342092 1.769 84 33 17
-0.236052 -0.1394 1.456 148 136 134
0.338964 -0.00121582 0.896 111 112 103
-0.0775622 -0.23907 1.302 153 143 143
-0.473687 0.255618 1.686 114 102 82
0.278561 -0.230804 0.928 150 145 143
-0.397627 -0.637848 1.655 176 167 158
-0.576291 -0.102602 1.81 146 135 126
0.11924 -0.056198 1.12 161 147 143
-0.140169 -0.28828 1.354 187 175 173
0.39506 0.152852 0.83 130 130 126
0.224426 -0.313571 0.989 179 172 166
0.292093 -0.266018 0.909 137 133 126
-0.0736613 -0.0549885 1.308 135 123 121
0.347149 -0.227014 0.862 162 160 150
-0.0173374 0.43988 1.239 142 134 122
-0.538839 -0.429666 1.774 170 157 144
-0.669653 0.0411265 1.784 63 23 0
-0.782976 0.433449 1.739 47 11 0
0.159203 -0.407161 1.07 204 200 193
-0.779629 -0.428004 1.677 32 88 128
-0.0641984 0.43246 1.289 142 128 122
0.322897 0.291698 0.9 186 188 172
0.21975 0.360453 0.997 112 103 84
0.264624 -0.210878 0.954 136 131 129
-0.699016 0.366737 1.815 49 16 0
-0.667544 0.130586 1.859 30 23 4
0.392204 0.0940871 0.824 175 173 161
0.032176 -0.0349709 1.205 136 126 124
0.405437 -0.166152 0.805 162 159 154
-0.367633 0.467637 1.595 135 122 109
0.0162377 0.0389537 1.187 132 122 120
0.18903 -0.0897079 1.024 124 121 118
-0.222837 -0.556563 1.432 189 182 172
-0.183148 -0.497136 1.396 192 184 181
-0.696768 0.18149 1.794 54 22 2
-0.441646 -0.0548695 1.7 173 159 153
-0.438763 0.548757 1.668 124 117 107
-0.764602 -0.224526 1.686 86 35 6
-0.0518322 0.287801 1.244 99 93 80
-0.693986 0.628743 1.865 24 16 2
0.324383 -0.0433061 0.892 185 183 175
0.337482 -0.239341 0.866 169 169 165
-0.581574 0.0590377 1.799 135 125 113
0.272607 -0.150292 0.944 122 121 121
-0.149058 0.0227476 1.375 129 121 118
0.237162 0.264425 1.002 178 170 156
0.222615 0.209011 1.01 172 168 159
-0.139494 0.0827992 1.369 129 121 118
-0.76219 -0.181892 1.724 76 29 5
-0.279242 0.266046 1.484 106 92 75
0.0106874 -0.0115347 1.215 195 184 179
0.0448779 0.218856 1.178 152 143 138
-0.256286 -0.129393 1.477 145 135 135
-0.258695 0.179193 1.505 133 122 117
-0.749007 0.207055 1.739 51 23 6
0.257329 -0.247097 0.95 176 166 164
0.403008 0.194094 0.816 93 100 94
0.318233 -0.337525 0.887 142 135 127
-0.263569 0.0392247 1.491 139 124 125
0.302451 -0.302999 0.909 179 172 166
-0.72686 0.256677 1.789 55 19 0
0.0744042 -0.00534946 1.16 188 179 174
-0.0782175 0.451195 1.313 144 131 118
-0.315461 -0.559529 1.543 174 166 163
-0.830469 0.280311 1.686 50 17 0
-0.583513 0.432275 1.805 129 116 103
-0.157472 0.396224 1.39 141 127 119
0.255377 -0.206948 0.972 134 126 125
0.370424 -0.0593187 0.851 116 111 107
0.364266 0.214443 0.866 136 135 109
-0.0663995 0.0885861 1.291 130 119 114
0.0221643 -0.413543 1.194 205 194 189
0.354072 -0.144471 0.855 122 119 114
0.297647 0.0926694 0.931 137 124 130
0.362793 0.247391 0.883 134 136 118
0.188239 0.239378 1.057 144 135 126
0.068858 0.444689 1.162 136 127 118
-0.739901 -0.405608 1.686 50 50 72
-0.257501 0.292611 1.484 109 96 83
0.374285 -0.127051 0.841 118 119 110
-0.154707 0.339008 1.406 112 100 82
0.169253 -0.32143 1.046 183 173 171
-0.196225 0.141186 1.442 129 119 117
0.409659 -0.22585 0.803 161 162 153
0.201363 0.143583 1.036 176 167 162
-0.779216 -0.210307 1.682 81 35 6
-0.186953 -0.0645451 1.425 139 128 123
-0.810766 -0.0611624 1.646 69 30 12
0.122667 -0.347194 1.118 204 194 194
-0.418292 0.338045 1.673 111 99 81
0.250211 0.104628 1.002 108 108 102
-0.128577 -0.289196 1.348 189 177 175
-0.177836 -0.284635 1.39 185 174 169
-0.704501 0.189187 1.784 53 24 3
-0.723261 -0.421277 1.705 59 85 103
-0.266532 -0.16492 1.494 173 158 157
0.224618 0.0262287 0.997 116 111 109
0.36895 0.201743 0.854 100 101 95
-0.0828691 -0.00393625 1.319 136 121 122
0.337368 -0.170243 0.873 164 159 155
-0.0532488 -0.00589363 1.278 140 124 129
0.02433 -0.115369 1.205 140 130 128
0.173484 0.279067 1.051 200 193 183
-1.13364 -0.839006 2.356 134 131 115
-0.107617 0.317068 1.333 110 101 84
-1.21112 -0.765238 2.365 138 128 116
-0.060095 -0.0563747 1.291 135 123 123
0.411481 -0.0596078 0.817 113 114 105
0.337591 0.239619 0.908 134 127 117
0.318547 0.241688 0.939 139 133 120
0.30674 0.0320676 0.931 116 111 109
0.194359 -0.348929 1.017 149 146 143
-0.333101 -0.518331 1.555 185 175 175
0.40262 0.274596 0.843 151 156 146
-0.00509262 -0.344798 1.205 204 195 190
0.342549 0.151862 0.879 153 151 139
-0.677586 -0.570479 1.837 167 153 138
0.343054 0.327501 0.845 88 90 74
0.39268 0.0874886 0.825 133 130 125
0.40732 -0.254112 0.814 131 131 125
-0.522405 0.119945 1.748 148 133 121
-1.18481 -0.80292 2.374 132 126 111
0.361181 0.0549406 0.862 102 103 99
-0.794971 0.339956 1.71 55 18 2
-0.782302 0.660342 1.763 40 20 0
0.299456 -0.33222 0.9 143 139 132
0.374761 -0.040733 0.839 186 187 178
0.302127 0.00621699 0.917 112 110 100
0.166342 -0.149786 1.06 135 127 126
0.268677 -0.2371 0.941 173 164 155
-0.901372 -0.736889 2.158 143 137 124
-0.285643 -0.100007 1.505 161 149 149
-0.0262045 0.137607 1.278 133 118 117
0.0047149 -0.427157 1.205 188 178 176
0.380302 0.257534 0.864 135 138 122
0.220752 -0.213184 1.009 135 127 124
0.357799 -0.287999 0.864 137 131 133
0.288693 0.292731 0.917 198 196 186
0.146326 -0.0724718 1.118 160 149 144
-0.859616 0.529756 1.668 34 16 5
0.407156 0.122837 0.819 99 100 91
-0.629741 -0.271539 1.837 109 98 91
0.332993 -0.194918 0.869 124 125 119
0.150916 -0.347189 1.073 160 152 149
-0.0891072 -0.0360508 1.316 136 126 124
0.369188 -0.188159 0.845 127 124 119
-0.14746 0.418379 1.381 137 128 119
-0.0281078 -0.472933 1.27 188 180 177
0.23819 0.0419848 0.986 111 110 110
-0.13405 0.378541 1.359 139 130 113
-0.675627 -0.576903 1.848 167 153 136
0.371989 -0.0408787 0.842 186 184 176
-0.849841 0.577836 1.714 43 18 0
0.414036 0.193746 0.809 96 100 95
-0.325508 -0.0906774 1.555 146 135 130
0.220411 -0.120152 1 185 176 171
0.100318 -0.149923 1.154 177 160 160
-0.315461 0.437326 1.543 140 127 114
-0.224663 0.204582 1.459 162 158 151
-0.535951 -0.35172 1.774 164 145 139
-0.780724 0.245964 1.734 51 19 0
0.292243 0.313466 0.887 119 100 96
-0.77782 -0.396948 1.65 66 38 21
-0.543625 -0.228096 1.734 152 136 129
-0.842189 0.397344 1.682 45 16 2
0.273272 -0.186566 0.941 195 188 178
0.393452 -0.285817 0.81 169 166 161
-0.844192 0.230925 1.686 59 19 4
0.351125 -0.232941 0.858 167 165 157
-0.209288 0.378693 1.435 141 131 119
0.366507 -0.142274 0.842 117 118 107
-0.152617 -0.0154247 1.387 140 126 122
-0.593969 -0.0702018 1.81 143 125 114
0.136456 0.0461151 1.083 125 115 113
-0.0545499 -0.102181 1.26 140 131 126
0.158012 0.219771 1.062 147 138 133
0.206422 0.263282 1.036 177 174 160
0.312917 0.0839059 0.918 170 168 160
-0.121994 -0.0106037 1.348 138 126 124
0.37758 0.246832 0.861 130 132 119
0.027784 0.366713 1.185 112 102 88
-0.823606 -0.291161 1.629 79 34 9
0.154409 0.229032 1.073 147 138 131
0.00472664 -0.253263 1.208 156 145 151
0.162078 0.231008 1.066 147 138 131
-0.133656 0.275853 1.333 110 92 83
-0.62148 0.105755 1.848 121 110 101
-0.0959693 -0.0168532 1.322 178 163 162
0.323281 -0.03771 0.897 155 151 144
-0.78637 0.482995 1.734 46 21 3
0.201043 -0.35111 1.009 146 141 139
0.330155 -0.138486 0.888 119 119 113
-0.828499 0.298806 1.682 48 19 0
0.183695 0.388219 1.041 112 103 84
-0.217351 0.469711 1.442 139 128 121
0.037334 -0.0920085 1.182 141 129 127
0.221408 -0.0474852 1.012 158 146 146
-0.262332 -0.120347 1.484 149 138 133
-0.612399 -0.500316 1.821 172 154 145
0.0793939 0.123006 1.178 166 152 148
-0.0252613 -0.41668 1.232 211 197 193
-0.220044 -0.269366 1.429 160 148 148
0.362163 -0.291202 0.861 159 152 146
0.311522 -0.115588 0.901 190 186 179
-0.507016 0.145213 1.744 150 130 120
-0.714265 -0.228392 1.758 80 34 7
0.228511 0.0658211 1.007 115 110 106
-0.116558 -0.382282 1.336 171 159 157
0.167275 -0.133628 1.055 177 170 164
-0.45722 0.450419 1.686 132 122 110
0.367769 0.14595 0.861 111 109 99
0.0262915 -0.0310491 1.205 136 127 122
0.151478 0.147512 1.077 123 115 112
0.286695 -0.192426 0.925 132 130 122
-0.789279 0.0518227 1.753 64 26 1
-0.4563 0.00888269 1.724 180 169 162
-0.0295573 0.263508 1.244 205 194 185
0.253148 0.117637 0.988 114 106 103
-0.524049 -0.198193 1.744 157 141 134
-0.0896489 0.0456042 1.324 188 176 174
-0.378967 0.289265 1.599 110 92 81
-0.682358 0.224345 1.81 54 22 0
0.367738 -0.132248 0.848 120 115 113
-0.836262 0.00575639 1.633 60 24 12
0.263071 -0.189144 0.954 195 188 180
0.288395 0.242349 0.966 139 135 128
0.375387 0.139531 0.856 97 104 98
0.129947 0.000302291 1.118 185 174 167
0.311458 0.136019 0.927 112 111 96
-0.468881 0.0398586 1.729 152 137 127
0.168702 0.234037 1.064 145 136 131
-0.0342287 0.249823 1.267 132 123 116
-0.210309 0.439206 1.442 141 128 117
0.233359 -0.288987 0.966 144 136 133
0.15556 0.258886 1.081 182 172 160
-0.855975 0.116434 1.62 52 20 16
0.317494 0.143561 0.927 134 135 126
0.38249 -0.0725655 0.844 115 113 105
-0.679412 0.150708 1.81 61 26 0
-0.224201 0.531137 1.456 135 125 111
-0.0297949 0.455409 1.254 137 131 116
-0.241949 0.457506 1.463 138 127 118
-0.746476 0.0318538 1.753 64 25 7
-1.0702 -0.809461 2.294 136 128 114
0.0394242 0.189622 1.187 183 169 161
0.38113 -0.276973 0.835 129 126 121
-0.200871 -0.117881 1.425 145 136 131
0.28029 -0.00435335 0.944 112 112 106
-0.838156 0.46689 1.696 43 19 5
0.194805 0.277037 1.037 173 171 152
-0.779206 0.302746 1.769 52 18 0
-0.339904 -0.376018 1.563 182 172 170
0.161815 -0.181354 1.053 169 159 159
-0.509854 -0.135755 1.744 158 143 133
-0.563525 -0.387451 1.779 161 148 137
-0.262862 -0.379512 1.487 195 185 183
-0.0194324 -0.242591 1.244 148 140 139
-0.265996 -0.111209 1.491 170 157 161
0.147697 -0.176397 1.075 139 128 134
0.341836 0.322227 0.842 100 96 87
-0.525171 0.329665 1.729 116 108 94
0.0971602 0.213464 1.139 153 139 135
-0.632732 -0.298444 1.837 87 73 67
0.365136 -0.2423 0.842 195 193 183
-0.656654 0.0602848 1.837 34 20 5
0.125155 0.164924 1.124 123 115 112
0.220928 -0.150316 0.995 126 121 117
0.238317 0.14673 1 175 166 159
-0.620771 0.499727 1.837 109 105 94
0.124932 0.224885 1.122 151 140 135
-0.259236 -0.532035 1.494 182 175 169
0.180777 -0.353079 1.034 151 144 138
0.291004 -0.0179866 0.934 116 110 112
-0.0275323 0.366752 1.244 114 104 90
0.323293 -0.182862 0.893 190 188 178
0.372075 0.234802 0.858 157 151 138
0.372756 0.101206 0.85 116 111 109
0.331601 -0.124036 0.888 124 120 123
0.124725 0.417103 1.104 139 133 120
-0.805312 0.138885 1.668 60 26 4
0.109235 -0.3643 1.149 188 178 176
-0.789873 0.273551 1.748 48 21 0
0.405664 0.115748 0.816 105 106 95
-0.135333 0.183452 1.372 142 128 120
-0.0941722 0.188232 1.327 134 122 120
0.401594 0.079337 0.824 100 106 104
0.308612 0.102387 0.923 108 103 99
-0.310437 0.495078 1.543 138 128 116
-0.767803 -0.0135614 1.724 63 25 0
0.37792 -0.27414 0.843 127 128 119
-0.664438 0.438139 1.842 19 20 7
0.373195 0.210728 0.851 128 130 117
0.220262 -0.185377 0.992 175 164 170
-0.192789 0.282883 1.4 121 112 93
-0.829749 0.508041 1.668 41 20 3
0.32036 -0.201198 0.897 124 125 116
-0.407169 -0.437224 1.65 173 162 155
-0.687163 -0.669098 1.905 168 156 140
0.33921 0.0913822 0.889 178 171 163
-0.870362 0.580349 1.673 32 17 5
0.00482055 -0.0417691 1.232 133 123 121
0.187084 0.0832899 1.041 122 114 111
0.28951 0.167701 0.944 106 107 96
-0.699689 0.257395 1.794 52 17 2
-0.833975 0.345338 1.682 49 18 5
-0.630504 -0.381428 1.848 124 114 102
-0.0527905 -0.313055 1.267 158 149 144
0.379251 -0.136717 0.825 113 117 110
0.3788 0.262661 0.867 135 133 123
-0.676057 -0.309586 1.748 81 36 13
0.29804 0.225925 0.937 170 166 157
0.338335 0.243109 0.91 135 134 119
0.00878128 0.129907 1.225 150 134 141
0.397087 0.110044 0.823 102 103 94
-0.446908 -0.523425 1.668 182 171 164
-0.674597 0.17379 1.805 62 23 5
-0.468198 -0.60864 1.686 182 171 162
0.233375 -0.13612 0.986 128 123 121
0.378842 0.0879212 0.842 145 147 138
0.0793097 -0.426004 1.149 189 182 176
-0.062341 0.0698401 1.294 128 118 116
-0.794643 -0.253268 1.624 87 35 15
-0.822295 -0.299356 1.616 76 37 17
0.41476 0.202642 0.813 93 102 93
-0.193504 -0.101434 1.422 185 176 167
0.126307 0.222263 1.118 147 136 131
0.0164566 -0.179781 1.203 142 132 132
0.307463 0.349592 0.902 104 101 87
-0.601518 -0.164911 1.815 139 129 115
-0.840392 0.613844 1.729 38 14 2
0.13468 0.0147774 1.112 132 120 118
0.355568 -0.062891 0.862 116 117 108
0.401687 -0.0905084 0.808 136 131 127
0.213758 0.0379628 1.007 113 108 104
0.154265 0.0212238 1.072 121 115 117
0.0693491 0.311701 1.139 129 114 102
-0.6813 -0.178004 1.769 72 27 4
0.360609 -0.0942713 0.854 131 128 123
-0.213689 0.0899958 1.449 151 142 135
0.374332 -0.143603 0.826 119 117 109
0.0536334 -0.356462 1.16 167 157 157
-0.0112413 0.438105 1.234 142 133 124
-0.836713 0.276909 1.682 51 18 1
0.138219 -0.33985 1.083 207 198 193
-0.0686601 -0.157582 1.294 182 171 166
0.286695 -0.19092 0.925 141 137 130
-0.248399 -0.445454 1.473 196 189 183
-0.541237 -0.392574 1.763 168 150 141
-0.235286 0.525242 1.466 135 126 117
0.209644 0.274365 1.027 92 77 76
0.403817 0.0264833 0.807 172 172 166
0.318932 -0.264242 0.893 133 131 123
-0.143896 0.34646 1.39 113 104 87
-0.576724 0.209509 1.784 135 123 105
0.287977 0.0491519 0.939 107 104 99
-0.111705 -0.151145 1.33 183 166 166
0.30197 0.118934 0.935 104 104 98
-0.0400013 -0.30168 1.254 159 149 149
0.392204 0.0337458 0.824 156 153 148
0.140959 -0.218788 1.077 147 138 133
-0.0548529 -0.172851 1.267 147 135 133
-0.985012 -0.8043 2.228 146 132 126
-0.411097 -0.31466 1.655 170 154 149
0.332911 -0.0412915 0.88 178 173 169
0.19852 -0.0483298 1.03 155 141 137
-0.49984 -0.477853 1.729 177 164 153
0.0523251 -0.167662 1.173 143 134 129
0.364198 -0.242587 0.843 197 195 185
-0.00319348 -0.225666 1.229 152 143 138
-0.584502 0.0619653 1.799 135 125 111
-0.237673 0.100594 1.466 173 159 155
-0.974883 -0.656013 2.181 139 132 126
-0.356078 -0.42798 1.567 180 169 164
0.291034 0.052208 0.939 105 107 98
0.360195 0.0297254 0.863 167 158 151
-0.772323 -0.252742 1.673 84 35 9
-0.217717 -0.553071 1.429 189 185 174
-0.639529 0.0576384 1.848 94 78 75
-0.810449 0.0739604 1.673 60 24 1
-0.806128 0.621262 1.734 44 15 3
-0.0527072 -0.207574 1.265 179 161 167
0.339283 -0.320038 0.867 150 147 142
0.0331743 0.309024 1.171 124 114 102
-0.200871 -0.259336 1.425 159 147 147
0.130588 -0.0555959 1.108 155 143 141
0.233447 0.291205 0.941 206 197 188
0.182362 -0.372993 1.024 184 172 172
-0.824352 0.293013 1.696 52 19 2
0.247021 -0.372337 0.958 185 174 169
0.289638 -0.276723 0.92 135 133 125
-0.699178 -0.31751 1.714 71 32 10
0.126533 0.127885 1.12 151 141 139
0.263052 0.262598 0.977 175 168 160
-0.478764 0.661514 1.714 122 114 102
0.153801 0.257127 1.081 181 170 161
-0.789871 0.0060102 1.705 66 22 4
-0.814215 0.146675 1.664 63 28 13
-0.153869 -0.533333 1.378 176 164 164
-0.596848 0.58642 1.837 118 110 96
0.0164566 -0.211104 1.203 203 192 187
0.401957 0.115261 0.822 100 105 95
-0.242446 0.465601 1.466 140 127 114
0.37931 0.0795106 0.84 102 104 95
0.245378 -0.129175 0.97 133 124 119
-0.0871632 0.159194 1.319 136 127 120
0.202637 -0.11061 1.017 150 142 141
-0.188476 -0.526109 1.419 180 172 171
0.18717 0.227757 1.051 143 137 124
0.361687 -0.205871 0.85 123 125 109
-0.383479 0.293328 1.607 114 96 85
0.263666 -0.224267 0.945 135 127 126
0.343517 -0.30734 0.867 176 173 168
-0.837515 -0.405548 1.62 90 66 54
0.41476 -0.0685771 0.813 103 110 102
-0.427031 -0.109291 1.686 157 143 139
-0.161997 -0.470117 1.39 168 163 161
-0.724059 0.559136 1.826 38 15 0
-0.202337 -0.488213 1.403 191 183 182
-0.72856 0.626654 1.815 44 19 1
-0.0844361 -0.249066 1.31 150 141 144
-1.04791 -0.803815 2.278 137 129 115
0.164145 -0.26696 1.046 191 183 180
-0.521046 0.174489 1.753 146 133 122
-0.136964 0.380491 1.366 141 132 113
0.0959134 -0.119532 1.169 163 146 146
0.0202884 0.349292 1.198 113 103 89
-0.297602 0.0768878 1.516 145 134 125
0.269885 0.301821 0.904 195 193 183
0.410593 -0.0788692 0.81 109 111 102
-0.684068 0.120517 1.799 59 23 2
0.295377 -0.215961 0.91 128 126 118
-0.775935 -0.323663 1.646 80 34 7
-0.570604 -0.178507 1.774 148 134 126
-0.554598 0.299868 1.769 130 121 112
0.21876 0.213349 1.015 175 171 164
-0.0535822 0.471215 1.286 142 129 116
-0.808798 0.141259 1.664 56 24 4
0.219838 0.176223 1.02 112 110 102
0.014667 0.117176 1.217 165 151 147
-0.381307 -0.555816 1.62 180 169 164
0.311868 -0.14067 0.902 116 117 111
-0.938524 -0.80281 2.204 145 139 124
0.194421 0.139595 1.044 171 164 156
-0.258799 0.430807 1.52 142 128 120
0.130719 0.359916 1.094 112 103 82
-0.337359 0.593062 1.563 128 119 102
-0.24186 0.332091 1.477 115 100 88
-0.748061 0.610145 1.784 47 17 1
0.335947 -0.211442 0.873 123 123 117
0.391252 0.00557291 0.822 108 109 103
-0.214131 0.135077 1.452 130 120 118
0.231362 0.290905 0.945 202 195 185
0.356864 0.257152 0.897 139 137 125
0.249877 0.337191 0.963 103 96 86
-0.529727 -0.025071 1.744 150 135 125
-0.412328 -0.103558 1.682 162 146 141
0.286822 0.232917 0.966 140 136 125
-0.297602 0.281651 1.516 107 94 81
0.314107 -0.13157 0.9 123 119 112
-0.743622 0.414117 1.753 48 15 0
-0.535314 -0.147867 1.753 157 138 125
-0.735563 -0.0587887 1.734 67 23 7
0.170386 0.181924 1.053 118 114 107
0.363565 0.0254531 0.861 180 175 171
0.373633 0.172154 0.852 101 105 98
-0.836941 -0.759464 2.085 151 141 129
0.256321 -0.317332 0.952 178 175 172
0.343407 0.268264 0.9 145 143 133
0.233074 -0.354646 0.978 150 140 138
0.0523251 0.441263 1.173 137 126 119
0.0321226 -0.152373 1.203 151 139 137
0.374998 0.246013 0.868 132 133 122
-0.0625819 0.473865 1.299 141 128 117
0.322569 -0.207102 0.891 128 124 113
0.103895 0.12779 1.152 164 153 146
-0.859616 0.242031 1.668 49 20 0
-0.526689 -0.259136 1.734 157 139 130
0.268141 0.256473 0.984 144 138 125
0.0799309 -0.067527 1.158 197 183 179
-0.0889041 -0.110752 1.313 140 130 128
-0.432324 -0.361095 1.696 173 162 157
-0.231311 -0.0588411 1.456 140 130 128
-0.773172 -0.56255 1.966 148 123 114
0.193651 0.351197 1.022 110 101 82
-0.0891072 0.379413 1.316 131 121 109
0.285806 0.266863 0.947 172 170 151
0.218178 0.151324 1.02 149 145 146
0.280821 0.198349 0.951 110 111 98
0.121288 -0.104601 1.194 165 151 145
0.34099 -0.0595677 0.875 118 114 107
0.0679691 -0.315136 1.147 170 155 154
-1.00304 -0.79547 2.244 143 135 123
-0.170692 -0.338257 1.369 180 168 166
0.260696 -0.344855 0.951 138 138 134
-0.76219 0.564375 1.724 50 12 3
-0.491106 0.0146955 1.748 148 132 125
0.121815 -0.39137 1.094 194 184 182
0.0428874 0.390721 1.176 137 127 113
-0.102245 0.20876 1.348 144 133 128
0.309794 -0.327827 0.896 143 138 136
-0.701597 0.290798 1.784 48 20 3
0.0876574 0.282327 1.09 199 186 175
0.425296 0.265277 0.831 131 132 123
0.414548 0.184758 0.81 92 102 90
0.0374288 -0.00160798 1.185 173 156 158
0.321087 0.143974 0.92 123 125 116
-0.668615 0.138009 1.837 34 13 0
-0.0507281 -0.106872 1.267 141 130 125
0.294865 -0.209244 0.913 130 122 119
-0.716148 0.637616 1.821 41 20 3
0.204493 -0.162074 1.018 126 121 119
0.168385 0.0486774 1.062 121 116 112
-0.132078 -0.237148 1.339 154 144 144
-0.413308 -0.361709 1.686 170 158 156
0.261141 -0.315665 0.947 183 178 174
0.375965 0.108249 0.851 108 106 94
-0.748321 -0.107375 1.744 69 29 5
0.365206 -0.323957 0.855 141 137 128
-0.534441 -0.362244 1.769 161 146 136
-0.669653 0.0469328 1.784 63 22 1
0.104281 0.370786 1.116 113 104 85
0.269984 0.176682 0.951 108 103 99
0.244484 0.202057 0.992 140 138 126
0.335013 -0.221226 0.878 132 128 119
-1.08236 -0.736802 2.312 140 138 119
-0.692823 -0.335221 1.719 76 36 12
-0.752183 0.0774971 1.753 64 30 8
-0.800672 -0.14036 1.664 80 34 5
-0.327182 0.191186 1.563 145 136 131
0.368921 0.134269 0.867 105 101 92
-0.778324 0.176051 1.686 53 19 0
0.000805036 -0.0814014 1.225 188 177 170
-0.646777 -0.308543 1.826 42 31 24
-0.682255 0.0699614 1.779 64 28 7
0.0416002 0.10136 1.194 131 120 115
0.403501 0.037081 0.809 136 128 127
-0.204621 -0.481364 1.403 190 181 176
0.387309 -0.0373682 0.825 185 181 172
-0.71152 -0.636719 1.929 156 146 132
-0.211767 0.144528 1.452 131 121 119
0.131675 0.271089 1.102 188 177 170
-0.477646 0.534747 1.71 125 117 103
0.0279482 -0.354657 1.192 183 171 169
-0.481554 0.204078 1.714 166 147 134
-0.358629 0.275826 1.567 106 93 82
0.168444 -0.248744 1.041 181 169 169
0.290414 0.193904 0.937 102 104 95
0.0143296 -0.278303 1.189 201 193 190
-0.0234824 -0.141371 1.244 178 166 164
0.37469 0.0304805 0.845 170 168 160
0.408565 -0.158489 0.806 158 151 143
0.0390588 -0.110679 1.176 139 129 127
0.206024 0.168545 1.034 113 111 101
0.018675 0.137318 1.22 131 121 119
0.0786525 0.0496919 1.167 137 125 123
-0.747864 -0.0339511 1.763 67 28 6
-0.695553 0.522172 1.853 43 17 2
-0.168799 0.197571 1.409 137 127 125
0.230595 -0.37968 0.981 183 172 176
-0.865788 -0.711544 2.114 152 143 124
0.234265 -0.146903 0.983 127 122 120
-0.362605 -0.0076322 1.655 141 129 127
-0.828852 0.142756 1.65 53 19 0
-0.591022 0.498273 1.81 120 114 99
-0.286402 -0.087995 1.509 143 128 129
0.18939 0.305065 0.991 104 94 80
0.294438 0.244252 0.955 139 135 124
0.325039 0.264244 0.927 147 137 125
-0.121179 -0.300339 1.339 183 171 171
-0.0593502 -0.0204037 1.275 190 176 168
0.279083 0.293458 0.91 197 193 184
-0.803881 -0.351951 1.616 95 47 12
-0.859256 0.569253 1.705 38 21 5
0.363389 -0.298563 0.854 173 165 162
-0.0615702 0.254072 1.278 202 191 182
0.0742759 0.00219755 1.158 165 149 146
-0.153199 -0.222899 1.372 185 170 171
0.00875978 -0.371537 1.222 169 157 155
-0.816455 0.681606 1.744 45 16 2
-0.0152587 0.11078 1.234 157 148 143
0.0106874 -0.0233979 1.215 135 126 121
-0.151748 -0.0438633 1.359 137 126 130
0.236877 -0.25334 0.974 192 184 181
0.38063 -0.16551 0.828 157 157 157
0.154223 -0.299874 1.048 152 142 142
-0.371076 -0.13243 1.633 159 148 141
0.0631834 -0.0753241 1.162 189 178 169
-0.573865 -0.672192 1.821 173 163 149
0.285635 0.328238 0.912 100 95 66
0.179989 -0.384815 1.02 185 181 174
-0.751585 0.1767 1.719 52 20 0
-0.13766 -0.375582 1.351 173 160 164
0.108849 0.274979 1.089 205 194 185
0.278383 0.11321 0.964 106 107 98
0.392358 0.158254 0.83 160 161 150
-0.83756 0.0191951 1.646 64 24 11
0.0202207 -0.419372 1.194 209 201 198
-0.0627264 0.167736 1.302 149 140 135
0.0335709 0.401424 1.185 144 136 124
0.175222 -0.230109 1.041 141 134 128
-0.429185 -0.426983 1.673 179 166 153
-0.674596 -0.570479 1.837 169 155 140
0.300205 0.278361 0.939 175 175 153
0.0443826 0.00789835 1.165 133 121 121
0.365091 -0.288791 0.858 142 135 129
0.121223 -0.308774 1.073 186 176 174
-0.867761 0.456468 1.668 40 13 7
0.211065 0.336171 1.002 102 90 74
0.235505 0.120089 0.995 111 111 105
0.402172 0.0401067 0.817 115 110 106
-0.53167 -0.0863695 1.779 151 141 129
0.26296 -0.232693 0.948 154 144 142
-0.00930742 0.235166 1.244 185 170 160
-0.0649952 0.510032 1.305 136 128 116
-0.556165 -0.0514842 1.774 148 132 125
0.269534 -0.14722 0.944 122 118 119
0.0467955 0.239943 1.178 173 158 157
-0.672426 -0.45141 1.815 173 155 135
0.367769 0.0716904 0.861 103 105 96
-0.809898 -0.487693 1.724 141 144 143
-0.234163 -0.16343 1.459 177 165 163
-0.250286 -0.193369 1.47 152 141 136
-0.797166 -0.143411 1.668 82 33 3
0.0771698 -0.176703 1.145 147 134 138
-0.0692438 0.0449498 1.305 171 162 157
0.32797 -0.23766 0.886 169 166 163
-0.790345 -0.313902 1.637 85 34 5
-0.206952 0.107808 1.435 141 126 127
0.196872 0.120327 1.039 118 110 109
-0.139548 -0.425201 1.348 194 186 183
0.121496 0.0679813 1.124 184 173 166
0.0222385 0.448718 1.198 140 130 118
-0.0361479 0.392596 1.262 141 131 119
-0.258715 0.0731936 1.491 131 121 119
0.305938 0.188206 0.924 102 103 94
-0.561941 0.462381 1.774 124 116 102
-0.150966 -0.227364 1.372 193 183 183
-0.585798 -0.265183 1.794 148 135 124
-0.251988 0.111189 1.48 128 120 117
0.0338258 -0.23867 1.194 149 140 135
-0.0574095 0.378856 1.278 127 117 103
-0.338164 0.283836 1.555 111 99 79
-0.265903 -0.151025 1.477 149 138 142
0.190673 -0.391188 1.015 189 184 182
-0.138271 -0.152005 1.357 173 159 155
-0.101108 0.332252 1.333 115 100 88
-0.364582 0.0740703 1.616 148 137 130
-0.0695091 0.488537 1.31 145 135 123
-0.258021 -0.519863 1.487 193 188 184
0.156284 -0.201915 1.062 184 170 166
0.0740194 -0.281379 1.154 187 178 171
-0.414791 -0.256027 1.659 178 167 160
-0.116182 0.404483 1.357 146 133 122
-0.852137 0.428294 1.664 42 16 1
0.225232 0.139563 1.007 158 148 136
-0.339904 0.5193 1.563 134 124 112
-0.612455 -0.709224 1.848 170 160 146
-0.0462354 -0.0221612 1.257 165 150 149
-0.670672 -0.0313642 1.779 65 25 1
-0.188874 0.437742 1.422 145 130 120
0.0932868 -0.071419 1.16 194 185 176
-0.21396 0.350671 1.435 113 99 84
-0.216296 -0.375582 1.435 198 186 184
0.028253 -0.152627 1.205 154 139 138
0.302518 0.274769 0.932 175 174 157
0.312357 0.016572 0.912 174 171 168
0.171833 -0.0234352 1.041 122 114 113
-0.156792 0.437305 1.384 142 131 122
0.270836 0.00336289 0.954 115 112 107
0.118897 0.0434292 1.152 148 134 128
-0.0551993 -0.248637 1.275 146 137 140
-0.293438 -0.491823 1.52 178 170 167
0.0500718 0.0344401 1.165 134 122 122
-0.639926 -0.247612 1.815 47 33 27
-0.237673 -0.0401599 1.466 183 168 167
-0.32802 -0.272429 1.567 158 148 148
-0.0682357 -0.317749 1.286 161 152 147
0.389522 -0.0507321 0.824 109 110 104
-0.297879 -0.260724 1.543 160 149 144
-0.240591 0.217747 1.484 185 171 154
0.37502 0.0612357 0.852 106 102 105
-0.469318 0.614613 1.7 124 117 100
-0.317005 0.20136 1.563 182 169 156
-0.0576341 0.43671 1.283 142 129 118
0.198542 -0.312938 1.013 188 176 174
-0.402498 -0.180978 1.664 172 155 155
0.268011 0.171209 0.955 109 104 102
0.262244 -0.355688 0.951 144 139 137
0.375901 0.194794 0.854 92 102 90
-0.279773 -0.0414474 1.513 183 172 167
0.301618 -0.0820941 0.92 118 116 108
-0.33142 -0.415647 1.559 168 157 152
-0.792546 0.518179 1.729 45 12 0
-0.69871 0.383997 1.799 45 20 2
0.2696 0.291454 0.913 197 196 179
-0.0194324 0.342459 1.244 115 103 87
0.243045 -0.180706 0.967 176 164 164
-0.272924 0.511085 1.516 130 120 108
-0.555666 0.70151 1.81 116 108 96
0.339389 0.271495 0.901 171 169 159
0.127048 -0.072106 1.141 181 172 167
-0.337386 0.495093 1.575 135 126 119
-0.132669 -0.349837 1.345 188 178 176
-0.0523739 -0.363768 1.257 169 158 164
0.409879 0.276681 0.841 157 166 157
0.0352901 -0.44059 1.178 171 163 162
0.238799 0.297519 0.932 196 192 183
0.333095 0.181688 0.892 103 104 93
-0.331414 0.148704 1.571 153 144 135
-0.653899 -0.0172878 1.821 30 21 12
0.204934 0.266912 1.037 181 175 160
-0.257501 -0.516399 1.484 193 186 180
-0.613465 0.695927 1.842 106 104 94
-0.0596295 0.319291 1.281 115 103 85
0.119828 -0.185695 1.143 171 154 156
0.103083 -0.375418 1.143 185 174 169
-0.215451 0.0968018 1.445 181 170 163
0.29335 0.00326771 0.927 111 112 103
0.311617 0.0332941 0.923 110 110 106
0.170386 0.38584 1.053 109 102 85
0.388418 0.226871 0.839 165 170 158
0.358374 -0.294346 0.862 169 166 161
0.156971 0.329917 1.055 102 95 78
0.210499 -0.0145912 1.015 123 112 116
-0.105447 -0.262116 1.333 156 143 147
-0.759677 0.630521 1.744 46 18 1
-0.138271 -0.514164 1.357 183 178 174
0.187527 0.142512 1.053 181 172 165
-0.292496 -0.486952 1.528 166 157 152
0.286107 0.157613 0.948 155 147 144
-0.469318 -0.278953 1.7 177 156 151
-0.448496 -0.0411579 1.705 156 142 136
-0.317816 -0.0352766 1.567 150 134 131
-0.788637 0.441938 1.739 47 16 5
0.254317 -0.0583823 0.974 162 153 148
0.00878128 0.243535 1.225 178 164 156
-0.341643 -0.500656 1.571 179 172 166
0.221653 -0.378713 0.991 184 176 173
-0.833411 -0.237541 1.607 78 33 10
-0.788462 0.199175 1.696 58 22 3
-0.0310238 0.270779 1.222 206 193 182
0.224618 0.0213614 0.997 125 114 118
0.247464 0.25991 0.991 178 170 156
-0.655841 0.035835 1.81 37 15 5
-0.199526 0.338286 1.432 110 101 84
0.345256 0.305331 0.837 195 196 183
0.293416 0.182252 0.932 106 103 98
0.10006 0.0136792 1.173 159 142 142
-0.647292 0.296014 1.853 77 70 62
-0.0213366 0.11105 1.237 158 147 142
-0.0294385 -0.211372 1.239 192 182 180
0.18846 -0.1137 1.03 152 144 143
-0.081028 0.515303 1.324 137 129 117
0.335622 0.0408395 0.891 104 105 94
0.0988404 0.216789 1.137 151 135 130
-0.322996 0.382084 1.543 139 126 115
0.371896 0.303016 0.809 190 192 181
-0.382068 -0.334378 1.646 187 178 171
-0.718738 -0.0820199 1.748 73 28 5
-0.79796 -0.242099 1.62 87 33 9
0.313798 0.0800299 0.925 134 130 123
-0.651856 -0.350821 1.799 63 36 28
-0.56986 0.00634155 1.799 143 130 119
0.384209 -0.217796 0.827 127 123 112
-0.429185 -0.288135 1.673 169 155 151
-0.13766 -0.228281 1.351 194 184 182
-0.234163 -0.448343 1.459 198 191 185
-0.13058 0.240974 1.369 141 129 127
0.280036 0.348281 0.938 103 98 80
0.101914 0.327247 1.11 110 101 84
-0.208394 0.407198 1.445 142 126 121
-0.311326 0.375107 1.535 139 128 121
0.269283 0.02665 0.954 120 112 111
0.157715 -0.342982 1.06 165 157 156
-0.239568 -0.242444 1.463 185 174 169
0.127668 -0.121159 1.114 161 146 145
-0.636304 -0.360657 1.865 119 109 97
-0.184245 -0.0134999 1.422 137 125 123
0.256165 0.0399298 0.975 109 109 105
-0.282236 0.298329 1.513 112 98 79
0.330222 -0.020261 0.9 111 109 101
-0.30039 0.181207 1.543 133 123 121
0.276813 0.216747 0.964 172 168 157
0.12541 -0.0313116 1.143 136 127 122
0.0912367 -0.318187 1.112 194 185 180
0.334922 0.160094 0.893 174 166 163
0.187147 -0.0282708 1.032 120 112 109
-0.541876 0.012095 1.784 147 132 122
-0.0709306 -0.447106 1.297 178 167 162
-0.575717 -0.134182 1.799 147 129 120
0.402758 0.303093 0.792 191 192 181
0.0667359 0.377202 1.158 112 103 86
-0.857678 0.167832 1.659 49 23 8
-0.179883 0.309263 1.406 113 100 87
-0.104973 -0.254458 1.327 156 144 142
-0.448987 0.35439 1.686 136 123 101
0.134064 -0.0672536 1.122 189 180 173
0.139623 0.260219 1.094 187 175 157
-0.386581 -0.505726 1.62 181 170 163
-0.181546 0.547659 1.419 138 128 114
0.154985 -0.0452773 1.077 128 120 119
0.298358 0.131527 0.938 114 103 96
0.0754375 -0.31327 1.147 167 154 162
-0.470975 0.47793 1.696 126 123 109
-0.516885 0.0853679 1.739 150 132 121
-0.262862 -0.505344 1.487 189 179 179
0.0633466 0.000314999 1.165 180 161 155
0.260309 -0.201478 0.961 133 128 124
0.392831 0.0556694 0.831 102 103 97
0.239275 -0.280151 0.952 145 136 131
-0.322158 0.228322 1.539 197 186 177
