ply
format ascii 1.0
comment Created by Open3D
element vertex 1286
property double x
property double y
property double z
property uchar red
property uchar green
property uchar blue
end_header
-0.000925983 0.223814 0.954 255 255 255
0.127305 -0.0751547 0.735 255 255 255
-0.479742 0.282951 1.484 255 255 255
-0.469926 -0.428991 1.152 255 255 255
-0.0884445 -0.205993 0.868 255 255 255
0.26648 0.10191 0.753 255 255 255
0.254259 -0.00311283 0.675 255 255 255
-0.0762617 0.0534396 0.908 255 255 255
-0.0515747 0.188493 0.972 255 255 255
0.0898608 0.000221446 0.819 255 255 255
-0.15339 -0.111969 0.884 255 255 255
-0.122614 0.031743 0.88 255 255 255
0.213 -0.206176 0.746 255 255 255
-0.891052 0.177728 1.729 255 255 255
0.0570294 -0.0665527 0.789 255 255 255
0.20428 0.0576979 0.768 255 255 255
0.282425 -0.163183 0.707 255 255 255
0.215098 -0.078868 0.694 255 255 255
0.381282 -0.265305 0.745 255 255 255
0.0149432 -0.162222 0.805 255 255 255
-0.474028 0.132864 1.357 255 255 255
0.0269619 0.0749377 0.9 255 255 255
-0.209516 -0.260101 0.909 255 255 255
-0.65077 -0.125478 1.247 255 255 255
0.215229 -0.171307 0.737 255 255 255
0.263249 0.0671201 0.521 255 255 255
-0.0845846 0.205843 1.027 255 255 255
0.110995 -0.0835634 0.746 255 255 255
0.273609 -0.0433919 0.653 255 255 255
0.0431997 -0.20636 0.819 255 255 255
-0.227856 -0.191363 0.942 255 255 255
0.101502 -0.154363 0.766 255 255 255
-0.100092 -0.0907419 0.847 255 255 255
-0.237787 0.0160474 0.97 255 255 255
0.194001 0.261089 0.782 255 255 255
0.14423 0.142742 0.718 255 255 255
-0.617258 0.0270445 1.366 255 255 255
0.0745842 0.180561 0.827 255 255 255
-0.192061 -0.155965 0.932 255 255 255
0.25224 0.139273 0.602 255 255 255
-0.27483 -0.199589 0.967 255 255 255
0.268809 0.122044 0.604 255 255 255
0.232713 0.00698391 0.696 255 255 255
-0.0420015 0.167624 0.935 255 255 255
-0.447561 -0.228279 1.106 255 255 255
0.222822 -0.222049 0.763 255 255 255
-0.151308 -0.219435 0.906 255 255 255
-0.0186795 -0.216779 0.844 255 255 255
-0.59092 -0.00824786 1.322 255 255 255
0.015699 -0.302965 0.927 255 255 255
0.128746 -0.219131 0.812 255 255 255
-0.476313 -0.110827 1.242 255 255 255
0.254507 -0.211452 0.703 255 255 255
-0.711641 0.444467 1.351 255 255 255
0.25629 -0.0453396 0.666 255 255 255
-0.634531 -0.409577 1.247 255 255 255
0.240646 -0.0850231 0.68 255 255 255
-0.0343649 -0.375026 1.025 255 255 255
0.231158 -0.101698 0.688 255 255 255
-0.414788 -0.316935 1.077 255 255 255
0.169469 -0.0580648 0.716 255 255 255
-0.739731 -0.359587 1.4 255 255 255
0.2058 0.162261 0.664 255 255 255
-0.417241 0.424811 1.324 255 255 255
0.284496 0.23487 0.606 255 255 255
0.264667 0.0246008 0.682 255 255 255
-0.0109522 0.279135 1.02 255 255 255
-0.580587 0.0546635 1.39 255 255 255
0.253088 -0.079293 0.669 255 255 255
-0.656327 0.355132 1.463 255 255 255
0.126236 -0.392839 1.015 255 255 255
-0.0557999 -0.33667 0.963 255 255 255
0.133043 0.0238272 0.806 255 255 255
-0.19714 -0.328744 0.972 255 255 255
0.262912 0.264845 0.701 255 255 255
0.102899 -0.361536 0.997 255 255 255
-0.691189 0.133704 1.575 255 255 255
0.367252 -0.296157 0.785 255 255 255
-0.269749 0.400764 1.33 255 255 255
-0.172231 0.423522 1.281 255 255 255
0.0934209 0.206391 0.839 255 255 255
0.24807 0.123326 0.772 255 255 255
0.257327 0.0501553 0.714 255 255 255
-0.158979 0.469564 1.227 255 255 255
-0.346208 -0.346515 1.055 255 255 255
-0.477172 0.40272 1.366 255 255 255
-0.157207 -0.203217 0.906 255 255 255
-0.252793 -0.125629 0.967 255 255 255
-0.526228 -0.453991 1.173 255 255 255
-0.532112 0.354092 1.449 255 255 255
-0.110144 -0.188495 0.872 255 255 255
0.27319 -0.0539356 0.652 255 255 255
0.244101 0.234565 0.706 255 255 255
-0.526228 -0.4559 1.173 255 255 255
-0.457905 -0.0346517 1.194 255 255 255
0.0200702 0.126994 0.856 255 255 255
-0.51563 -0.277233 1.137 255 255 255
-0.147022 -0.182043 0.889 255 255 255
-0.00940117 0.299213 1.032 255 255 255
0.0795822 -0.00915251 0.823 255 255 255
0.218116 0.214285 0.715 255 255 255
-0.337082 0.354266 1.403 255 255 255
0.0458054 -0.3299 0.957 255 255 255
0.276107 -0.255068 0.733 255 255 255
-0.162099 0.425079 1.267 255 255 255
-0.406453 -0.136653 1.169 255 255 255
0.182377 0.00742542 0.74 255 255 255
-0.838681 0.184553 1.714 255 255 255
-0.122919 -0.0465922 0.872 255 255 255
0.211563 -0.0956341 0.701 255 255 255
0.0096776 -0.108243 0.803 255 255 255
-0.232958 0.425714 1.294 255 255 255
0.0307068 0.00296809 0.842 255 255 255
-0.12008 -0.161534 0.872 255 255 255
0.237665 0.170304 0.615 255 255 255
0.190219 -0.135296 0.724 255 255 255
0.203904 0.179526 0.672 255 255 255
-0.453288 -0.0325169 1.187 255 255 255
-0.0915858 -0.0337822 0.871 255 255 255
0.230451 -0.182056 0.732 255 255 255
-0.0448243 0.0764023 0.9 255 255 255
0.25776 -0.0790559 0.667 255 255 255
-0.530643 0.357817 1.445 255 255 255
-0.164455 -0.411614 1.068 255 255 255
0.290884 -0.215917 0.681 255 255 255
0.21654 -0.0258249 0.695 255 255 255
0.334469 -0.205227 0.675 255 255 255
0.274445 0.184041 0.565 255 255 255
-0.211571 0.352881 1.305 255 255 255
0.191649 -0.268321 0.821 255 255 255
-0.460293 -0.349399 1.102 255 255 255
0.0909056 0.202778 0.841 255 255 255
0.112351 -0.0274298 0.772 255 255 255
-0.236552 0.132417 1.041 255 255 255
-0.489184 0.0399539 1.281 255 255 255
0.0204004 0.0580718 0.935 255 255 255
0.20945 -0.05741 0.694 255 255 255
-0.0333016 -0.0364488 0.867 255 255 255
0.232393 0.102669 0.787 255 255 255
-0.475321 -0.434243 1.156 255 255 255
-0.595299 0.176032 1.52 255 255 255
-0.459458 -0.298643 1.1 255 255 255
-0.816419 0.256156 1.62 255 255 255
0.26711 0.157934 0.567 255 255 255
-0.240616 -0.209994 0.95 255 255 255
0.167468 -0.14752 0.738 255 255 255
-0.121926 -0.263671 0.896 0 0 0
-0.290837 0.423934 1.308 255 255 255
0.224561 0.110915 0.791 255 255 255
-0.175344 -0.163722 0.916 255 255 255
0.192017 0.0531105 0.774 255 255 255
-0.206921 0.466091 1.239 255 255 255
-0.256735 0.0634026 0.97 255 255 255
-0.0139728 0.401182 1.13 255 255 255
0.146012 -0.247659 0.851 255 255 255
-0.63765 0.0332691 1.348 255 255 255
-0.303118 -0.0776409 0.977 255 255 255
-0.403383 -0.306169 1.07 255 255 255
-0.294499 0.0398375 1.013 255 255 255
-0.546337 0.000353664 1.308 255 255 255
0.0590804 0.344228 0.997 255 255 255
-0.368505 0.423614 1.327 255 255 255
0.0798262 -0.322656 0.954 255 255 255
0.10294 0.0095276 0.817 255 255 255
0.162828 0.21783 0.773 255 255 255
0.0651057 -0.334575 0.966 255 255 255
-0.494509 -0.0906156 1.242 255 255 255
-0.303314 -0.0543981 0.988 255 255 255
-0.321925 0.273576 1.322 255 255 255
0.30632 -0.113278 0.664 255 255 255
-0.09106 0.0861994 0.866 255 255 255
0.258378 -0.205405 0.698 255 255 255
-0.53145 0.315907 1.48 255 255 255
0.206555 0.128491 0.758 255 255 255
-0.157806 -0.188899 0.901 255 255 255
0.298813 0.0236991 0.657 255 255 255
0.237585 0.112341 0.783 255 255 255
0.342386 -0.154412 0.669 255 255 255
0.215616 0.154145 0.671 255 255 255
0.176695 -0.259042 0.852 255 255 255
-0.314136 -0.283451 1.002 255 255 255
-0.135506 -0.148695 0.88 255 255 255
-0.201424 0.433945 1.281 255 255 255
-0.117765 -0.326785 0.957 255 255 255
0.175256 -0.266501 0.832 255 255 255
0.23821 0.243743 0.723 255 255 255
-0.732229 -0.29701 1.439 255 255 255
0.0615759 -0.330934 0.96 255 255 255
0.281031 -0.117803 0.684 255 255 255
0.296009 -0.145291 0.693 255 255 255
-0.188783 -0.38356 1.03 255 255 255
-0.429382 0.457589 1.283 255 255 255
0.233235 0.0937782 0.777 255 255 255
-0.346904 0.419295 1.327 255 255 255
0.0300583 -0.155146 0.789 255 255 255
0.125395 0.228619 0.816 255 255 255
-0.403949 -0.191239 1.1 255 255 255
-0.669449 -0.492187 1.299 255 255 255
-0.109472 0.0531028 0.878 255 255 255
0.0506987 -0.0367341 0.811 255 255 255
-0.119033 0.439613 1.227 255 255 255
-0.331541 -0.325101 1.036 255 255 255
-0.478639 0.111491 1.339 255 255 255
-0.0696126 0.319445 1.108 255 255 255
0.218095 0.0515323 0.751 255 255 255
-0.157505 0.108167 0.934 255 255 255
-0.195447 0.0339434 0.941 255 255 255
0.157743 -0.0772431 0.721 255 255 255
0.104006 0.144336 0.757 255 255 255
-0.438108 0.394693 1.369 255 255 255
0.299752 0.0507862 0.676 255 255 255
-0.541496 0.114781 1.406 255 255 255
-0.0129185 -0.0980199 0.827 255 255 255
0.0236366 -0.135887 0.789 255 255 255
-0.236791 0.280142 1.237 255 255 255
0.326504 -0.137936 0.679 255 255 255
-0.400742 -0.0469168 1.116 255 255 255
-0.270658 0.440886 1.283 255 255 255
-0.0889366 0.0161177 0.887 255 255 255
-0.194122 0.0370454 0.942 255 255 255
0.30263 -0.0884274 0.656 255 255 255
-0.446032 -0.03786 1.173 255 255 255
-0.155144 -0.27822 0.92 255 255 255
0.141058 -0.299627 0.83 255 255 255
-0.25708 -0.368063 1.015 255 255 255
-0.141516 -0.213588 0.9 255 255 255
0.254335 0.133516 0.607 255 255 255
-0.276253 -0.231192 0.961 255 255 255
-0.397505 -0.0843145 1.182 255 255 255
-0.589275 -0.0621919 1.281 255 255 255
-0.165385 0.316941 1.201 255 255 255
-0.0611729 -0.215792 0.862 255 255 255
0.0869913 -0.148904 0.77 255 255 255
-0.190104 0.433987 1.275 255 255 255
0.00792537 0.179123 0.901 255 255 255
0.176462 -0.0534041 0.716 255 255 255
-0.508509 -0.155413 1.227 255 255 255
-0.714648 -0.344966 1.378 255 255 255
-0.184197 -0.196516 0.923 255 255 255
0.290712 -0.157459 0.702 255 255 255
0.0574575 0.340983 0.997 255 255 255
-0.197845 0.22912 1.162 255 255 255
0.328229 -0.199048 0.669 255 255 255
-0.0800738 -0.276873 0.901 255 255 255
-0.168718 0.164468 1.062 255 255 255
0.289457 -0.18081 0.67 255 255 255
-0.060159 -0.350061 0.983 255 255 255
-0.33877 0.0678153 1.064 255 255 255
-0.364442 0.46926 1.275 255 255 255
-0.669028 -0.409361 1.278 255 255 255
0.316931 -0.156331 0.687 255 255 255
0.276065 -0.306144 0.791 255 255 255
-0.154147 0.0828609 0.923 255 255 255
0.206674 -0.298196 0.777 255 255 255
0.160043 0.121333 0.737 255 255 255
-0.394769 -0.211384 1.075 255 255 255
0.122462 0.0514698 0.851 255 255 255
0.223403 0.0825044 0.778 255 255 255
0.0346398 0.0456448 0.872 255 255 255
0.280201 0.140924 0.551 255 255 255
-0.518891 -0.353384 1.132 255 255 255
-0.607842 0.382205 1.422 255 255 255
-0.303165 -0.381104 1.037 255 255 255
-0.659202 0.237116 1.616 255 255 255
-0.449565 0.465214 1.281 255 255 255
-0.136939 -0.167312 0.88 255 255 255
-0.462832 0.319175 1.484 255 255 255
-0.458621 0.459677 1.283 255 255 255
-0.00522766 -0.00411816 0.893 255 255 255
-0.066577 0.033816 0.897 255 255 255
-0.650615 0.0885861 1.291 255 255 255
0.0210946 -0.0717794 0.79 255 255 255
0.115812 0.151522 0.738 255 255 255
-0.47345 0.310141 1.487 255 255 255
0.0892583 0.0772613 0.893 255 255 255
-0.298882 -0.150255 0.984 255 255 255
-0.563123 0.353433 1.456 255 255 255
0.230822 -0.0769545 0.687 255 255 255
-0.632383 -0.00163919 1.208 255 255 255
0.183353 0.227471 0.759 255 255 255
-0.225296 0.365612 1.336 255 255 255
0.139999 0.303183 0.874 255 255 255
-0.0424667 0.436737 1.208 255 255 255
-0.0920516 0.283881 1.096 255 255 255
-0.185095 -0.26774 0.92 0 0 0
-0.0773667 0.20942 1.02 255 255 255
-0.409224 0.189244 1.319 255 255 255
0.125422 -0.0982799 0.738 255 255 255
-0.239274 -0.138346 0.957 255 255 255
0.353621 -0.249774 0.728 255 255 255
0.0121338 0.112828 0.887 255 255 255
0.246971 0.167002 0.576 255 255 255
0.248273 0.133057 0.614 255 255 255
0.0365135 0.380597 1.048 255 255 255
0.354656 -0.29061 0.777 255 255 255
-0.217083 0.381686 1.339 255 255 255
-0.0911304 0.16793 0.972 255 255 255
-0.0377958 0.175382 0.944 255 255 255
-0.0329512 -0.156475 0.823 255 255 255
0.0450396 0.260578 0.941 255 255 255
0.239835 0.148226 0.684 255 255 255
-0.183102 0.136829 0.999 255 255 255
-0.437888 -0.107317 1.225 255 255 255
-0.0977098 0.0493724 0.888 255 255 255
0.223266 0.239505 0.728 255 255 255
0.286087 0.207446 0.587 255 255 255
-0.390011 0.435704 1.305 255 255 255
0.23056 -0.206926 0.74 255 255 255
0.126031 0.0876087 0.866 255 255 255
0.349595 -0.25526 0.737 255 255 255
0.303777 0.118177 0.725 255 255 255
0.214274 -0.183336 0.742 0 0 0
-0.514919 -0.448638 1.169 255 255 255
0.316845 0.0778731 0.682 255 255 255
0.201566 -0.0217607 0.71 255 255 255
-0.0258193 0.258454 1.017 255 255 255
-0.12743 0.0855685 0.904 255 255 255
-0.601397 -0.162542 1.267 255 255 255
-0.269438 0.137893 1.057 255 255 255
0.274028 -0.0392013 0.654 255 255 255
-0.468067 0.458659 1.286 255 255 255
-0.352271 0.437929 1.299 255 255 255
-0.635453 -0.168461 1.265 255 255 255
0.0395831 0.160374 0.827 255 255 255
0.035849 0.25139 0.941 255 255 255
0.156352 -0.073621 0.72 255 255 255
0.0318193 -0.0493161 0.801 255 255 255
-0.492814 0.307721 1.487 255 255 255
0.197804 0.0655289 0.787 255 255 255
0.121598 0.16365 0.744 255 255 255
0.109149 -0.0791295 0.75 255 255 255
-0.018259 -0.105838 0.825 255 255 255
0.207789 0.253076 0.758 255 255 255
-0.227346 0.131018 1.03 255 255 255
-0.800219 0.309266 1.543 255 255 255
0.0362662 -0.0183024 0.813 255 255 255
0.178294 -0.0753313 0.714 255 255 255
-0.458052 -0.224491 1.114 255 255 255
-0.0998789 -0.155966 0.857 255 255 255
0.250535 -0.0378663 0.668 255 255 255
-0.346777 0.381591 1.378 255 255 255
0.113428 -0.244935 0.856 255 255 255
-0.182201 0.473616 1.222 255 255 255
-0.57871 -0.139862 1.267 255 255 255
0.143803 -0.192478 0.779 255 255 255
0.143745 0.356509 0.916 255 255 255
-0.586698 -0.116719 1.262 255 255 255
0.0818775 -0.0480847 0.781 255 255 255
-0.0674929 -0.149423 0.836 255 255 255
-0.0212241 -0.0922843 0.836 255 255 255
-0.54257 -0.335668 1.147 255 255 255
-0.601574 -0.0522942 1.294 255 255 255
-0.0205043 0.249252 1 255 255 255
0.248179 0.0925963 0.757 255 255 255
0.0187806 -0.158809 0.801 255 255 255
0.00477599 -0.242444 0.862 255 255 255
-0.235665 -0.136502 0.955 255 255 255
-0.319874 0.400656 1.359 255 255 255
0.198743 0.00373547 0.725 255 255 255
0.304846 -0.129286 0.68 255 255 255
-0.167427 -0.287298 0.93 255 255 255
-0.0491076 0.0953108 0.872 255 255 255
-0.511928 -0.260581 1.137 255 255 255
-0.374819 0.475484 1.275 255 255 255
-0.209811 -0.405081 1.06 255 255 255
-0.0776637 -0.147931 0.843 255 255 255
-0.221939 0.380357 1.342 255 255 255
0.136973 0.17287 0.742 255 255 255
0.197466 0.00612872 0.729 255 255 255
0.12827 0.222709 0.809 255 255 255
-0.0342913 0.329174 1.075 255 255 255
-0.0657617 -0.238207 0.867 255 255 255
0.188747 0.268294 0.792 255 255 255
-0.226323 -0.237352 0.942 255 255 255
0.157524 -0.0747926 0.72 255 255 255
0.200692 -0.0183202 0.711 255 255 255
-0.54972 -0.110558 1.262 255 255 255
-0.133241 -0.354522 0.991 255 255 255
0.181024 0.171734 0.689 255 255 255
0.0237121 -0.0147565 0.837 255 255 255
0.0590755 -0.316537 0.945 255 255 255
-0.29682 -0.222766 0.972 255 255 255
-0.378298 0.446772 1.294 255 255 255
-0.481738 -0.0683068 1.205 255 255 255
0.304791 -0.0464022 0.636 255 255 255
0.137689 0.0472694 0.826 255 255 255
0.0740995 0.155071 0.793 255 255 255
0.116615 0.287331 0.891 255 255 255
0.063286 0.286001 0.939 255 255 255
-0.0470689 -0.344744 0.977 255 255 255
0.268537 -0.239831 0.716 255 255 255
0.140556 0.105195 0.86 255 255 255
0.173241 -0.200858 0.758 255 255 255
0.0257141 0.263536 0.963 255 255 255
0.0213883 -0.164023 0.801 255 255 255
0.121899 -0.0295158 0.761 255 255 255
-0.451988 -0.402817 1.126 255 255 255
-0.41883 0.471553 1.27 255 255 255
0.257507 0.00923087 0.508 255 255 255
0.268417 0.137811 0.755 255 255 255
-0.638055 -0.457631 1.262 255 255 255
-0.265855 -0.228539 0.963 255 255 255
0.31825 -0.0608919 0.636 255 255 255
-0.634638 0.481578 1.297 255 255 255
0.122976 -0.164285 0.76 255 255 255
0.253417 -0.0388951 0.667 255 255 255
-0.067173 -0.238207 0.867 255 255 255
-0.128927 -0.25007 0.884 255 255 255
0.248144 0.0383743 0.711 255 255 255
-0.604578 0.0599965 1.409 255 255 255
0.194558 -0.144138 0.727 255 255 255
0.156995 0.00889787 0.763 255 255 255
-0.0581542 0.323119 1.096 255 255 255
0.017243 0.150323 0.854 255 255 255
0.154941 0.0692758 0.832 255 255 255
-0.0619192 0.0220395 0.893 255 255 255
-0.624083 -0.16048 1.267 255 255 255
0.318049 -0.155213 0.687 255 255 255
0.112709 0.0811205 0.872 255 255 255
-0.649943 0.317185 1.509 255 255 255
0.193267 0.122048 0.764 255 255 255
-0.138821 0.0901752 0.921 255 255 255
-0.0617526 -0.148708 0.832 255 255 255
-0.132641 -0.148695 0.88 255 255 255
-0.112322 0.240422 1.085 255 255 255
-0.061549 0.0668117 0.909 255 255 255
-0.409263 0.399324 1.362 255 255 255
0.279003 -0.130065 0.69 255 255 255
0.180783 0.119925 0.791 255 255 255
0.254676 -0.112894 0.688 255 255 255
0.0664266 -0.0132184 0.826 255 255 255
0.0411626 -0.247479 0.86 255 255 255
-0.0236594 -0.109999 0.826 255 255 255
-0.567602 -0.337585 1.16 255 255 255
-0.356447 -0.197507 1.03 255 255 255
0.211858 0.0352175 0.742 255 255 255
0.213185 0.233036 0.73 255 255 255
0.191529 0.0463893 0.767 255 255 255
0.0378972 0.270388 0.954 255 255 255
0.177391 0.338216 0.869 255 255 255
0.144468 0.270159 0.842 255 255 255
0.0977078 0.317236 0.932 255 255 255
-0.280278 -0.278986 0.975 255 255 255
-0.293876 -0.052256 0.978 255 255 255
0.24799 0.2209 0.685 255 255 255
-0.354465 -0.262215 1.034 255 255 255
0.245875 0.128517 0.773 255 255 255
-0.456873 -0.389735 1.12 255 255 255
0.124053 0.158512 0.737 255 255 255
0.317309 -0.0109307 0.62 255 255 255
-0.320985 0.411268 1.336 255 255 255
-0.0715754 -0.103168 0.836 255 255 255
-0.3086 0.0353743 1.027 255 255 255
0.261169 0.131976 0.6 255 255 255
-0.211235 -0.137334 0.95 255 255 255
0.02769 -0.386166 1.037 255 255 255
0.0342425 0.12087 0.862 255 255 255
-0.0599084 -0.0405407 0.864 255 255 255
-0.690725 -0.278901 1.384 255 255 255
-0.546074 0.38248 1.406 255 255 255
-0.135514 0.250923 1.116 255 255 255
-0.413331 -0.348181 1.087 255 255 255
0.249134 -0.000921364 0.679 255 255 255
0.10764 -0.0910909 0.748 255 255 255
0.307734 -0.154536 0.694 255 255 255
0.169092 0.107573 0.835 255 255 255
0.0881033 -0.0849076 0.758 255 255 255
0.191236 -0.0698916 0.706 255 255 255
-0.505224 -0.194386 1.173 255 255 255
-0.298347 -0.0681015 0.977 255 255 255
0.0135011 0.169604 0.882 255 255 255
0.222937 0.073074 0.772 255 255 255
-0.549188 -0.259415 1.165 255 255 255
-0.0171587 0.00764199 0.909 255 255 255
-0.0276596 -0.119264 0.825 255 255 255
-0.207039 -0.170707 0.938 255 255 255
0.176098 -0.265061 0.836 255 255 255
-0.624484 0.436899 1.348 255 255 255
-0.300302 -0.0320825 0.994 255 255 255
0.289027 -0.100311 0.664 255 255 255
-0.0948797 0.339629 1.152 255 255 255
-0.314136 -0.0812582 1.002 255 255 255
-0.0850262 -0.0715294 0.848 255 255 255
0.314144 -0.192074 0.66 255 255 255
-0.148135 -0.0344027 0.887 255 255 255
0.213352 -0.0493618 0.692 255 255 255
-0.428891 -0.135121 1.189 255 255 255
0.266607 0.0314891 0.687 255 255 255
0.293665 0.0128293 0.648 255 255 255
-0.557997 0.475637 1.281 255 255 255
-0.512322 -0.188661 1.185 255 255 255
-0.721711 0.312586 1.547 255 255 255
0.272345 -0.108102 0.679 255 255 255
-0.22804 0.417752 1.302 255 255 255
0.136357 0.112193 0.86 255 255 255
0.255349 -0.280541 0.76 255 255 255
-0.0630311 -0.128245 0.831 255 255 255
0.0798427 0.154981 0.786 255 255 255
0.264724 -0.0395609 0.66 255 255 255
-0.322467 -0.122315 1.018 255 255 255
-0.464328 0.22022 1.422 255 255 255
0.171807 -0.0105804 0.736 255 255 255
0.107083 0.251035 0.861 255 255 255
0.266827 0.215637 0.613 255 255 255
0.151028 -0.045191 0.734 255 255 255
0.260321 -0.00525466 0.668 255 255 255
-0.264553 0.432031 1.294 255 255 255
-0.0237477 0.339038 1.073 255 255 255
0.106218 0.0872943 0.877 255 255 255
-0.469165 -0.284073 1.106 255 255 255
-0.493116 -0.457065 1.176 255 255 255
-0.481768 -0.0410233 1.21 255 255 255
0.210256 -0.220717 0.767 0 0 0
-0.0742744 -0.296185 0.92 255 255 255
0.249821 -0.0466325 0.669 255 255 255
0.12434 0.313937 0.905 255 255 255
-0.55734 -0.113326 1.27 255 255 255
-0.0109556 -0.0127368 0.886 255 255 255
0.182199 0.0539339 0.786 255 255 255
0.0197511 0.379481 1.064 255 255 255
-0.247006 0.0286459 0.969 255 255 255
0.318711 -0.077817 0.639 255 255 255
-0.352797 -0.29899 1.039 255 255 255
-0.683711 -0.37891 1.302 255 255 255
-0.269367 0.00973333 0.97 255 255 255
-0.0436002 0.0753541 0.905 255 255 255
-0.096749 -0.151251 0.854 255 255 255
0.226043 -0.14469 0.718 255 255 255
0.187066 -0.0461538 0.712 255 255 255
-0.131496 0.359587 1.213 255 255 255
0.256957 0.166238 0.567 255 255 255
-0.241024 -0.377992 1.024 255 255 255
0.00798695 0.025365 0.908 255 255 255
0.316135 -0.0610834 0.638 255 255 255
0.0420921 -0.176395 0.798 255 255 255
-0.752074 0.300557 1.563 255 255 255
0.256839 -0.205993 0.7 255 255 255
-0.68097 0.225076 1.624 255 255 255
0.210883 -0.0755886 0.695 255 255 255
0.162649 0.00142139 0.749 255 255 255
0.0840076 0.00291521 0.827 255 255 255
-0.796643 0.260138 1.612 255 255 255
-0.042329 -0.144421 0.823 255 255 255
0.203865 -0.0340817 0.702 255 255 255
-0.464152 -0.425262 1.147 255 255 255
-0.583974 -0.143758 1.265 255 255 255
0.107304 -0.0226658 0.781 255 255 255
-0.117989 0.406962 1.237 255 255 255
0.156483 0.218253 0.779 255 255 255
0.0643892 -0.385236 1.03 255 255 255
0.239223 0.0577677 0.737 255 255 255
-0.0256647 0.195048 0.95 255 255 255
-0.4059 0.368028 1.412 255 255 255
-0.385915 0.107487 1.176 255 255 255
-0.626172 0.306548 1.505 255 255 255
0.193531 -0.260425 0.77 255 255 255
0.125687 -0.0402873 0.754 255 255 255
-0.562463 -0.278373 1.165 255 255 255
-0.220119 0.0935042 0.955 255 255 255
0.115253 -0.063263 0.75 255 255 255
0.277691 -0.209077 0.684 255 255 255
0.295249 -0.0248227 0.64 255 255 255
0.0190803 0.075609 0.945 255 255 255
-0.765539 0.29005 1.575 255 255 255
-0.334729 -0.251198 1.01 255 255 255
0.232713 0.00924915 0.696 255 255 255
-0.288409 0.0561 1.009 255 255 255
0.324623 -0.259757 0.743 255 255 255
-0.246745 -0.385785 1.027 255 255 255
0.130548 0.0320509 0.815 255 255 255
0.153956 0.0680851 0.834 255 255 255
-0.372831 -0.257708 1.043 255 255 255
-0.563485 -0.0767754 1.247 255 255 255
0.209259 0.0404792 0.75 255 255 255
-0.626102 0.377901 1.432 255 255 255
0.151375 0.0887565 0.85 255 255 255
0.0206361 -0.0305812 0.823 255 255 255
0.0239517 -0.280023 0.897 255 255 255
0.291448 0.232743 0.598 255 255 255
-0.564966 0.449918 1.297 255 255 255
-0.146066 -0.00556512 0.892 255 255 255
-0.415047 -0.089877 1.205 255 255 255
0.221383 -0.0100054 0.696 255 255 255
-0.547614 0.460752 1.286 255 255 255
0.178953 -0.0704856 0.712 255 255 255
-0.679716 0.0633062 1.432 255 255 255
0.247904 0.251055 0.717 255 255 255
0.126409 -0.0486819 0.751 255 255 255
0.263189 -0.00958851 0.667 255 255 255
0.329419 -0.197368 0.667 255 255 255
0.17037 0.0931964 0.828 255 255 255
0.00807491 0.0331137 0.918 255 255 255
0.0158585 -0.385794 1.036 255 255 255
-0.0897982 -0.0595279 0.854 255 255 255
0.0635875 0.238972 0.9 255 255 255
0.0952311 0.132508 0.797 255 255 255
0.000676231 0.313414 1.029 255 255 255
0.100737 -0.0914562 0.751 255 255 255
0.19889 0.119724 0.807 255 255 255
0.119739 0.159158 0.74 255 255 255
-0.0816611 -0.036617 0.871 255 255 255
-0.759113 0.192513 1.686 255 255 255
0.199566 -0.151444 0.728 255 255 255
0.111249 0.0431099 0.85 255 255 255
-0.212333 -0.154014 0.948 255 255 255
0.217947 0.0594921 0.759 255 255 255
0.147726 0.254378 0.822 255 255 255
-0.444486 -0.263188 1.094 255 255 255
0.0999445 0.120287 0.848 255 255 255
0.1742 -0.0257954 0.726 255 255 255
0.209003 0.0275956 0.732 255 255 255
0.211702 0.00135307 0.713 255 255 255
-0.324169 0.00869287 1.034 255 255 255
-0.0297047 0.0939574 0.886 255 255 255
0.307044 -0.000854874 0.63 255 255 255
0.0955536 0.262057 0.884 255 255 255
-0.583359 -0.219666 1.229 255 255 255
-0.25662 -0.249167 0.952 255 255 255
0.244542 -0.227542 0.714 255 255 255
-0.897092 0.187889 1.719 255 255 255
-0.216316 0.351564 1.308 255 255 255
0.190484 -0.192181 0.753 255 255 255
0.131982 -0.0134342 0.762 255 255 255
0.105656 -0.0542124 0.76 255 255 255
0.138937 -0.079069 0.727 255 255 255
0.0637508 -0.148993 0.777 255 255 255
-0.621283 0.0882426 1.459 255 255 255
-0.495021 0.425623 1.354 255 255 255
-0.605375 -0.0232014 1.316 255 255 255
-0.0668981 0.189988 0.988 255 255 255
-0.125499 0.200761 1.062 255 255 255
-0.145556 -0.403935 1.057 255 255 255
-0.023636 0.177512 0.931 255 255 255
0.238578 0.16104 0.659 255 255 255
-0.605784 0.143558 1.491 255 255 255
-0.611839 -0.00594435 1.289 255 255 255
0.0855476 0.344529 0.966 255 255 255
0.173441 -0.164237 0.743 255 255 255
0.0088604 -0.228003 0.85 0 0 0
0.394025 -0.304471 0.79 255 255 255
-0.0264378 0.0408042 0.923 255 255 255
0.0632902 -0.16756 0.787 255 255 255
0.0318099 -0.295418 0.913 255 255 255
-0.440895 0.174821 1.357 255 255 255
0.132734 0.282947 0.873 255 255 255
0.206108 0.0167365 0.726 255 255 255
0.220016 -0.237352 0.741 255 255 255
-0.225386 0.442287 1.275 255 255 255
0.326986 -0.0908605 0.643 255 255 255
-0.0178797 -0.0295639 0.872 255 255 255
0.213023 0.0986621 0.796 255 255 255
-0.0551608 0.409138 1.185 255 255 255
-0.771932 0.352047 1.47 255 255 255
0.239328 -0.217197 0.73 255 255 255
0.149739 0.194158 0.764 255 255 255
0.187238 0.169242 0.679 255 255 255
-0.442536 -0.244496 1.098 255 255 255
0.165852 0.274775 0.819 255 255 255
0.113564 -0.0599989 0.755 255 255 255
-0.652382 -0.134345 1.254 255 255 255
-0.635001 0.0220414 1.213 255 255 255
-0.387844 -0.366962 1.085 255 255 255
-0.406546 -0.401428 1.112 255 255 255
0.256366 0.0734586 0.738 255 255 255
-0.0301983 -0.138726 0.821 255 255 255
-0.265175 -0.0693348 0.972 255 255 255
0.38781 -0.287992 0.77 255 255 255
0.299401 -0.0674172 0.649 255 255 255
0.126275 -0.014732 0.765 255 255 255
0.10739 -0.00236056 0.791 255 255 255
0.130587 0.0171191 0.799 255 255 255
-0.0919278 0.0291415 0.888 255 255 255
-0.234387 0.0365303 0.969 255 255 255
0.0687853 0.103944 0.873 255 255 255
-0.443751 -0.168704 1.167 255 255 255
0.287242 0.0129679 0.655 255 255 255
0.135845 0.306652 0.884 255 255 255
-0.545485 0.467299 1.281 255 255 255
-0.561855 -0.229338 1.196 255 255 255
-0.651177 0.16279 1.559 255 255 255
0.143023 0.104951 0.858 255 255 255
-0.460408 0.208145 1.403 255 255 255
0.160352 -0.00948469 0.744 255 255 255
0.0697851 0.137302 0.834 255 255 255
0.299264 0.0840602 0.706 255 255 255
-0.176876 0.0603959 0.924 255 255 255
0.0571536 0.198216 0.869 255 255 255
-0.420492 -0.150226 1.171 255 255 255
-0.117644 0.0016605 0.875 255 255 255
-0.0796699 0.357443 1.149 255 255 255
0.319619 -0.162581 0.658 255 255 255
-0.165107 0.112727 0.934 255 255 255
-0.0687837 0.189143 0.992 255 255 255
0.374994 -0.287483 0.772 255 255 255
0.0733266 0.134967 0.828 255 255 255
0.2862 0.190954 0.561 255 255 255
0.163827 0.258254 0.809 255 255 255
-0.239274 -0.113428 0.957 255 255 255
-0.580908 0.354161 1.459 255 255 255
0.31736 -0.0969891 0.649 255 255 255
0.123683 0.367796 0.945 255 255 255
0.31579 -0.127237 0.675 255 255 255
0.0399463 0.291081 0.966 255 255 255
-0.523782 -0.11802 1.254 255 255 255
0.18629 -0.263282 0.839 255 255 255
-0.511564 -0.321621 1.124 255 255 255
-0.302501 0.0672591 1.029 255 255 255
0.201282 -0.0251914 0.709 255 255 255
-0.263538 -0.241827 0.966 255 255 255
0.13839 0.225157 0.799 255 255 255
-0.279415 -0.202203 0.972 255 255 255
-0.344527 0.372797 1.387 255 255 255
0.137943 -0.201369 0.789 255 255 255
-0.0742295 0.098997 0.867 255 255 255
-0.31606 0.371185 1.381 255 255 255
0.129345 -0.0797215 0.733 255 255 255
0.190087 -0.0561049 0.706 255 255 255
0.140469 -0.222821 0.811 255 255 255
0.125628 -0.27253 0.873 0 0 0
-0.855711 0.239419 1.65 255 255 255
0.295067 0.0336258 0.663 255 255 255
-0.296714 -0.358192 1.044 255 255 255
-0.518721 0.0458109 1.33 255 255 255
0.236371 0.121909 0.779 255 255 255
0.215131 0.138645 0.709 255 255 255
0.172974 0.00140621 0.741 255 255 255
0.0630287 0.0896347 0.872 255 255 255
0.149246 -0.126931 0.737 255 255 255
-0.315334 0.174202 1.149 255 255 255
-0.526731 -0.291206 1.141 255 255 255
0.24513 0.154627 0.637 255 255 255
-0.166394 -0.107176 0.892 255 255 255
0.0966548 -0.338068 0.967 255 255 255
-0.662009 0.379435 1.429 255 255 255
0.397413 -0.300883 0.784 255 255 255
-0.531498 -0.160316 1.234 255 255 255
-0.79301 0.242861 1.637 255 255 255
-0.109505 0.384295 1.21 255 255 255
0.262263 0.243014 0.646 255 255 255
0.239274 0.134633 0.772 255 255 255
0.175256 0.151566 0.684 255 255 255
-0.147467 -0.133396 0.883 255 255 255
0.287705 -0.184356 0.671 255 255 255
-0.151976 0.0476339 0.91 255 255 255
0.124045 0.075982 0.862 255 255 255
-0.13106 -0.147096 0.879 255 255 255
0.16721 -0.204038 0.77 0 0 0
0.280958 0.152128 0.759 255 255 255
0.172492 0.304124 0.845 255 255 255
0.317126 -0.0748143 0.64 255 255 255
0.0904516 -0.0847956 0.757 255 255 255
0.210254 0.211091 0.724 255 255 255
0.152083 0.163334 0.711 255 255 255
-0.816815 0.240931 1.642 255 255 255
-0.215589 -0.191363 0.942 255 255 255
-0.483025 -0.406087 1.13 255 255 255
0.212821 0.150893 0.676 255 255 255
-0.249639 0.113119 1.005 255 255 255
0.269938 -0.045796 0.657 255 255 255
-0.129039 -0.107981 0.875 255 255 255
-0.139804 -0.140103 0.88 255 255 255
0.275285 -0.00730644 0.657 255 255 255
0.00321631 -0.0639856 0.822 255 255 255
-0.734386 0.226877 1.637 255 255 255
0.264467 -0.24958 0.724 255 255 255
0.0669367 -0.101288 0.77 255 255 255
0.295683 -0.174218 0.687 255 255 255
-0.175904 0.175093 1.085 255 255 255
-0.621987 0.0175947 1.324 255 255 255
-0.0391241 0.172925 0.939 255 255 255
0.0229189 -0.181459 0.809 255 255 255
-0.544935 -0.28464 1.152 255 255 255
-0.633535 0.0734898 1.449 255 255 255
0.209924 0.0977337 0.799 255 255 255
-0.477389 0.42342 1.354 255 255 255
-0.49918 0.19805 1.429 255 255 255
-0.482677 0.394693 1.369 255 255 255
-0.0658375 0.0976987 0.868 255 255 255
-0.0673935 0.0637829 0.908 255 255 255
0.0598507 0.365153 1.01 255 255 255
-0.14603 -0.0945987 0.883 255 255 255
-0.0520195 -0.208638 0.85 255 255 255
0.243831 0.00915613 0.689 255 255 255
-0.183969 0.243407 1.158 255 255 255
0.0400145 0.247204 0.931 255 255 255
-0.00231781 -0.00556512 0.892 255 255 255
-0.461481 0.449938 1.291 255 255 255
0.233439 0.203585 0.672 255 255 255
0.127652 -0.0933493 0.737 255 255 255
0.141322 0.346769 0.91 255 255 255
-0.00239056 0.185894 0.92 255 255 255
0.00446017 -0.145192 0.805 255 255 255
-0.632802 0.285924 1.539 255 255 255
0.102638 0.151526 0.756 255 255 255
0.0722083 0.366053 0.999 255 255 255
0.159275 -0.0190417 0.739 255 255 255
0.123411 0.256905 0.848 255 255 255
0.25786 0.143689 0.588 255 255 255
-0.114019 0.0847288 0.88 255 255 255
0.303553 0.0258767 0.658 255 255 255
0.183652 0.157959 0.678 255 255 255
0.327795 -0.150083 0.684 255 255 255
0.294081 -0.00609488 0.642 255 255 255
-0.46041 -0.328476 1.098 255 255 255
0.106611 0.142059 0.758 255 255 255
-0.312627 0.396051 1.366 255 255 255
0.225106 0.248646 0.734 255 255 255
0.164842 0.120133 0.737 255 255 255
0.232646 -0.228372 0.724 255 255 255
-0.281206 0.401668 1.333 255 255 255
-0.27483 -0.185427 0.967 255 255 255
0.298813 -0.181579 0.657 255 255 255
0.221715 -0.277467 0.755 255 255 255
-0.124481 -0.107734 0.873 255 255 255
-0.389274 0.420908 1.339 255 255 255
-0.0797826 -0.0420438 0.866 255 255 255
-0.0475952 0.0279771 0.897 255 255 255
0.310226 0.0733844 0.692 255 255 255
-0.47855 -0.0176388 1.227 255 255 255
-0.0746659 0.0725751 0.889 255 255 255
0.248988 0.0809709 0.752 255 255 255
-0.252531 0.00969319 0.966 255 255 255
0.196045 0.26169 0.78 255 255 255
0.0969588 -0.29316 0.897 255 255 255
0.131816 -0.0484226 0.747 255 255 255
-0.792619 0.288947 1.583 255 255 255
-0.453303 -0.157408 1.182 255 255 255
-0.259089 -0.0343583 0.967 255 255 255
0.0241654 0.101863 0.905 255 255 255
-0.472555 0.207183 1.412 255 255 255
0.219366 0.0500422 0.747 255 255 255
0.0350172 -0.07388 0.785 255 255 255
0.198545 0.253323 0.77 255 255 255
0.159973 0.151741 0.695 255 255 255
0.225782 0.197023 0.672 255 255 255
0.0830852 0.345797 0.974 255 255 255
0.151394 -0.103154 0.73 255 255 255
0.181781 -0.0509311 0.714 255 255 255
-0.418487 -0.286074 1.073 255 255 255
0.0454573 0.132189 0.836 255 255 255
0.216995 0.220164 0.719 255 255 255
-0.103195 -0.271567 0.898 255 255 255
0.0712518 0.235255 0.886 255 255 255
0.363825 -0.281877 0.767 255 255 255
-0.0781014 0.105562 0.863 255 255 255
0.239908 0.296882 0.766 255 255 255
-0.148385 0.471628 1.222 255 255 255
-0.0819423 -0.224485 0.874 255 255 255
0.0475763 0.328634 0.994 255 255 255
-0.133546 0.00168137 0.886 255 255 255
0.18104 0.246774 0.781 255 255 255
0.00187825 -0.191064 0.822 255 255 255
0.339827 -0.159741 0.664 255 255 255
-0.642211 0.373501 1.442 255 255 255
-0.240557 -0.363108 1.015 255 255 255
0.313133 -0.120302 0.667 255 255 255
-0.699997 0.438843 1.354 255 255 255
-0.0783129 0.461017 1.215 255 255 255
-0.0150236 0.127802 0.871 255 255 255
-0.460021 -0.368192 1.11 255 255 255
-0.374691 -0.309873 1.053 255 255 255
-0.406867 -0.300946 1.07 255 255 255
0.281702 -0.06611 0.657 255 255 255
-0.403455 -0.198188 1.089 255 255 255
0.131072 0.0565403 0.844 255 255 255
0.00370932 0.0542511 0.948 255 255 255
0.256792 -0.0041988 0.673 255 255 255
-0.465658 -0.205073 1.137 255 255 255
0.0450871 0.199746 0.882 255 255 255
-0.700389 0.235066 1.62 255 255 255
-0.195095 -0.202982 0.932 255 255 255
0.165308 0.193041 0.75 255 255 255
-0.0285312 -0.0579339 0.851 255 255 255
0.122168 0.195568 0.795 255 255 255
-0.00251009 0.239205 0.966 255 255 255
0.0437008 -0.268467 0.883 255 255 255
-0.125679 -0.269841 0.902 255 255 255
-0.375856 -0.369128 1.081 255 255 255
0.199107 0.231451 0.744 255 255 255
-0.0502339 0.0191117 0.892 255 255 255
0.247987 0.143184 0.764 255 255 255
0.00906008 0.323775 1.03 255 255 255
-0.0198187 0.409797 1.149 255 255 255
-0.789021 0.212173 1.668 255 255 255
0.100014 -0.330418 0.954 255 255 255
0.277428 -0.169845 0.706 255 255 255
-0.405815 -0.3989 1.11 255 255 255
0.301238 0.149928 0.742 255 255 255
0.268363 0.0987988 0.748 255 255 255
0.223978 0.127143 0.78 255 255 255
0.110198 -0.325359 0.935 255 255 255
0.230878 -0.284877 0.765 255 255 255
0.204504 0.145099 0.685 255 255 255
-0.28355 -0.298379 0.992 255 255 255
0.262294 -0.0429127 0.662 255 255 255
0.219985 0.191271 0.671 255 255 255
0.112944 0.238644 0.842 255 255 255
0.0948946 0.154171 0.763 255 255 255
-0.159134 -0.0316935 0.892 255 255 255
-0.219371 0.226139 1.176 255 255 255
0.056681 0.00570173 0.841 255 255 255
0.0591448 -0.0736918 0.783 255 255 255
-0.688199 0.460325 1.327 255 255 255
0.203575 -0.0853673 0.701 255 255 255
-0.282115 0.379098 1.369 255 255 255
0.181918 -0.0668214 0.71 255 255 255
0.2252 0.0174737 0.708 255 255 255
0.216418 -0.0537884 0.691 255 255 255
0.202627 0.142789 0.69 255 255 255
0.293355 0.0160916 0.652 255 255 255
-0.652436 -0.353064 1.27 255 255 255
0.20283 -0.292509 0.772 255 255 255
0.317012 -0.168554 0.644 255 255 255
0.0472569 0.160351 0.82 255 255 255
-0.0699148 -0.0406346 0.866 255 255 255
-0.112303 -0.107029 0.856 255 255 255
0.205884 -0.0261965 0.705 255 255 255
-0.181602 -0.236693 0.91 255 255 255
0.197717 0.197382 0.717 255 255 255
-0.0100159 -0.125004 0.81 255 255 255
0.175245 -0.229198 0.801 255 255 255
-0.647265 -0.398995 1.252 255 255 255
-0.136783 -0.124209 0.879 255 255 255
-0.0818194 0.386289 1.18 255 255 255
0.161763 -0.213034 0.78 255 255 255
0.109332 0.358879 0.954 255 255 255
0.255787 -0.120133 0.691 255 255 255
0.172151 0.325022 0.864 255 255 255
-0.299909 0.405655 1.339 255 255 255
0.0559452 -0.100555 0.774 255 255 255
-0.380029 -0.347309 1.068 255 255 255
-0.00942749 0.114541 0.878 0 0 0
-0.339661 -0.231475 1.01 255 255 255
-0.0440263 -0.226826 0.856 255 255 255
-0.419468 0.236344 1.381 255 255 255
-0.679428 0.218351 1.633 255 255 255
-0.596635 0.45625 1.297 255 255 255
-0.16003 0.100245 0.931 255 255 255
-0.0643251 -0.325941 0.95 255 255 255
-0.613184 0.00846785 1.249 255 255 255
-0.340157 -0.38815 1.085 255 255 255
-0.439113 -0.443154 1.145 255 255 255
-0.675297 -0.469235 1.294 255 255 255
-0.313872 -0.0410999 1.017 0 0 0
0.242075 0.0449668 0.724 255 255 255
0.246873 0.151456 0.664 255 255 255
0.141689 0.0749242 0.85 255 255 255
-0.546264 0.163094 1.449 255 255 255
0.163564 -0.0990447 0.726 255 255 255
0.280613 0.0141838 0.662 255 255 255
-0.100928 -0.182971 0.866 255 255 255
0.325919 -0.230083 0.704 255 255 255
0.257403 -0.183776 0.711 255 255 255
-0.0141267 -0.113065 0.819 255 255 255
-0.155612 -0.359369 1 255 255 255
-0.571379 -0.356462 1.16 255 255 255
-0.561233 0.131526 1.439 255 255 255
0.142023 -0.282612 0.852 255 255 255
-0.162757 -0.0835738 0.888 255 255 255
0.0267699 -0.0404425 0.806 255 255 255
-0.0384382 0.470949 1.205 255 255 255
-0.308493 -0.215908 0.984 255 255 255
-0.238626 -0.0154748 0.967 255 255 255
0.250003 -0.21562 0.713 255 255 255
-0.636959 0.284157 1.543 255 255 255
0.266202 0.0975072 0.539 255 255 255
0.196874 -0.18262 0.754 0 0 0
-0.822322 0.242861 1.637 255 255 255
-0.425307 -0.290646 1.077 255 255 255
0.0984914 -0.139917 0.762 255 255 255
-0.598191 0.454817 1.305 255 255 255
0.19127 -0.000987855 0.728 255 255 255
-0.271504 -0.0724983 0.972 255 255 255
-0.781544 0.172486 1.705 255 255 255
0.213158 0.0312544 0.734 255 255 255
-0.170821 0.107936 0.932 255 255 255
0.297737 -0.113042 0.669 255 255 255
-0.758404 0.248248 1.62 255 255 255
0.304146 0.0884046 0.704 255 255 255
0.188253 -0.175315 0.749 255 255 255
-0.325638 0.438349 1.294 255 255 255
-0.129121 0.109064 0.916 255 255 255
-0.328505 0.435144 1.297 255 255 255
-0.636001 -0.455578 1.262 255 255 255
0.159688 -0.187529 0.764 255 255 255
0.274151 0.0288699 0.678 255 255 255
0.242729 0.136968 0.771 255 255 255
-0.201789 0.0815007 0.942 255 255 255
0.279788 0.19606 0.576 255 255 255
-0.605912 0.0897473 1.445 255 255 255
0.244432 0.253506 0.724 255 255 255
0.194758 -0.133191 0.719 255 255 255
0.225713 0.0162754 0.706 255 255 255
0.0332965 -0.257197 0.874 255 255 255
0.044896 0.258221 0.938 255 255 255
-0.110523 -0.00261124 0.875 255 255 255
0.188874 0.142582 0.689 255 255 255
-0.364636 -0.197542 1.039 0 0 0
0.0237864 -0.0643903 0.794 255 255 255
0.00217987 0.079434 0.954 255 255 255
0.168442 0.154691 0.688 255 255 255
-0.15385 0.418893 1.267 255 255 255
-0.46914 -0.0746821 1.213 255 255 255
0.265969 0.103749 0.535 255 255 255
-0.615344 0.453257 1.319 255 255 255
-0.00749682 -0.363349 1.002 255 255 255
-0.425436 -0.21988 1.1 255 255 255
-0.072849 -0.128862 0.835 255 255 255
0.301499 -0.05086 0.64 255 255 255
0.290403 0.213541 0.588 255 255 255
-0.467339 0.48281 1.267 255 255 255
-0.513561 -0.109419 1.249 255 255 255
0.176026 0.119319 0.787 255 255 255
0.250866 0.0618859 0.729 255 255 255
0.373399 -0.258358 0.739 255 255 255
0.127709 0.320888 0.908 255 255 255
0.302541 0.010588 0.64 255 255 255
0.232859 0.189038 0.652 255 255 255
-0.73458 0.395601 1.412 255 255 255
-0.47867 0.434411 1.327 255 255 255
-0.583693 -0.387285 1.185 255 255 255
0.202274 0.145099 0.685 255 255 255
-0.0821779 0.0321759 0.892 255 255 255
0.0987656 0.0911766 0.887 255 255 255
-0.593957 -0.388283 1.194 255 255 255
-0.783675 0.277462 1.591 255 255 255
0.311352 -0.152964 0.692 255 255 255
-0.490902 0.071779 1.291 255 255 255
0.0882033 -0.00509097 0.816 255 255 255
0.0944961 0.128553 0.813 255 255 255
-0.273256 -0.0422265 0.967 255 255 255
0.300034 0.224829 0.59 255 255 255
0.254895 0.146098 0.59 255 255 255
0.245782 -0.210679 0.728 255 255 255
-0.486814 -0.400985 1.126 255 255 255
-0.467402 0.139489 1.357 255 255 255
-0.670396 0.227718 1.624 255 255 255
0.294884 -0.2156 0.68 255 255 255
0.219861 0.307973 0.788 255 255 255
-0.391319 -0.122176 1.158 255 255 255
0.00508072 0.19275 0.917 255 255 255
-0.0334936 0.123691 0.872 255 255 255
0.184363 -0.0428577 0.715 255 255 255
0.0774805 0.147682 0.788 255 255 255
0.252335 0.234978 0.697 255 255 255
-0.574585 -0.139862 1.267 255 255 255
-0.211233 -0.311212 0.957 255 255 255
0.109294 -0.0755686 0.751 255 255 255
0.306796 -0.0822031 0.649 255 255 255
-0.0548487 -0.121337 0.83 255 255 255
-0.162483 0.424018 1.27 255 255 255
0.202434 -0.0751005 0.701 255 255 255
0.200377 -0.012588 0.714 255 255 255
0.100442 0.132126 0.787 255 255 255
-0.0256369 0.34269 1.079 255 255 255
-0.278267 0.346439 1.372 255 255 255
-0.099128 -0.247524 0.875 255 255 255
-0.176571 -0.327162 0.972 255 255 255
0.31012 -0.0377627 0.63 255 255 255
0.16337 -0.179888 0.758 255 255 255
-0.182078 -0.0689737 0.905 255 255 255
0.182131 -0.162151 0.739 255 255 255
0.263913 0.197022 0.593 255 255 255
0.147645 -0.112233 0.735 255 255 255
-0.871285 0.204695 1.696 255 255 255
0.164182 0.277793 0.824 255 255 255
0.251249 0.0239043 0.694 255 255 255
-0.43876 0.456566 1.286 255 255 255
-0.0821178 0.153622 0.924 255 255 255
0.132348 -0.0207374 0.757 255 255 255
-0.0888019 -0.307302 0.931 255 255 255
-0.0527433 0.277744 1.059 255 255 255
0.268079 0.0922577 0.534 255 255 255
-0.155483 0.100245 0.931 255 255 255
-0.331234 0.454736 1.275 255 255 255
0.182035 0.18636 0.715 255 255 255
-0.198555 -0.119822 0.934 255 255 255
0.19655 -0.0126409 0.717 255 255 255
-0.0916909 -0.0267258 0.872 255 255 255
0.279164 0.0522887 0.696 255 255 255
-0.184396 -0.210261 0.924 255 255 255
0.0953846 -0.317583 0.939 255 255 255
0.327673 -0.28771 0.776 255 255 255
-0.572115 -0.257019 1.189 255 255 255
0.282493 0.0929847 0.731 255 255 255
0.247909 0.16419 0.576 255 255 255
-0.500586 -0.290526 1.124 255 255 255
-0.473782 -0.0136231 1.225 255 255 255
0.165409 0.10102 0.837 255 255 255
0.26971 0.165712 0.559 255 255 255
-0.665551 0.272108 1.575 255 255 255
-0.679428 0.197091 1.633 255 255 255
0.152147 0.251502 0.817 255 255 255
-0.453686 -0.162626 1.178 255 255 255
0.277262 0.18746 0.567 255 255 255
0.237069 0.0339834 0.716 255 255 255
-0.360291 0.46926 1.275 255 255 255
-0.614878 0.435672 1.351 255 255 255
-0.0874255 -0.0514292 0.858 255 255 255
0.0341156 -0.206529 0.825 255 255 255
-0.375333 -0.203051 1.05 255 255 255
0.0413536 -0.0763376 0.784 255 255 255
-0.188216 0.0138424 0.928 255 255 255
0.235319 0.190573 0.65 255 255 255
0.322011 -0.102742 0.652 255 255 255
-0.362676 -0.316929 1.048 255 255 255
-0.135902 -0.227656 0.892 255 255 255
-0.144428 -0.0715267 0.882 255 255 255
-0.563752 0.335302 1.47 255 255 255
-0.205279 0.175273 1.12 255 255 255
0.156361 -0.0366792 0.731 255 255 255
0.0342822 0.0844964 0.863 255 255 255
0.0915393 -0.37467 1.015 255 255 255
0.146603 0.123144 0.748 255 255 255
-0.0715892 -0.303488 0.924 255 255 255
-0.373188 -0.240966 1.044 255 255 255
0.19063 0.21329 0.744 255 255 255
-0.609417 0.017794 1.339 255 255 255
0.189031 0.233031 0.757 255 255 255
0.292891 0.225766 0.595 255 255 255
-0.514295 -0.354599 1.13 255 255 255
-0.188013 -0.226029 0.927 255 255 255
0.285109 0.0108361 0.655 255 255 255
-0.0245499 0.214275 0.967 255 255 255
0.0162983 0.00881017 0.878 255 255 255
-0.621342 -0.0654535 1.225 255 255 255
0.297972 0.057896 0.682 255 255 255
0.263811 0.0586969 0.719 255 255 255
-0.0122439 0.1469 0.875 255 255 255
-0.513591 -0.229675 1.149 255 255 255
-0.0783729 0.101701 0.866 255 255 255
0.290788 0.0645615 0.694 255 255 255
-0.0209087 0.101913 0.88 255 255 255
0.304668 0.0980676 0.716 255 255 255
0.26013 -0.293516 0.778 255 255 255
0.117224 -0.125006 0.747 255 255 255
0.151186 -0.0947087 0.729 255 255 255
0.292908 -0.192947 0.663 0 0 0
-0.629256 0.271184 1.555 255 255 255
0.127427 -0.324114 0.906 255 255 255
0.316285 -0.000838591 0.618 255 255 255
0.363463 -0.243689 0.724 255 255 255
0.197767 0.179714 0.681 255 255 255
0.248273 0.191009 0.614 255 255 255
0.120182 0.00801745 0.799 255 255 255
0.292214 0.0237712 0.659 255 255 255
0.22792 -0.0577802 0.685 255 255 255
-0.121543 -0.273381 0.904 255 255 255
0.178497 -0.301002 0.781 255 255 255
-0.298489 -0.197492 0.988 255 255 255
0.0586254 -0.295741 0.914 255 255 255
-0.205715 -0.0528315 0.932 255 255 255
-0.0263964 0.127949 0.872 255 255 255
0.204103 0.242757 0.749 255 255 255
-0.442675 0.372623 1.412 255 255 255
0.300407 -0.175569 0.675 255 255 255
-0.690938 0.0737336 1.502 255 255 255
0.16387 0.129708 0.717 255 255 255
-0.146073 -0.202095 0.901 255 255 255
-0.131209 -0.0212428 0.88 255 255 255
0.136314 -0.138008 0.745 255 255 255
0.0632745 -0.0197944 0.82 255 255 255
-0.104706 0.104063 0.874 255 255 255
-0.63528 0.0290746 1.357 255 255 255
0.281555 -0.128568 0.688 255 255 255
0.270018 -0.126696 0.69 255 255 255
-0.293778 -0.1645 0.983 255 255 255
0.195737 0.226913 0.745 255 255 255
0.279563 0.00445426 0.657 255 255 255
0.149246 -0.120934 0.737 255 255 255
-0.137982 0.402351 1.254 255 255 255
0.0263816 0.29771 0.988 255 255 255
-0.124983 0.0849059 0.897 255 255 255
-0.0354736 0.089632 0.886 255 255 255
-0.374019 0.240211 1.316 255 255 255
-0.0847958 0.14057 0.889 255 255 255
0.25478 0.110568 0.762 255 255 255
-0.242061 0.174999 1.13 255 255 255
0.0216648 0.394914 1.073 255 255 255
0.12437 -0.374015 1 255 255 255
-0.452074 -0.0229935 1.194 255 255 255
0.0932837 0.238979 0.863 255 255 255
-0.0723129 0.0802499 0.878 255 255 255
0.0953468 0.246297 0.869 255 255 255
0.0115095 0.0655304 0.955 255 255 255
-0.110884 0.310935 1.143 255 255 255
0.271406 -0.204923 0.685 255 255 255
-0.0152478 0.100938 0.884 255 255 255
0.190716 0.00857134 0.735 255 255 255
0.020937 -0.0201565 0.835 255 255 255
0.203269 -0.137296 0.716 255 255 255
0.021148 -0.111915 0.792 255 255 255
0.286997 0.197034 0.568 255 255 255
0.103599 0.306161 0.917 255 255 255
-0.588126 -0.300847 1.194 255 255 255
0.264415 0.235113 0.636 255 255 255
0.28038 -0.0787003 0.664 255 255 255
-0.470965 -0.266075 1.106 255 255 255
0.119129 0.118767 0.847 255 255 255
-0.828766 0.205131 1.677 255 255 255
-0.559407 -0.113326 1.27 255 255 255
-0.185593 0.0834893 0.93 255 255 255
0.213368 -0.234241 0.783 255 255 255
-0.0788762 -0.351104 0.977 255 255 255
-0.218275 -0.0922088 0.947 255 255 255
0.239484 -0.00537265 0.683 255 255 255
-0.121711 0.234435 1.09 255 255 255
-0.605173 0.341546 1.466 255 255 255
-0.486346 0.191098 1.412 255 255 255
-0.26954 -0.306823 0.988 255 255 255
0.0303814 0.0655112 0.872 255 255 255
0.202133 0.0635951 0.779 255 255 255
-0.737908 0.231638 1.633 255 255 255
-0.184396 -0.202743 0.924 255 255 255
0.259903 -0.131196 0.696 255 255 255
0.120478 -0.00106384 0.784 255 255 255
-0.300244 -0.085678 0.978 255 255 255
0.227862 0.0138984 0.702 255 255 255
0.146011 0.0715635 0.843 255 255 255
-0.254893 -0.108543 0.969 255 255 255
0.135265 -0.28041 0.871 255 255 255
0.172856 0.0903923 0.827 255 255 255
0.289897 -0.186234 0.666 255 255 255
-0.628304 0.479467 1.297 255 255 255
-0.468067 0.462844 1.286 255 255 255
0.208126 -0.294145 0.773 255 255 255
0.238636 0.28638 0.758 255 255 255
-0.169472 0.26883 1.162 255 255 255
0.166926 0.158739 0.691 255 255 255
-0.193728 0.236276 1.16 255 255 255
-0.269604 0.445407 1.278 255 255 255
-0.37398 -0.304153 1.051 255 255 255
0.205264 -0.167187 0.74 255 255 255
0.178026 -0.240384 0.826 255 255 255
-0.0694544 0.0816787 0.878 255 255 255
-0.067173 -0.222687 0.867 0 0 0
-0.0562932 0.0279459 0.896 255 255 255
0.150523 0.197674 0.768 255 255 255
0.111426 0.317643 0.92 255 255 255
-0.585875 0.0178737 1.345 255 255 255
-0.0941351 0.427405 1.215 255 255 255
0.164014 -0.0329746 0.728 255 255 255
-0.173332 0.45785 1.244 255 255 255
-0.32366 0.222464 1.208 255 255 255
-0.362704 0.403757 1.362 255 255 255
-0.193006 -0.253413 0.901 255 255 255
0.273599 0.0640983 0.714 255 255 255
0.217228 -0.0458506 0.69 255 255 255
-0.000922101 -0.316665 0.95 255 255 255
0.186169 -0.0438981 0.713 255 255 255
0.0411035 -0.273185 0.889 255 255 255
0.0312903 0.028157 0.858 255 255 255
-0.156975 -0.11681 0.888 255 255 255
-0.0140059 -0.134562 0.812 255 255 255
-0.107674 0.0016605 0.875 255 255 255
0.070755 0.0835393 0.898 255 255 255
-0.149817 0.29759 1.171 255 255 255
0.138338 0.124737 0.814 255 255 255
-0.0956161 -0.091794 0.844 255 255 255
0.0997796 -0.0831221 0.753 255 255 255
0.223613 0.287155 0.77 255 255 255
0.195472 0.00137774 0.726 255 255 255
0.018593 -0.136576 0.793 255 255 255
-0.181052 0.0471673 0.93 255 255 255
-0.0178592 0.130637 0.871 255 255 255
0.220691 -0.118449 0.701 255 255 255
0.229572 -0.185884 0.733 255 255 255
0.0490108 -0.0750617 0.784 255 255 255
0.0184804 0.139442 0.847 255 255 255
-0.835395 0.196415 1.696 255 255 255
-0.377211 -0.379296 1.09 255 255 255
-0.426654 -0.163006 1.167 255 255 255
0.288516 0.231568 0.6 255 255 255
-0.433764 -0.331649 1.085 255 255 255
0.104419 -0.0554491 0.76 255 255 255
0.180167 -0.186795 0.756 0 0 0
-0.127906 -0.125354 0.877 255 255 255
-0.506318 -0.189785 1.18 255 255 255
0.0921649 0.121886 0.84 255 255 255
0.0952025 0.119889 0.855 255 255 255
0.0386993 0.132347 0.837 255 255 255
0.264724 -0.0245244 0.66 255 255 255
-0.00382898 0.0120398 0.906 255 255 255
-0.317522 -0.3948 1.051 255 255 255
0.0473916 0.365572 1.025 255 255 255
0.222155 0.148684 0.681 255 255 255
