ply
format ascii 1.0
comment Created by Open3D
element vertex 1321
property double x
property double y
property double z
property uchar red
property uchar green
property uchar blue
end_header
-0.54417 0.102169 1.893 41 39 31
-1.17898 -0.637195 2.347 142 137 119
-0.782359 -0.0977916 1.677 68 32 13
0.284158 0.194022 0.984 105 106 102
0.072295 0.163128 1.22 125 117 116
0.242606 -0.288289 1.025 164 158 162
0.302146 0.280947 0.98 171 170 155
0.131617 0.127336 1.165 128 125 120
-0.683613 -0.193114 1.724 86 32 4
0.165503 0.301744 1.077 204 200 191
0.120069 0.0637952 1.182 131 122 125
0.0414834 -0.341128 1.249 164 155 160
0.0134053 -0.139866 1.286 143 134 139
-0.553115 -0.0824819 1.821 72 26 6
-0.758368 -0.351197 1.637 63 29 17
-0.46249 -0.299628 1.826 154 140 134
-0.403116 0.00914031 1.774 144 130 124
-0.480324 -0.638379 1.826 173 160 149
-0.117117 -0.494825 1.422 170 165 161
-0.803748 -0.0994244 1.705 65 33 9
-0.692549 -0.0298127 1.691 73 30 7
-0.642774 -0.349138 1.705 56 26 10
0.252714 -0.259842 0.999 141 136 132
-0.243844 -0.40758 1.567 183 173 171
0.311388 0.25327 0.984 139 137 129
-0.95374 0.140459 1.911 31 24 18
-0.517872 0.372073 1.887 101 93 81
0.287499 -0.353908 0.963 184 179 175
-0.646602 0.385589 1.753 47 17 1
-0.683899 0.280633 1.739 52 20 0
0.301262 -0.194944 0.952 128 124 125
-0.734127 0.300656 1.724 49 19 1
0.311353 0.124819 0.945 104 105 99
-0.511799 -0.402471 1.876 159 141 130
-0.569604 -0.238242 1.789 82 32 9
-0.0635862 -0.477561 1.366 202 198 199
-0.11407 0.253824 1.442 142 126 121
-0.688018 -0.09716 1.714 79 33 6
0.372299 0.236848 0.892 165 172 166
0.416327 0.174883 0.832 169 171 162
0.186482 0.13771 1.141 145 138 130
-0.630129 -0.419297 1.779 133 120 124
-0.634804 0.328539 1.784 54 19 2
-0.63108 -0.55464 1.972 160 147 136
0.32004 0.309146 0.917 195 197 188
0.373551 0.246384 0.895 143 144 131
-0.225719 -0.128375 1.583 153 141 141
-0.0550522 0.0227476 1.375 132 124 123
-1.19789 -0.876861 2.44 136 135 118
0.392997 0.304278 0.861 131 136 122
-0.794395 -0.112367 1.691 66 32 12
-1.21497 -0.607444 2.365 137 134 120
0.277751 0.36536 0.984 101 99 78
0.400772 -0.110759 0.842 117 118 109
-0.666775 -0.41475 1.724 118 129 140
0.352372 0.202679 0.908 106 104 96
0.149341 0.297448 1.1 203 199 192
0.356174 -0.0821288 0.888 123 123 123
-1.06004 0.123624 2.044 51 30 17
0.245228 0.192848 1.029 111 112 103
0.301608 0.10369 0.963 156 150 152
-0.366855 0.241014 1.739 162 150 134
0.0435165 -0.290315 1.249 155 149 151
0.103795 0.0916453 1.194 133 122 126
-0.750965 0.337128 1.724 48 15 0
0.0135199 0.232522 1.297 135 131 124
0.136339 0.0594917 1.173 127 122 120
0.104942 -0.161664 1.185 144 135 142
-0.224835 0.373361 1.559 109 101 89
-0.317529 0.553124 1.673 130 120 108
-0.0142486 0.211986 1.327 133 124 119
-0.719573 0.0059115 1.677 67 29 4
-0.472698 0.611321 1.831 116 113 97
0.320721 0.31743 0.878 173 174 170
0.0975544 0.356342 1.189 111 102 93
0.374604 -0.018316 0.877 142 134 133
0.0214231 0.101212 1.265 127 122 120
-0.738855 -0.366716 1.659 94 58 48
0.400772 0.0947722 0.842 108 109 100
0.180256 0.221468 1.114 176 172 163
0.241896 -0.362286 1.022 184 179 175
0.233284 0.141158 1.043 112 112 112
0.416676 0.0831574 0.822 102 111 102
0.386024 0.301369 0.877 81 78 62
0.260238 0.304862 0.955 200 198 188
0.29499 -0.100451 0.967 188 185 182
-1.13881 -0.245201 2.189 60 66 77
0.221347 -0.0749293 1.027 126 123 120
0.230646 0.311154 0.995 191 187 180
0.393972 -0.0623073 0.854 112 113 109
0.330641 0.32025 0.874 178 172 159
-0.147951 -0.290242 1.452 161 151 149
0.0985694 -0.390748 1.178 217 209 208
-0.104579 -0.226617 1.409 153 144 147
0.138249 0.0594917 1.173 129 124 122
-0.362458 0.311216 1.705 105 91 74
-0.593473 0.736759 1.893 40 19 2
0.270241 -0.229384 0.98 175 167 164
0.0411512 0.357213 1.239 110 102 88
0.41027 0.181816 0.839 104 112 113
-0.394877 -0.272076 1.763 164 145 139
0.300332 0.172142 0.969 114 108 110
0.346126 0.328978 0.856 95 92 78
-0.764391 -0.147234 1.65 78 32 14
-1.05672 0.775571 2.044 41 33 19
-0.243578 0.0819596 1.616 132 122 122
-0.629306 -0.379375 1.729 39 93 117
-0.568996 -0.356486 1.769 66 35 26
0.345362 -0.109218 0.909 124 124 118
-0.176332 -0.228571 1.513 153 142 146
-0.0700512 -0.261169 1.362 192 181 185
0.20659 0.155097 1.081 175 167 164
0.311718 0.247456 0.98 141 139 129
-0.0515464 -0.248599 1.342 178 169 172
0.375885 0.0933211 0.88 109 111 102
0.309249 -0.209497 0.934 134 129 127
0.312967 -0.235081 0.927 197 198 189
-0.796356 0.604698 1.719 51 14 0
-0.803804 0.518179 1.729 45 16 2
-0.419342 -0.130889 1.794 154 143 138
0.0275351 -0.163954 1.262 144 134 134
0.140009 0.269323 1.156 171 164 158
0.0050827 -0.0715214 1.299 139 131 130
0.321098 -0.0809913 0.942 125 117 114
-0.187045 0.524801 1.52 136 127 120
-0.0854344 -0.00643779 1.396 171 162 165
0.348368 0.153279 0.913 109 111 102
0.280009 0.148785 0.992 118 119 110
-0.104172 -0.0976911 1.435 143 133 131
0.230607 0.302396 1.009 204 200 191
-0.544501 -0.0864306 1.842 53 18 1
0.339646 0.275728 0.951 140 141 130
0.291329 -0.159814 0.955 165 160 156
0.187376 -0.135367 1.158 166 157 152
-0.136875 -0.450309 1.435 189 181 180
-0.244989 -0.587291 1.591 169 166 163
-0.00974137 -0.177626 1.302 161 150 154
0.278733 0.249002 0.999 141 139 127
-0.0864136 0.234756 1.412 145 132 136
-0.0219921 0.284598 1.275 199 190 185
0.0256424 -0.32413 1.27 193 185 184
0.0111976 -0.18817 1.273 192 182 180
0.234081 0.127091 1.039 115 115 109
0.416469 0.134749 0.835 96 106 94
-1.15662 -0.298635 2.189 34 47 34
0.275869 -0.327665 0.983 146 145 145
-0.5897 0.148171 1.815 62 23 1
-0.938342 0.654628 1.905 56 67 37
-0.2541 0.0188453 1.616 139 129 127
0.0609733 0.459448 1.232 136 129 119
-0.547135 0.266958 1.882 28 21 11
-0.182984 -0.454527 1.487 187 179 178
-0.0753603 -0.282177 1.378 156 150 152
0.0175509 0.188255 1.283 146 137 132
-0.755339 -0.218666 1.642 82 34 15
0.260066 0.102682 1.015 119 116 113
-1.08791 -0.902979 2.479 132 126 111
-0.0870256 0.171625 1.422 129 119 117
0.22055 -0.19247 1.039 137 132 128
0.346515 0.279319 0.932 147 148 135
0.372432 -0.0342088 0.882 174 171 166
0.364643 -0.261579 0.884 132 130 122
0.109234 0.415028 1.169 136 130 115
0.101852 0.0916453 1.194 133 122 126
0.34483 0.249119 0.944 137 137 131
0.118145 -0.0131449 1.182 133 123 123
0.282556 -0.0910076 0.984 152 144 143
-0.678 0.0257158 1.724 61 25 4
0.00716952 -0.458707 1.294 191 186 184
0.331656 -0.354459 0.912 183 181 173
0.408314 -0.210391 0.835 159 162 161
0.204105 0.175084 1.096 122 117 113
-0.854799 -0.330585 1.724 80 61 48
-0.320252 -0.538607 1.673 176 167 160
-0.692392 -0.432508 1.739 153 153 157
-0.447294 0.207185 1.789 134 123 114
-0.277572 -0.221877 1.646 185 173 171
-0.539157 -0.133034 1.865 39 24 12
-0.0918484 0.14416 1.425 131 123 122
0.294417 0.356449 0.96 97 92 74
-1.01093 -0.672871 2.365 135 129 105
-0.7403 -0.565633 2.071 125 37 29
-0.156779 -0.137899 1.491 183 171 171
-0.195909 0.0206113 1.551 133 128 126
-0.56986 -0.151747 1.799 73 30 7
-0.19139 0.480021 1.535 142 132 120
-0.737432 0.00859416 1.668 64 25 3
-0.0881466 0.0323433 1.403 131 123 122
-1.11488 -0.0900921 2.143 57 58 54
0.0196088 0.440199 1.281 140 132 118
0.413822 -0.15838 0.819 190 191 182
0.19212 0.326645 1.05 98 96 73
0.130166 0.0478748 1.169 129 124 122
-0.291857 0.0223521 1.682 147 136 131
-0.620841 -0.393638 1.794 156 129 132
0.182768 -0.35248 1.141 187 175 173
-0.634888 0.707711 1.826 44 19 0
0.138434 -0.395879 1.143 195 192 189
0.0571936 0.467352 1.237 135 128 118
0.14514 -0.161107 1.167 144 135 138
0.373176 -0.339429 0.877 149 146 143
0.356174 -0.311895 0.888 143 142 142
-0.14569 0.550816 1.477 135 125 111
0.151098 0.196258 1.169 128 124 125
0.381421 0.125254 0.873 101 105 98
0.406389 0.0278288 0.848 103 107 100
-0.0289488 -0.37427 1.308 191 183 182
-0.77374 0.312492 1.682 47 20 0
0.0217787 -0.0791766 1.286 142 132 132
0.38742 0.315313 0.831 192 194 185
0.304231 -0.209759 0.942 132 129 124
0.264573 0.142841 1.007 112 111 111
0.0613197 -0.429128 1.239 174 164 162
0.15388 -0.329589 1.12 166 157 160
0.0997409 0.460049 1.192 137 131 118
0.248674 -0.0457025 1.009 132 128 129
-0.0163716 0.459284 1.324 142 133 124
-0.131768 0.512182 1.456 136 128 116
-0.548986 0.423884 1.899 32 34 25
0.0259048 0.263418 1.283 185 169 164
0.345416 0.303177 0.917 181 181 157
0.384801 0.224185 0.871 135 137 128
-0.00556174 0.173823 1.316 128 120 119
-0.639861 0.335194 1.758 49 24 6
-0.150004 -0.308506 1.449 163 151 151
-0.636859 -0.307247 1.719 78 36 8
-0.257916 -0.140782 1.607 172 157 158
-0.71898 -0.16925 1.682 88 37 19
0.351579 0.31136 0.873 193 195 182
0.358459 0.228315 0.916 140 142 131
-0.820285 -0.344428 1.682 61 44 26
-0.0740723 0.118509 1.396 142 133 128
-0.40474 -0.104614 1.794 153 139 131
0.312109 0.104055 0.952 172 167 163
0.257203 0.291928 1.03 87 79 78
-0.937817 -0.212276 1.923 47 49 38
-0.0161985 -0.227748 1.31 152 141 145
0.343504 0.0623053 0.908 108 106 98
0.0598845 -0.460435 1.21 206 203 198
0.0870981 0.0826849 1.205 192 177 178
-0.689956 -0.246478 1.705 87 36 7
-0.638106 0.144416 1.769 58 23 8
-0.640895 0.334241 1.753 46 21 3
0.414141 -0.155334 0.817 176 174 164
-0.100914 0.393775 1.422 114 111 97
0.30596 -0.297196 0.957 175 175 171
-0.211058 0.416877 1.551 136 129 121
0.223286 -0.107618 1.036 195 193 185
0.226878 -0.117847 1.037 134 129 127
-0.416171 -0.530246 1.744 171 160 153
0.380985 -0.116125 0.872 115 119 114
0.29187 -0.121309 0.983 124 124 124
0.341177 0.293598 0.934 174 177 156
-0.910308 0.665952 1.842 40 35 15
-0.594912 -0.131944 1.769 76 28 9
-0.209071 -0.574002 1.555 185 180 176
-0.240412 -0.285084 1.595 188 178 178
-0.635777 -0.138196 1.739 77 31 4
-1.06528 -0.22573 2.107 68 68 62
0.128941 0.362127 1.158 110 103 95
0.0260664 -0.0563747 1.291 192 180 178
-0.385826 -0.227093 1.748 163 144 138
-1.12604 0.840674 2.151 34 27 10
0.117945 0.128976 1.18 129 124 120
0.413986 0.138454 0.841 93 105 95
0.389741 0.144381 0.86 97 104 96
-0.761586 0.523807 1.729 38 14 0
0.396278 -0.270883 0.85 135 139 132
0.0681551 -0.0135342 1.217 132 126 128
-0.418319 -0.179247 1.753 154 140 132
0.221348 0.298424 1.059 199 195 186
0.235091 0.000280119 1.036 119 116 113
-0.0164829 0.0242219 1.333 130 120 118
0.0155348 0.4849 1.289 133 129 122
0.312581 -0.00287385 0.963 111 112 106
0.309075 0.0890279 0.957 123 118 114
-0.392637 0.160226 1.753 143 129 123
0.122328 0.342484 1.149 108 100 86
-0.548444 0.107358 1.876 31 15 10
-0.726026 0.01951 1.673 63 23 8
-0.319133 0.224014 1.696 173 165 151
0.22671 0.0257662 1.044 182 179 174
-0.828709 0.265717 1.734 51 31 23
-0.612782 0.53385 1.831 46 18 1
-0.808888 -0.124761 1.71 63 34 11
0.190486 -0.0954628 1.154 162 147 148
0.405008 0.0374886 0.848 169 170 166
0.019517 -0.136595 1.275 144 138 140
0.139202 0.0439193 1.165 128 123 121
-0.161199 -0.384352 1.487 168 157 163
0.136952 0.142136 1.162 161 151 149
-0.171686 -0.186801 1.494 154 143 149
-0.016891 -0.502013 1.366 172 166 170
0.342322 -0.341386 0.901 165 161 154
-0.729475 -0.203621 1.65 76 33 10
0.390715 -0.320157 0.856 135 138 139
0.110075 -0.200966 1.178 149 141 138
0.0294018 -0.236379 1.254 158 149 152
-0.516437 -0.128871 1.893 121 107 99
0.388834 0.011402 0.858 109 110 106
-0.923512 -0.890032 2.329 137 132 114
-0.498083 -0.00252256 1.859 126 116 114
0.0945735 -0.244641 1.176 187 178 181
-0.273863 -0.446191 1.624 178 166 166
-0.652309 0.15452 1.753 60 26 4
0.394421 -0.0444479 0.858 108 114 112
-0.710766 -0.0652372 1.682 74 30 10
0.314964 -0.174501 0.942 164 160 161
0.145023 0.347217 1.122 110 103 84
-0.0335625 -0.0964523 1.322 139 128 132
0.0371175 -0.477519 1.239 172 167 165
0.0606269 -0.374443 1.225 199 189 187
-0.635188 0.377031 1.753 46 17 0
-0.712457 0.0909972 1.686 59 27 7
-0.106872 -0.224324 1.409 153 145 144
-0.025219 0.380831 1.336 111 100 91
-1.13056 -0.931905 2.449 134 131 115
-0.118188 -0.265827 1.435 179 170 173
0.19295 0.197901 1.114 122 117 113
0.183761 0.00412783 1.171 155 144 137
0.387047 -0.0897856 0.851 161 157 160
-0.649456 0.0061794 1.753 65 24 3
0.140493 0.141891 1.16 159 152 146
0.252208 -0.225251 0.997 178 170 167
-0.665894 -0.0220417 1.729 67 26 7
0.191616 -0.227998 1.096 162 149 153
0.171323 -0.220262 1.139 168 161 155
-0.167251 0.158718 1.52 128 120 119
-0.641518 -0.403528 1.724 75 113 138
-0.185057 0.38978 1.524 114 106 92
0.295993 -0.066568 0.955 118 117 117
0.351596 0.00171933 0.906 106 107 98
0.214339 -0.110781 1.05 191 187 180
-1.08018 0.355382 2.057 53 48 30
0.377459 -0.00547154 0.877 107 107 107
0.246887 0.396101 1.022 110 102 88
0.043621 0.481169 1.252 134 130 121
0.28236 0.276946 1.012 181 179 169
-0.209071 0.248409 1.555 116 85 83
-0.252714 -0.121129 1.624 154 142 142
0.145886 0.00222602 1.173 137 130 124
-0.0960814 0.242848 1.419 181 170 163
-0.718768 -0.508162 1.966 156 152 155
-0.496655 -0.394042 1.865 161 147 132
0.263456 -0.20169 1.009 134 128 130
-0.912728 0.130165 1.853 18 22 15
0.108341 0.286436 1.18 198 191 183
0.338323 -0.301999 0.906 202 200 192
-0.471407 -0.454146 1.826 167 151 146
-1.03026 -0.763307 2.383 138 128 114
0.418703 0.0418927 0.826 177 177 173
0.260369 -0.219057 0.991 157 151 153
-0.102285 0.344317 1.409 109 99 85
-0.101411 0.446873 1.429 139 131 117
0.195184 -0.0995826 1.096 161 150 145
-0.77179 -0.783097 2.189 152 138 123
-0.184085 0.535755 1.516 132 126 113
0.0196088 0.1963 1.281 152 144 141
-0.110985 -0.456249 1.403 189 184 182
-0.713504 0.0743583 1.682 67 28 6
0.244173 -0.136971 1.004 127 124 119
0.143275 -0.275267 1.152 157 150 144
-0.543474 -0.108405 1.859 39 19 11
-0.751585 0.411679 1.719 40 20 0
-0.297047 -0.024381 1.696 170 158 156
-1.18155 -0.724528 2.383 146 134 118
0.00293163 0.102652 1.283 123 118 116
-0.544071 -0.501763 1.882 164 145 130
0.0808306 0.130331 1.229 126 121 119
-0.581156 -0.674527 1.966 166 152 144
0.299102 -0.0432566 0.955 126 123 118
0.303082 -0.0321405 0.948 186 178 175
0.0378066 -0.299497 1.262 162 150 150
-0.605819 0.604356 1.837 41 17 5
-0.950977 0.381286 1.887 51 37 33
0.415733 0.236429 0.839 153 162 155
0.0919795 0.287409 1.192 201 194 188
0.40696 0.246503 0.855 160 167 161
-0.350421 -0.191994 1.714 169 153 150
-0.750434 0.284301 1.71 46 18 0
-1.24962 -0.819119 2.365 138 141 120
0.043621 0.464869 1.252 137 127 127
-0.72875 -0.00227017 1.673 66 26 11
0.098539 0.127362 1.201 128 122 124
0.426319 0.303872 0.833 90 84 71
0.065248 -0.428436 1.237 174 164 162
-0.69076 -0.795479 2.064 157 143 135
-0.489005 0.157813 1.859 132 119 108
-0.564505 -0.193911 1.81 80 33 11
-0.32542 -0.270653 1.7 167 155 155
0.0174141 0.358729 1.273 112 102 88
0.323825 -0.0167487 0.95 118 114 117
0.104145 -0.309708 1.176 193 183 183
0.207194 0.220712 1.075 171 169 161
-0.243757 0.24773 1.583 124 116 104
-0.12611 -0.539964 1.419 198 191 185
0.197608 -0.0788053 1.034 134 126 125
0.270293 0.16299 1.01 175 173 165
0.400001 0.197805 0.855 95 104 97
0.0132698 0.101852 1.273 125 119 121
0.356751 0.256294 0.931 135 137 126
-0.0645637 0.187715 1.387 150 141 136
-1.05808 -0.731839 2.42 139 129 115
-0.438081 -0.488417 1.799 175 162 151
0.399401 -0.18201 0.842 125 123 115
-0.577016 0.161396 1.831 61 22 2
0.271935 0.302144 0.992 196 194 184
0.137963 -0.24114 1.124 185 176 179
0.202562 -0.0781194 1.025 133 123 123
-0.578645 0.0883134 1.799 60 24 5
-0.433114 0.505557 1.815 130 120 108
-0.628109 0.579397 1.815 43 18 0
-0.538704 0.0547789 1.853 37 18 12
0.350241 -0.228422 0.895 171 171 171
-0.336471 -0.264514 1.714 171 157 153
-0.670366 0.475516 1.748 43 17 2
0.3541 0.252019 0.932 139 136 133
-0.647603 0.037452 1.748 69 25 5
-0.5475 -0.0564552 1.842 56 22 2
0.267319 0.301197 1.005 194 195 182
0.235702 -0.101373 1.024 169 163 165
-0.616463 0.710915 1.842 46 18 1
-0.387261 -0.6523 1.729 174 167 159
0.0215585 -0.142595 1.273 143 134 139
0.379237 0.103349 0.868 173 174 170
0.335964 0.136165 0.928 105 106 100
-0.573735 0.327225 1.859 51 19 0
-0.717094 0.244545 1.744 57 23 3
0.232504 -0.303693 1.032 183 178 176
0.196395 0.389783 1.083 110 103 84
0.229967 0.294978 1.059 178 176 166
0.337474 -0.128113 0.928 125 127 118
-0.132401 -0.142451 1.463 192 183 176
0.243083 -0.114256 1.02 131 127 130
0.282397 -0.259387 0.967 139 139 133
-0.867104 -0.661679 2.261 146 133 120
-0.0316007 -0.0559134 1.33 168 155 159
-0.926404 -0.297354 1.887 25 15 3
0.0935259 -0.285562 1.187 159 149 149
0.275307 0.303583 0.981 197 195 183
0.199921 -0.248205 1.083 205 199 201
0.0153058 -0.394398 1.27 209 201 198
0.124739 0.349608 1.154 112 105 88
0.110916 -0.156142 1.187 143 134 137
0.14116 -0.256429 1.135 171 158 162
-0.488854 -0.346408 1.87 154 144 130
0.317008 -0.252489 0.93 138 138 134
-0.00997331 0.043745 1.333 127 121 123
0.388231 -0.0138585 0.866 113 111 103
0.213332 -0.288326 1.062 154 145 140
0.265191 0.0440756 0.997 113 110 107
0.301921 -0.316626 0.964 177 170 164
0.0441436 -0.0738831 1.267 139 131 130
0.241423 -0.0495205 1.02 128 122 126
0.205724 -0.189452 1.041 142 137 135
0.316809 0.308832 0.925 196 197 188
0.158007 0.33979 1.098 101 96 76
-0.242525 -0.437854 1.575 173 165 162
-1.0805 0.239033 2.064 46 26 16
-0.068631 -0.0870833 1.378 141 129 129
0.232053 -0.314837 1.03 198 190 187
0.103622 -0.0113164 1.192 132 126 128
-0.545716 -0.207511 1.826 71 25 5
-1.00642 -0.463929 2.01 127 123 112
0.333891 -0.35072 0.91 175 175 171
-0.135852 -0.372172 1.449 167 156 162
-0.0829832 -0.301117 1.393 157 152 150
0.242583 0.106081 1.032 114 110 113
-0.496476 -0.578463 1.853 168 158 146
0.0257433 -0.344079 1.275 168 160 157
-0.125545 -0.388337 1.439 187 178 181
-1.19204 -0.818979 2.469 135 131 120
0.414613 0.240449 0.834 161 168 160
-0.517907 0.626345 1.876 90 86 77
-0.483103 0.580909 1.848 115 110 92
-0.749993 -0.280124 1.642 76 35 16
0.0451849 -0.0157951 1.239 131 122 125
0.072295 -0.140629 1.22 141 136 134
-0.1217 0.19139 1.449 173 166 160
0.407442 0.149875 0.836 96 102 100
-0.295608 0.612349 1.642 125 117 105
0.423064 0.277201 0.851 134 135 126
0.163666 0.390531 1.1 112 104 90
-0.190099 -0.518809 1.505 173 165 164
0.36821 -0.330398 0.872 133 134 130
0.355522 0.124873 0.901 100 104 99
-0.527348 0.17048 1.899 95 83 67
0.276058 -0.220958 0.978 170 165 161
-0.592655 0.419902 1.815 43 18 0
0.28867 0.117041 0.983 108 109 100
-0.44147 0.073266 1.789 142 128 122
-0.635302 -0.622645 2.037 161 146 136
0.392588 -0.275356 0.851 165 165 161
-0.390621 -0.155622 1.744 158 144 138
-0.0202603 -0.36268 1.297 169 158 164
-0.686113 0.595177 1.774 39 14 5
0.263568 -0.184689 0.997 132 129 126
-0.458438 0.677946 1.81 114 107 97
-0.689001 0.586516 1.774 41 17 3
0.299402 0.0191252 0.966 116 116 112
0.295363 -0.372337 0.958 192 190 182
-0.352465 -0.111754 1.724 161 147 141
-0.472698 0.0869046 1.831 135 124 117
-0.629741 0.631261 1.837 42 17 0
0.281526 -0.0927971 0.986 161 157 150
0.147791 0.109611 1.158 129 125 118
0.112583 0.320796 1.145 98 98 76
0.25914 0.057513 1.005 115 111 112
0.272228 0.237623 0.999 145 137 134
0.236784 0.239729 1.051 143 139 128
-0.0417876 0.30307 1.31 99 93 78
-0.215786 0.408428 1.567 135 126 119
0.339816 -0.0797209 0.91 122 120 112
0.0700209 0.433336 1.215 137 131 118
-0.85232 -0.368789 1.719 62 54 42
0.203447 0.107799 1.083 124 116 113
0.394421 0.173367 0.858 166 166 160
0.403034 -0.273489 0.841 148 156 153
-0.589478 0.369195 1.842 49 18 7
0.165749 -0.244433 1.114 185 176 179
-0.220016 -0.398827 1.543 183 172 176
0.39534 0.242346 0.86 169 169 169
-0.234238 0.424809 1.571 135 125 123
0.289406 0.213142 0.991 133 131 123
-0.786334 -0.772511 2.22 145 136 127
-0.444382 -0.520637 1.789 176 163 152
0.0352423 -0.248664 1.244 182 172 170
-0.353211 0.457899 1.714 131 122 113
-0.426909 -0.223686 1.789 158 142 135
0.258181 -0.339761 0.995 147 142 140
-0.106645 -0.498409 1.406 169 164 162
-0.0864136 0.216374 1.412 131 122 125
0.405869 0.106928 0.83 172 174 165
0.415662 -0.225293 0.82 195 195 189
0.249076 -0.0699836 1.004 124 123 125
-0.58785 -0.0848645 1.748 70 26 6
-0.735664 -0.375945 1.664 180 171 164
-0.492031 -0.138657 1.859 135 128 120
0.403649 0.317811 0.82 187 192 182
0.123499 -0.426307 1.16 180 172 169
-0.859743 -0.680076 2.261 143 135 121
0.291168 -0.197051 0.97 130 130 126
0.259055 -0.272506 0.986 141 138 135
-0.640587 -0.373295 1.714 47 88 121
0.0360639 0.253078 1.273 180 171 162
-0.467152 0.679103 1.821 113 109 100
0.087315 0.145797 1.208 183 174 169
0.387438 0.118913 0.858 99 103 96
-0.253471 0.0581474 1.612 147 132 131
0.400469 0.244005 0.856 165 165 165
0.0521039 0.0228955 1.26 131 122 125
-0.340255 0.491564 1.705 130 122 108
-0.61236 -0.130751 1.753 76 29 7
0.230376 -0.246115 1.03 195 187 184
0.406509 0.273628 0.875 133 135 122
-0.671671 0.156565 1.744 65 21 3
-0.645006 0.634653 1.821 49 13 5
0.197792 -0.24071 1.081 182 172 172
0.118951 0.0231838 1.171 156 143 147
-0.60384 -0.422614 1.831 192 165 159
0.301608 0.106824 0.963 115 111 114
0.111783 -0.447411 1.156 200 193 187
0.349416 0.0105888 0.908 111 112 103
0.123498 0.0731643 1.178 143 134 129
0.194632 -0.311651 1.083 189 181 180
0.190793 -0.327235 1.112 203 195 192
-0.127531 -0.345224 1.435 186 176 174
-0.596848 0.356236 1.837 49 19 1
-0.401977 -0.555788 1.744 172 163 154
-0.849366 -0.674003 2.253 147 135 117
0.252173 0.293605 1.03 127 117 105
0.273563 0.312975 0.942 198 197 182
0.207194 -0.220131 1.075 148 140 139
0.023575 0.395085 1.27 111 104 94
-0.439002 -0.517727 1.779 175 162 151
0.0492186 0.15962 1.239 127 119 118
-0.614081 0.588851 1.826 43 18 0
-0.358078 -0.193114 1.724 166 150 147
0.285523 0.313866 0.931 201 202 189
-0.961985 0.318345 1.953 81 80 80
-0.700464 -0.228785 1.677 86 35 6
0.357378 -0.231751 0.891 192 189 186
-0.345044 0.093318 1.729 142 133 128
-0.632271 0.25969 1.81 56 17 0
-0.855083 -0.78528 2.278 138 132 117
0.185244 0.404718 1.09 109 102 85
-0.135428 0.23483 1.47 171 164 156
-0.730753 -0.369416 1.659 160 137 132
-0.0678341 -0.398588 1.362 198 190 189
0.291679 0.0908885 0.977 152 150 140
0.179483 0.166098 1.132 154 140 136
-0.0271067 -0.137328 1.322 151 139 139
-0.915603 0.00353924 1.865 75 83 72
0.0549569 -0.170081 1.232 150 139 145
0.0922882 0.0703896 1.196 147 138 133
-0.202953 -0.524251 1.528 178 170 167
0.400923 -0.198502 0.854 123 123 119
-0.460776 0.143518 1.831 135 126 119
0.0914393 -0.300508 1.185 185 180 178
0.128495 0.405946 1.154 110 104 89
-0.281784 -0.225784 1.655 188 180 177
0.364011 -0.168552 0.879 176 178 169
-0.697546 -0.191546 1.71 88 30 5
-0.619245 0.301758 1.815 51 16 0
0.354629 0.214972 0.91 108 110 101
-1.16319 -0.903697 2.459 136 130 115
0.242113 -0.390264 1.03 171 166 162
0.0254808 -0.379591 1.262 191 186 182
0.376251 0.265337 0.905 133 138 124
-0.741885 0.456279 1.729 44 18 7
-0.698869 0.316509 1.734 52 20 0
0.254941 -0.153554 0.995 142 132 132
-0.663562 0.679819 1.815 41 18 0
-0.297333 0.0634096 1.682 145 134 129
-0.00976382 -0.23325 1.305 154 141 147
0.0112855 -0.135364 1.283 148 139 144
0.314647 -0.318332 0.955 167 160 152
-0.561559 -0.373585 1.81 138 115 96
0.391666 -0.233261 0.849 184 183 183
-0.158164 -0.448343 1.459 179 174 170
-0.735664 -0.189101 1.664 80 33 9
0.359506 -0.190568 0.875 123 123 123
0.247143 0.028773 1.03 185 181 174
0.374604 0.309932 0.877 193 195 182
-0.586691 -0.176115 1.779 80 27 12
0.145495 0.302267 1.098 205 198 188
-0.158598 -0.328152 1.463 181 172 175
-0.134138 0.36528 1.456 112 103 86
0.315345 0.325014 0.887 103 95 83
0.264668 0.224359 1.02 163 161 151
-0.604473 0.46716 1.815 44 19 1
-0.717094 0.531189 1.744 46 16 0
0.0519798 -0.0385256 1.257 135 125 125
0.240903 0.114478 1.032 116 111 107
-0.531817 -0.32413 1.882 116 101 91
-0.033918 0.424313 1.336 142 131 122
-0.632217 -0.334246 1.714 47 21 8
0.301262 0.207474 0.972 108 108 102
-0.645006 0.273122 1.821 49 19 1
-0.796356 0.607496 1.719 55 13 1
0.181807 -0.418966 1.135 188 185 180
0.0997192 -0.368739 1.169 195 187 186
0.196968 0.201838 1.096 123 119 112
0.0029819 0.456941 1.305 139 132 122
-0.904847 0.356236 1.837 56 44 26
0.0379564 0.237453 1.267 142 131 135
0.173933 0.116359 1.169 149 139 137
0.240305 0.282305 1.044 178 174 163
0.356111 0.0994643 0.91 166 167 156
-0.0705655 -0.374722 1.372 174 164 164
-0.350421 -0.272882 1.714 170 159 154
-0.0322422 -0.507539 1.357 178 170 169
0.216275 0.000288772 1.068 123 117 119
0.39672 0.286728 0.863 165 170 158
-0.77782 -0.222417 1.65 71 40 11
0.190612 -0.0725272 1.178 163 152 147
-0.606466 -0.451317 1.876 181 162 145
0.414832 -0.0852844 0.821 155 154 154
-0.513436 0.591597 1.882 102 95 78
-0.103737 0.525939 1.429 136 122 114
0.24982 -0.316001 1.007 155 153 160
-0.953394 -0.896516 2.356 135 128 111
0.217168 0.340131 1.039 120 115 95
0.092674 -0.202935 1.201 144 139 135
-0.218632 -0.196452 1.551 163 151 151
-0.270206 -0.606475 1.587 177 173 174
-0.330156 0.339749 1.668 104 95 78
0.0544216 -0.222028 1.22 148 140 139
0.0587285 0.345766 1.227 110 102 88
-0.181617 -0.246293 1.516 155 147 146
0.388834 -0.0235042 0.858 170 166 159
0.297213 0.10066 0.964 182 177 173
-0.170619 0.0377115 1.528 130 125 121
-0.100204 0.361134 1.412 108 102 87
-0.660117 -0.31751 1.714 85 37 2
-0.781053 0.362218 1.71 52 17 0
-0.611962 -0.690826 2.004 160 149 144
0.194225 -0.130486 1.132 156 147 140
-0.147392 -0.377566 1.47 167 156 160
0.333838 -0.0266418 0.918 162 156 158
0.0397977 0.205384 1.26 178 170 167
0.179636 0.304741 1.057 203 196 188
0.104322 -0.425254 1.178 172 166 168
-0.194468 -0.259311 1.52 164 156 153
-0.30242 -0.421113 1.65 185 176 171
-0.375347 0.224034 1.739 160 148 132
-0.505692 0.104305 1.876 119 109 95
0.13542 0.447193 1.149 138 131 121
0.276149 -0.183882 0.984 131 130 130
0.0481923 0.0456306 1.265 127 122 120
0.134713 -0.306597 1.143 193 183 183
-0.66308 -0.157097 1.729 83 34 8
-0.0297677 0.201729 1.345 178 168 166
0.275664 -0.0399279 0.988 185 180 176
0.16629 -0.183583 1.13 201 193 190
-0.359393 0.167917 1.744 152 141 132
-0.355272 0.0734095 1.724 149 138 129
-0.680845 0.0839443 1.71 67 26 7
0.133742 0.0382974 1.167 128 123 119
0.399515 0.176107 0.851 167 172 160
0.222393 0.0574265 1.064 122 116 118
-0.577037 -0.390718 1.794 188 166 156
-0.639728 -0.765858 2.03 154 145 136
0.26763 0.0342376 0.994 161 156 152
-0.844938 -0.114996 1.774 65 37 20
0.00298875 0.177023 1.308 124 120 121
0.197226 0.309289 1.032 179 179 159
-0.619643 0.173213 1.799 65 25 1
-0.564972 -0.384745 1.821 153 136 122
0.0154625 -0.327448 1.283 204 194 192
0.132023 0.380872 1.152 111 104 85
0.174269 0.331539 1.077 118 114 89
-0.405203 -0.440095 1.758 172 157 145
-0.0448923 -0.176136 1.339 150 142 141
-0.214992 0.316799 1.543 107 97 85
0.413325 -0.144947 0.826 157 154 151
-0.76316 0.478727 1.739 37 16 1
0.138434 -0.429359 1.143 193 190 187
0.181618 0.298793 1.079 203 199 190
0.220744 -0.0618589 1.032 127 123 124
0.196587 -0.0735738 1.135 143 135 132
-0.286373 0.369516 1.62 111 102 85
0.401816 -0.147 0.83 158 158 154
0.354448 0.00758314 0.902 111 111 111
-0.5226 -0.150434 1.893 113 101 83
0.139161 -0.267071 1.149 156 148 147
-0.715893 0.6149 1.748 45 17 0
-0.581574 0.0385448 1.799 67 23 5
-0.555566 0.389245 1.911 31 27 16
-0.834697 -0.853655 2.253 141 135 120
0.298162 -0.370005 0.952 187 183 174
0.386438 0.0843985 0.862 105 106 97
-0.760966 0.5225 1.734 38 14 0
0.195933 0.304099 1.043 207 200 194
0.102578 0.424694 1.18 135 131 122
0.193829 0.328353 1.05 98 97 71
-0.0204633 -0.457983 1.31 195 187 184
0.400005 -0.00256946 0.861 109 110 104
0.16477 0.264897 1.145 182 179 165
-0.481535 0.0874267 1.842 130 121 112
0.203732 0.0821895 1.094 153 144 139
0.295366 -0.226522 0.948 169 166 161
-0.539373 -0.432468 1.887 138 120 109
0.30746 0.116449 0.952 103 107 102
-0.554809 -0.703853 1.941 163 153 141
0.165684 0.199686 1.178 143 138 134
0.353549 -0.217013 0.896 167 168 157
-0.718731 -0.286859 1.65 70 36 14
-0.589153 -0.152095 1.769 82 31 13
0.00293848 -0.441221 1.286 194 185 188
-0.211222 0.141034 1.571 129 121 120
-0.204414 -0.487953 1.539 192 187 183
0.0436907 0.0595185 1.254 129 123 125
-0.565516 0.309835 1.882 46 17 0
0.0565 -0.260176 1.222 181 173 170
-0.294595 0.00866629 1.682 146 134 134
-0.0498033 -0.237601 1.354 152 144 143
-0.363521 0.33439 1.71 109 95 78
-0.465462 -0.296656 1.826 151 140 131
0.385209 -0.298548 0.85 196 197 191
0.0491392 -0.160706 1.237 143 135 134
0.257593 -0.217574 0.999 137 131 135
0.0371175 -0.45534 1.239 199 191 188
-1.24962 -0.811422 2.365 138 138 118
0.349174 -0.200974 0.896 127 124 119
-0.565884 -0.15519 1.805 79 32 10
0.0739764 0.166414 1.215 127 120 114
-0.272513 0.394901 1.616 135 124 115
-0.337479 0.000461007 1.705 153 139 135
0.406358 -0.0700954 0.831 107 115 114
0.231586 0.0206497 1.043 172 167 163
0.245378 0.314386 0.97 153 154 150
0.384801 0.231272 0.871 141 151 139
-0.11407 0.235051 1.442 163 152 147
0.404211 0.253316 0.864 137 140 124
0.0134365 0.468119 1.289 138 131 121
-0.789403 0.189688 1.71 60 24 3
0.224253 -0.0764514 1.025 125 122 119
-0.123459 0.0426288 1.442 128 123 121
0.16043 -0.41659 1.154 192 186 188
-0.684405 0.0337562 1.705 60 24 5
-0.490443 0.630728 1.853 107 107 87
0.0558491 0.226492 1.252 127 119 118
-0.741208 0.41245 1.734 45 17 0
0.35879 0.313411 0.863 194 199 187
-0.429105 0.211222 1.774 140 127 116
-0.198969 0.283183 1.498 128 105 100
0.210301 0.0247359 1.073 187 182 178
-0.533791 0.208875 1.911 83 74 65
0.115035 -0.0725283 1.21 138 128 128
0.182029 0.385914 1.092 109 101 87
0.395824 0.0751005 0.852 95 107 99
-0.626249 -0.101699 1.744 71 27 9
0.211276 0.0568989 1.087 125 117 114
0.216789 -0.0325491 1.062 156 148 147
0.291768 -0.134187 0.972 122 121 121
0.394894 0.224313 0.85 135 137 128
-0.0589658 0.00258469 1.362 191 183 182
-0.728589 0.501319 1.779 41 17 3
0.354729 -0.0792386 0.888 119 116 113
0.423927 0.281485 0.839 135 137 128
0.117945 -0.0208037 1.18 133 122 126
0.237006 0.128533 1.037 117 114 111
-0.181899 -0.543211 1.498 184 181 178
-0.723303 -0.176511 1.673 81 35 8
0.310904 -0.338976 0.939 147 143 136
-0.0744437 0.091705 1.403 130 119 123
0.106059 -0.294398 1.176 157 151 155
0.356592 0.117411 0.9 100 106 104
0.169171 -0.266132 1.137 179 172 166
-0.289807 -0.0187499 1.686 178 171 163
-0.774789 -0.179999 1.655 80 33 9
0.396751 -0.130863 0.857 118 118 114
-0.91795 0.235578 1.876 61 57 50
0.360842 0.0498172 0.896 108 108 104
-0.357332 -0.118046 1.734 163 149 141
0.224125 0.22538 1.064 178 171 163
0.290089 -0.192114 0.977 132 128 121
0.376953 -0.0251326 0.866 177 173 166
-0.147761 -0.106855 1.498 143 133 131
-0.0798466 -0.306844 1.378 165 155 155
0.339816 -0.149322 0.91 133 129 130
0.133898 0.382747 1.152 111 103 89
-0.103011 -0.267481 1.419 186 175 179
-0.191488 0.31619 1.516 106 97 76
-0.659352 -0.0164619 1.734 68 28 4
-0.344841 0.212446 1.714 147 136 129
-0.474247 0.0303907 1.837 139 126 113
0.0414834 0.488146 1.249 138 131 114
0.259478 -0.0485495 1 126 123 120
0.259478 0.374556 1 108 100 88
0.400469 -0.125138 0.856 117 118 112
0.277751 -0.0621843 0.984 120 120 114
-0.449599 0.0152167 1.81 147 128 124
-0.467152 0.4124 1.821 118 111 103
-0.540448 -0.11748 1.859 39 19 9
-0.983958 -0.0284349 1.978 47 36 31
0.33862 0.0998139 0.927 170 170 164
-0.0407147 0.431549 1.345 144 130 122
0.326189 -0.0150267 0.939 113 112 114
-0.492031 0.644871 1.859 108 105 91
0.027426 -0.406725 1.257 185 176 181
0.407702 0.143238 0.845 99 104 94
0.23055 -0.399731 1.046 166 160 162
0.222229 0.0432061 1.055 122 120 112
-0.344791 -0.218091 1.7 173 163 151
0.414503 -0.212725 0.823 168 165 160
0.0361206 0.26385 1.275 187 172 162
-0.70568 0.240786 1.758 54 20 0
-0.221157 0.32349 1.551 109 99 87
0.331981 -0.274328 0.917 139 136 133
-0.393757 0.0205012 1.758 148 134 126
0.298097 0.0761875 0.972 113 110 105
-0.678832 -0.405155 1.719 72 114 133
-0.134783 0.536071 1.463 131 125 112
0.345925 0.269945 0.947 139 140 131
-0.511834 -0.242293 1.865 125 111 105
0.0155589 0.246152 1.291 171 162 155
0.246903 0.0722826 1.029 115 115 111
-0.693245 -0.358966 1.686 71 34 31
-0.745482 0.392124 1.744 47 17 1
0.249767 0.0303605 1.027 189 185 178
-0.430776 -0.514817 1.769 175 161 153
0.137888 -0.410956 1.154 177 174 171
-0.216664 0.539416 1.555 133 125 113
-0.435646 0.221742 1.789 137 122 112
0.392541 0.187766 0.86 98 107 100
-1.13109 -0.279797 2.181 43 46 45
0.392588 -0.254584 0.851 134 131 126
0.243988 -0.26599 1.01 142 139 136
0.130166 0.116359 1.169 127 122 120
0.121401 -0.34831 1.158 168 159 162
-0.0616321 0.493797 1.372 135 126 117
0.115746 -0.376576 1.158 196 191 187
0.256223 -0.0420402 1 183 178 174
-0.0316007 -0.13383 1.33 183 174 169
0.0958602 0.0662747 1.192 134 126 123
-0.383335 -0.627969 1.724 180 170 156
0.13968 -0.14236 1.169 146 138 135
-0.224008 -0.375386 1.571 164 154 154
0.362832 0.248095 0.912 139 137 127
-0.560868 -0.0985002 1.789 68 27 10
-0.769622 -0.428826 1.691 174 169 151
0.0590636 0.195122 1.234 149 141 138
-0.266751 0.583643 1.629 129 120 111
-0.217504 0.444859 1.543 138 127 118
-0.0523146 0.472466 1.362 140 132 120
0.363183 0.309932 0.877 195 196 185
-0.0389263 0.0291175 1.359 130 120 118
0.355627 0.106281 0.905 174 174 168
-0.691836 -0.00782127 1.696 71 26 15
0.0629788 -0.304407 1.232 178 167 171
0.291168 -0.0455145 0.97 125 122 117
0.285318 -0.324075 0.977 150 144 146
0.301286 0.367794 0.957 105 104 89
0.379422 -0.151265 0.862 161 154 146
0.13355 0.361182 1.149 109 102 92
0.368152 0.139123 0.889 106 106 102
-0.532115 0.400423 1.905 78 74 63
0.384178 0.256865 0.896 135 137 126
-0.568012 -0.109838 1.784 72 26 6
-0.852057 -0.159278 1.753 63 59 52
0.323636 -0.334702 0.923 145 141 142
-0.0189046 -0.489905 1.351 195 192 189
-0.932796 -0.361803 1.81 64 47 29
-0.167715 0.203279 1.502 132 122 120
-0.0204633 -0.349261 1.31 169 157 157
-0.0475992 -0.0503122 1.354 139 129 129
0.313 0.306357 0.95 194 196 180
0.122973 -0.116123 1.173 198 190 189
-0.190018 0.41706 1.524 140 131 122
-0.193888 0.0753535 1.535 131 121 121
0.351512 -0.00856322 0.902 112 113 104
0.140787 -0.338647 1.132 168 159 162
-0.601518 0.165892 1.815 66 27 9
0.306169 -0.336054 0.948 145 142 139
-0.594664 0.71907 1.887 43 18 0
0.171998 -0.206619 1.156 172 164 161
0.134201 -0.0244562 1.171 136 125 129
-0.732208 0.391295 1.753 44 19 0
0.377158 -0.136147 0.873 118 118 118
-0.673304 -0.293646 1.705 67 28 10
0.375648 -0.0503245 0.863 108 116 105
0.0568237 0.41233 1.229 141 131 119
0.064826 -0.291666 1.229 156 147 150
0.0889118 0.0336058 1.203 128 120 117
-0.0540913 -0.27445 1.351 163 154 157
-0.95586 -0.132547 1.947 75 70 66
0.0257433 0.272149 1.275 159 155 148
-0.146932 -0.522904 1.442 183 183 179
-0.299808 0.135696 1.696 143 133 133
-1.13056 -0.740609 2.449 145 134 125
0.279111 0.349833 0.972 101 97 88
-0.191109 -0.551112 1.513 189 186 181
-0.938677 -0.696739 2.329 140 130 116
-0.409436 0.521605 1.789 130 121 116
0.226659 -0.380736 1.036 210 202 199
0.363109 0.155145 0.898 103 106 105
-0.0628879 0.323548 1.351 109 100 83
-0.209071 -0.520862 1.555 166 158 157
-0.560156 0.0566092 1.815 63 24 6
-0.0828045 -0.0606978 1.39 169 156 160
-0.752498 0.564826 1.734 36 14 4
0.231271 -0.223514 1.034 166 161 159
0.139441 -0.168704 1.167 161 150 154
-0.528426 -0.163822 1.87 79 70 63
-0.281793 -0.403907 1.624 175 164 168
0.349953 -0.347556 0.898 179 179 159
-0.349355 -0.626356 1.682 180 171 162
-0.50103 0.578695 1.87 109 105 94
-0.148796 0.418189 1.484 139 128 119
-0.262456 0.452379 1.587 135 124 117
0.204477 -0.133714 1.098 141 136 132
0.232837 0.0256922 1.041 187 183 176
0.240949 -0.105748 1.018 194 190 181
0.0567312 0.347763 1.227 111 104 87
0.306305 0.29788 0.978 91 84 65
-0.0208226 0.186914 1.333 149 140 135
0.28561 -0.055439 0.978 125 122 119
-0.609447 0.716238 1.848 39 16 0
-1.14024 0.58705 2.158 19 9 0
0.13262 -0.437892 1.141 198 193 191
0.387835 0.256882 0.891 131 137 120
0.417689 -0.00782272 0.824 108 109 105
0.123073 -0.432362 1.156 197 192 188
0.0132906 0.350993 1.275 111 103 91
0.370629 0.0233612 0.888 111 112 101
-1.18802 -0.774782 2.469 140 136 127
0.313961 -0.18617 0.939 124 124 128
-0.708318 0.362358 1.779 51 18 1
-0.459296 0.126052 1.837 138 128 116
0.202959 0.368399 1.062 110 105 83
-0.658805 0.301186 1.794 53 23 7
-0.11456 0.265939 1.419 197 188 179
-0.539373 -0.466247 1.887 151 144 127
0.30472 0.201368 0.958 110 108 100
0.155848 0.317524 1.083 99 94 76
0.165346 -0.0445645 1.149 194 186 185
-0.687439 0.21666 1.748 52 20 0
0.214537 -0.145702 1.068 134 129 127
-0.249408 -0.0528361 1.637 146 136 134
0.253045 0.116467 1.02 114 111 106
-0.178143 -0.464207 1.487 186 181 177
-0.38667 -0.152346 1.739 158 144 138
-0.449599 0.675001 1.81 118 108 96
0.24015 0.0188252 1.036 127 119 118
-0.808159 0.0967707 1.691 45 31 14
0.216789 0.212859 1.062 147 143 136
0.293954 0.195221 0.974 107 108 104
0.251309 0.394262 1.013 106 103 87
-1.20383 -0.853921 2.42 136 134 122
0.336826 0.0495465 0.918 108 107 107
0.0981287 -0.143702 1.196 143 135 134
0.0338315 0.0828156 1.267 131 120 124
-0.507161 -0.441177 1.859 167 152 140
0.281882 0.311837 0.934 201 202 189
-0.915744 -0.147256 1.853 67 67 67
-0.193509 0.182408 1.532 156 146 146
-0.704514 -0.436908 1.734 144 136 135
-0.00978626 0.340921 1.308 111 101 87
-0.928769 -0.322359 1.837 53 43 29
-0.293988 -0.589507 1.633 173 168 164
0.248523 0.26684 1.05 145 138 128
0.315716 0.142868 0.963 103 110 102
-0.581147 -0.489293 1.893 157 143 128
-0.605819 0.308405 1.837 49 16 0
-0.23029 -0.135759 1.579 162 144 150
0.401724 0.12384 0.844 102 107 95
0.054026 0.0207954 1.257 132 123 128
-0.632334 0.339946 1.753 50 20 4
0.19839 -0.0780373 1.094 136 128 125
0.202429 0.140038 1.087 126 121 119
-0.0518921 -0.472317 1.351 205 197 196
0.226878 -0.190412 1.037 139 136 131
-0.653294 0.469827 1.748 43 17 6
-0.452331 0.655396 1.821 114 113 98
0.104752 -0.0996817 1.205 139 129 127
-0.741975 -0.245387 1.642 85 33 13
0.101425 0.064173 1.189 128 120 117
-0.684173 0.447568 1.784 44 18 5
0.00506314 0.469935 1.294 140 129 120
0.289198 0.380668 0.974 109 104 86
0.21185 0.118916 1.072 119 116 111
0.129809 -0.311946 1.149 194 186 183
-0.560357 -0.330577 1.769 40 21 6
-0.726026 -0.0322179 1.673 70 26 8
0.288395 -0.219819 0.966 169 164 160
-0.607462 0.023774 1.789 69 26 1
-0.334781 -0.589867 1.664 172 165 159
-1.11836 -0.555442 2.278 137 130 113
0.361549 -0.152765 0.887 163 161 153
-1.03066 -0.699034 2.402 138 129 112
-0.295296 0.101972 1.686 142 133 126
-0.386692 -0.5016 1.714 179 166 155
-0.882193 0.316526 1.815 95 93 74
0.410759 0.197069 0.84 100 105 95
0.189323 -0.358642 1.114 182 174 173
0.327718 0.0934657 0.939 147 142 138
0.339395 -0.070498 0.925 117 118 107
-0.435646 -0.456589 1.789 171 161 149
-1.02965 0.466339 2.03 25 26 15
-0.586746 0.446485 1.815 41 17 1
-0.371599 0.151235 1.748 149 136 123
0.372679 0.0103323 0.886 108 108 104
0.0173047 -0.00995082 1.265 136 126 124
-0.600699 -0.0875084 1.744 73 28 3
0.271896 -0.346315 0.986 153 147 149
0.13145 0.399751 1.147 111 104 87
0.386302 0.233301 0.868 158 166 155
0.351698 -0.0842326 0.895 136 133 130
0.411424 0.0305527 0.847 112 114 105
-0.146676 0.0246004 1.487 129 121 120
-0.676858 -0.119474 1.714 80 33 9
-0.800972 0.352835 1.705 50 17 0
0.12972 0.241086 1.165 142 138 131
0.232954 0.378878 1.034 110 103 86
-0.205978 -0.346122 1.532 191 183 180
0.260845 -0.373641 0.999 189 188 188
0.419539 0.11971 0.825 107 105 95
0.405748 -0.0993657 0.827 119 120 116
0.405365 -0.034068 0.843 119 123 116
0.0196394 -0.0894312 1.283 139 129 129
-0.765576 0.406085 1.719 41 18 0
0.193364 -0.154478 1.16 164 154 152
-0.683629 0.0449861 1.71 60 26 6
-0.848316 -0.20967 1.769 69 38 29
0.400772 0.0961424 0.842 117 118 109
0.227131 0.237098 1.07 144 139 135
-0.0118608 0.330882 1.302 112 100 84
-0.757333 0.00857355 1.664 65 31 0
0.405486 0.3028 0.849 100 87 76
0.212911 -0.0964643 1.043 168 160 159
0.375737 0.0528004 0.873 106 106 102
-0.395163 -0.0249991 1.739 144 130 124
-0.983715 -0.864133 2.383 143 125 114
-0.42051 -0.418155 1.799 170 159 150
0.0667178 0.383704 1.227 111 102 93
-0.0899792 -0.488049 1.396 176 171 167
0.253853 0.0594428 1.01 114 112 104
-0.295968 0.410809 1.659 141 127 119
-0.185692 0.0961779 1.509 129 121 120
0.231718 -0.345332 1.036 153 147 151
-0.0251057 -0.040763 1.33 136 126 126
0.375388 0.29392 0.889 178 177 162
0.0863377 0.131578 1.222 130 122 121
0.183377 0.100726 1.122 148 141 133
0.413325 0.0539903 0.826 105 106 100
0.361087 -0.00557136 0.893 108 109 103
0.36608 -0.25785 0.891 134 132 122
0.275225 0.299264 1.004 191 189 181
-0.492189 0.68507 1.837 104 102 90
-0.472539 0.456124 1.842 125 115 101
0.383748 -0.0666322 0.856 118 115 110
0.349174 -0.320537 0.896 133 137 132
0.254941 -0.223179 0.995 175 167 164
-0.727274 0.418624 1.748 48 20 1
-0.623761 0.149376 1.794 62 26 5
-0.654122 -0.611479 2.044 155 144 137
-0.702879 -0.396974 1.696 126 135 147
-0.874394 -0.0171359 1.805 51 48 43
0.0958602 0.151625 1.192 172 164 161
0.384196 -0.241038 0.857 134 132 124
0.105296 -0.135121 1.189 143 135 134
0.343928 0.2708 0.95 136 137 128
0.258181 -0.168127 0.995 185 178 172
0.322444 -0.028718 0.937 164 156 153
0.0570549 0.418023 1.234 146 133 120
-1.0304 -0.118191 2.085 75 76 70
0.221348 -0.342659 1.059 157 148 151
-0.651822 -0.202115 1.729 82 36 9
-0.749207 -0.172854 1.664 72 29 4
0.183978 0.172383 1.137 143 136 130
-0.0319571 0.14701 1.345 133 122 126
-0.0546918 -0.0351975 1.366 136 128 127
0.183883 0.226907 1.114 184 177 171
-0.901717 -0.883535 2.312 142 137 119
-0.267712 0.256077 1.603 188 179 172
0.320512 -0.192842 0.927 129 127 119
-0.429105 -0.0514842 1.774 149 135 127
-0.0931107 0.0622894 1.409 179 169 167
-0.366497 0.446543 1.724 131 121 107
-0.474476 0.281083 1.815 124 115 106
0.298782 0.0928166 0.964 153 151 141
0.404472 -0.190683 0.844 117 121 114
0.41027 0.131298 0.839 88 104 95
-0.279571 -0.15988 1.642 174 164 162
0.268383 -0.014505 1.009 117 114 111
-0.84635 0.362768 1.753 55 35 27
-0.371871 0.543095 1.71 128 119 110
0.155451 -0.407751 1.145 191 186 182
-0.65555 -0.209947 1.724 81 35 6
-0.0228028 0.346721 1.322 110 102 88
0.110269 -0.0661256 1.201 137 132 130
0.28544 -0.176895 0.972 150 146 149
-0.261183 0.38977 1.595 133 125 113
0.128273 -0.192781 1.152 154 143 147
-0.289807 0.0937409 1.686 138 129 124
0.123499 0.434485 1.16 138 132 119
0.398609 -0.0512494 0.855 109 113 108
-0.553675 -0.361524 1.794 76 39 23
-1.12717 -0.807659 2.459 138 131 114
0.0292377 -0.476543 1.247 171 167 160
-0.414965 -0.452822 1.763 176 161 151
0.385928 0.0831883 0.864 104 105 92
0.263288 0.334015 0.972 89 92 74
0.307517 0.0360779 0.957 170 166 157
0.278395 0.129413 0.992 109 109 105
-0.151039 -0.412729 1.459 200 192 189
-0.285611 0.418304 1.646 138 127 120
-0.600399 0.438399 1.794 40 18 8
0.284889 -0.283896 0.981 154 149 147
-0.656362 -0.630262 2.051 156 145 136
0.160772 -0.172549 1.13 179 169 167
-0.1754 -0.584935 1.505 168 162 164
0.412324 -0.219688 0.824 167 164 159
-0.448357 0.000488046 1.805 139 130 125
-0.608144 0.0582173 1.774 67 26 7
-0.592483 -0.19059 1.779 79 33 4
-0.618723 -0.039689 1.763 68 29 7
-0.253422 -0.595709 1.579 180 173 167
-0.396299 0.0515567 1.744 142 132 120
-0.604473 0.399227 1.815 44 19 1
-0.826736 0.0846316 1.724 48 31 15
0.143486 -0.163286 1.169 145 136 141
0.407825 -0.135494 0.834 114 118 111
0.345697 -0.151614 0.906 157 159 150
-0.0160996 -0.450949 1.302 194 185 188
-0.355272 -0.266058 1.724 169 153 150
-1.07429 0.595722 2.078 65 79 59
0.345639 -0.240484 0.902 147 147 143
-0.229123 0.555193 1.571 128 124 113
-1.03108 -0.944363 2.44 127 126 109
0.204302 -0.367132 1.06 189 182 176
-0.926268 0.548847 1.893 27 27 21
-0.575587 0.592323 1.865 45 16 2
0.362364 -0.261611 0.889 134 131 126
0.358481 -0.0586754 0.883 115 115 115
0.150839 0.0762792 1.167 145 135 133
-0.944077 0.535639 1.923 23 21 9
-0.525681 -0.0826626 1.893 98 89 80
-0.757179 -0.358485 1.646 74 36 25
-0.785701 0.248854 1.696 59 19 4
0.224167 0.138424 1.048 115 112 107
-0.0236134 -0.507571 1.369 179 171 168
0.228346 -0.250921 1.036 160 152 151
0.327844 0.106761 0.935 129 130 119
0.0372673 -0.38025 1.244 194 186 185
0.0281679 -0.0563747 1.291 192 182 180
-0.909244 -0.845911 2.312 140 132 118
0.0779547 -0.0909804 1.247 134 129 127
-0.592901 0.0383305 1.789 70 26 10
0.125629 0.302502 1.112 189 178 173
0.345255 -0.183034 0.901 121 127 125
0.064826 0.0903317 1.229 129 120 125
-0.256773 -0.259986 1.633 164 152 150
-1.18143 -0.79726 2.489 139 131 117
-0.576761 0.369578 1.859 49 19 1
0.134949 0.365515 1.145 107 104 88
0.296905 -0.192495 0.963 129 128 128
-0.0962845 0.41923 1.422 138 131 123
0.0840062 -0.23767 1.189 180 172 171
0.33193 -0.143633 0.921 122 121 121
0.185244 -0.38107 1.09 193 190 187
0.0402715 0.0252429 1.275 132 121 125
0.224595 -0.00484218 1.05 120 116 117
0.317195 0.293347 0.958 173 167 143
-1.0627 0.697583 2.03 58 42 37
0.375737 -0.254062 0.873 127 128 117
-0.753168 -0.606325 2.107 145 137 125
-0.379265 0.417667 1.744 131 122 115
0.379013 0.308872 0.874 193 195 184
0.325718 -0.324777 0.912 139 140 129
-0.559389 0.340461 1.882 32 13 7
-1.00972 0.361047 1.978 23 22 5
0.246119 -0.246755 1.012 165 164 166
-0.00548144 0.335943 1.297 111 101 87
-0.91795 0.632451 1.876 41 58 40
0.0684351 -0.148814 1.222 142 134 131
0.10886 -0.359894 1.165 182 173 178
0.117745 0.268698 1.178 173 162 155
0.156673 0.150547 1.154 175 168 162
-1.184 -0.774782 2.469 136 132 123
0.0952972 0.420708 1.185 138 132 119
0.40262 -0.219266 0.843 161 162 156
0.242113 -0.291371 1.03 179 174 172
0.384076 0.126628 0.863 103 104 98
0.204536 -0.284587 1.108 155 143 143
0.281624 0.14717 0.992 110 112 103
-0.746871 -0.392527 1.677 184 182 174
-0.436863 0.669034 1.794 121 111 99
-0.666517 0.679819 1.815 39 19 0
0.307517 -0.0199868 0.957 119 113 117
-0.504246 0.144453 1.882 121 114 106
-0.118517 0.0565905 1.439 158 150 147
-0.0373795 0.289171 1.305 195 178 178
0.349735 0.119536 0.905 100 103 102
-0.0604378 -0.431255 1.396 178 169 174
-0.54762 0.419023 1.905 41 39 27
0.402555 0.0685749 0.84 101 104 103
0.35598 0.314815 0.863 194 196 187
0.414474 0.180082 0.831 129 134 141
-0.0566238 -0.00405563 1.359 171 162 165
0.196609 -0.2099 1.104 151 141 139
0.202577 0.353905 1.06 110 102 90
-0.785164 0.375313 1.719 49 20 0
0.271344 -0.321594 0.984 145 145 141
-0.541418 -0.591597 1.905 168 157 150
-0.674034 -0.347991 1.686 60 30 12
-0.0641448 0.415228 1.378 138 131 123
-0.504246 0.54872 1.882 116 108 96
-0.618743 0.495115 1.831 48 18 0
0.193194 0.350166 1.075 107 102 82
0.403842 -0.0692395 0.837 105 115 103
0.305356 0.0205686 0.96 115 115 111
0.134131 -0.405322 1.154 184 181 178
0.378531 0.248739 0.893 139 140 129
-0.768168 0.0356523 1.664 63 31 9
-1.00339 0.3537 1.991 34 39 25
0.314964 -0.088656 0.942 156 152 153
0.338323 -0.293153 0.906 173 168 164
-0.648446 0.0290838 1.758 64 24 0
0.381438 0.253099 0.893 136 133 130
0.196328 -0.378619 1.073 193 188 184
-0.728334 -0.613566 2.085 149 136 123
0.178801 0.388401 1.094 110 102 88
-0.562659 0.474914 1.893 27 15 0
-0.149097 0.249645 1.487 181 160 155
0.184873 0.239064 1.12 147 137 135
0.354611 -0.238617 0.895 174 174 170
-1.08617 -0.0546515 2.121 111 87 62
-0.408891 -0.268 1.774 159 144 134
-0.613786 0.457186 1.799 45 16 2
0.350732 -0.0363716 0.9 155 153 145
-0.453795 -0.277148 1.815 151 141 129
0.310731 0.302398 0.967 171 167 156
-0.513356 -0.168917 1.893 129 116 105
-0.674442 0.443 1.789 46 17 7
-0.965553 0.00368346 1.941 80 88 77
-0.542804 0.726733 1.899 46 47 36
-0.993666 0.253259 1.991 22 19 16
0.336982 0.315261 0.872 198 203 191
-0.294284 0.264065 1.62 192 182 170
-0.638363 0.482191 1.794 44 19 1
-0.689075 -0.021621 1.696 66 28 3
-0.236366 0.277687 1.535 134 120 116
0.246896 0.278456 1.036 176 173 159
-0.647124 0.613565 1.794 46 16 0
-1.02115 -0.622142 2.212 157 150 140
0.324661 0.166813 0.939 171 169 161
-0.5165 0.319023 1.882 99 92 84
0.201568 0.407137 1.073 107 105 86
0.352876 -0.268644 0.898 134 134 130
0.327369 0.100998 0.938 176 176 170
-0.374268 -0.298641 1.734 178 163 153
-0.0386971 0.0927032 1.351 123 117 123
0.266149 0.21128 1.013 132 133 120
-0.188335 0.0256592 1.551 131 123 122
0.0475828 0.077574 1.249 186 177 172
-0.877559 -0.66402 2.269 141 131 117
-0.168944 0.566703 1.513 137 123 115
-0.659352 0.0681918 1.734 67 29 4
-0.993333 -0.306924 2.01 23 14 7
-1.04299 -0.924509 2.44 131 125 112
0.253457 0.0333092 1.015 156 150 152
0.197792 -0.304039 1.081 185 176 179
0.054026 0.045342 1.257 130 122 121
-0.606963 -0.0313642 1.779 73 28 5
-0.127638 -0.118644 1.463 147 135 135
0.284441 -0.215299 0.974 137 128 131
-1.02289 -0.92072 2.43 133 130 116
-0.299304 -0.544331 1.633 183 172 167
0.377389 -0.255137 0.867 130 130 124
0.32341 -0.295182 0.931 173 173 169
0.390647 0.192411 0.862 90 103 100
0.318864 -0.336088 0.931 141 138 133
0.0114526 0.0215399 1.302 132 122 122
-0.7447 0.40282 1.729 45 14 1
-0.547251 -0.436924 1.893 129 110 97
-0.39549 -0.433138 1.753 179 164 154
0.380071 -0.287445 0.854 168 168 164
-0.639909 0.528779 1.774 44 19 1
