ply
format ascii 1.0
comment Created by Open3D
element vertex 1285
property double x
property double y
property double z
property uchar red
property uchar green
property uchar blue
end_header
-0.186488 -0.155367 0.966 255 255 255
0.034542 0.163169 0.421 255 255 255
0.120483 -0.119705 0.801 255 255 255
0.0311924 0.328289 1.244 255 255 255
0.199862 -0.206025 0.704 255 255 255
-0.625407 0.188259 1.48 255 255 255
-0.25176 -0.290523 1.027 255 255 255
0.0897496 0.0290365 0.843 255 255 255
0.00878743 -0.15479 0.843 255 255 255
-0.0350332 -0.0994373 0.875 255 255 255
-0.192977 -0.229488 0.967 255 255 255
-0.451519 -0.0519816 1.463 255 255 255
0.0753634 -0.120252 0.851 255 255 255
-0.563798 -0.106405 1.563 255 255 255
-0.57828 -0.190672 1.21 255 255 255
0.119336 -0.224085 0.745 255 255 255
0.315814 -0.0352113 0.659 255 255 255
-0.206979 0.0400393 0.423 255 255 255
0.225095 0.019157 0.831 255 255 255
-0.0805196 -0.27142 0.874 255 255 255
0.197234 -0.0945487 0.737 255 255 255
0.208361 0.149186 0.803 255 255 255
-0.0684164 -0.0540666 0.902 255 255 255
0.284358 0.031739 0.775 255 255 255
0.0114285 0.163792 0.428 255 255 255
0.292901 -0.153882 0.644 255 255 255
0.300139 -0.0271499 0.7 255 255 255
0.303629 0.059127 0.739 255 255 255
0.144512 -0.127334 0.776 255 255 255
-0.252566 0.238073 1.378 255 255 255
0.288391 -0.164328 0.648 255 255 255
0.199318 0.11468 0.773 255 255 255
0.192924 -0.0639037 0.788 255 255 255
-0.559834 -0.16801 1.217 255 255 255
0.293019 -0.0724145 0.656 255 255 255
-0.28114 -0.0847693 1.089 255 255 255
0.0535047 0.11716 0.984 255 255 255
-0.0251019 0.141296 0.459 255 255 255
0.0483434 -0.272418 0.794 255 255 255
-0.0908679 0.136792 1.198 255 255 255
0.265647 -0.113448 0.665 255 255 255
0.309968 -0.0826265 0.636 255 255 255
-0.312111 0.116868 1.491 255 255 255
0.253782 -0.0487744 0.734 255 255 255
0.297601 -0.191868 0.652 255 255 255
-0.0563236 0.063917 0.176 255 255 255
-0.4895 0.18307 1.477 255 255 255
0.288406 0.0992695 0.641 255 255 255
0.123299 -0.154797 0.762 255 255 255
-0.0379523 0.136624 1.132 255 255 255
0.209866 0.144017 0.789 255 255 255
-0.226546 -0.0333736 1.034 255 255 255
0.286757 0.048312 0.758 255 255 255
-0.221555 -0.236147 0.975 255 255 255
-0.194251 0.0947983 0.451 0 0 0
-0.0922167 -0.186722 0.877 255 255 255
-0.564136 0.277225 1.372 255 255 255
-0.377751 0.195564 1.445 255 255 255
0.251579 0.19298 0.795 255 255 255
0.0661099 -0.228064 0.775 255 255 255
-0.00951339 -0.087711 0.886 255 255 255
0.0688986 -0.203626 0.778 255 255 255
0.107208 -0.204687 0.745 255 255 255
0.274658 -0.0608567 0.682 255 255 255
0.0135818 0.161759 0.43 255 255 255
0.218359 -0.246602 0.712 255 255 255
0.228325 -0.217466 0.693 255 255 255
0.189041 -0.127048 0.724 255 255 255
-0.180896 -0.299621 0.945 255 255 255
0.0112683 0.153338 1.081 255 255 255
-0.189384 -0.0508199 0.981 255 255 255
-0.220191 -0.33246 0.969 255 255 255
-0.156731 0.0560062 1.18 255 255 255
-0.221716 -0.00997776 1.051 255 255 255
0.142409 0.0312901 0.83 255 255 255
0.289835 0.201585 0.75 255 255 255
0.313867 0.200342 0.644 255 255 255
0.0795396 0.214482 1.053 255 255 255
0.308614 0.232101 0.709 255 255 255
-0.439612 0.186097 1.463 255 255 255
-0.724493 -0.103156 1.769 255 255 255
0.198756 -0.024204 0.834 255 255 255
-0.179825 -0.0828828 0.964 255 255 255
0.02432 0.16493 0.422 255 255 255
0.180962 0.131521 0.815 255 255 255
0.214858 0.15475 0.798 255 255 255
0.168772 -0.23394 0.723 255 255 255
0.262517 -0.0570105 0.703 255 255 255
0.137542 0.376336 1.167 255 255 255
-0.328135 -0.265497 1.21 255 255 255
-0.197495 -0.248115 0.966 255 255 255
0.297972 -0.0375501 0.682 255 255 255
-0.50911 0.0602806 1.599 255 255 255
0.075569 0.29013 1.149 255 255 255
0.239335 0.0254196 0.815 255 255 255
0.0907515 -0.262931 0.77 255 255 255
-0.0243796 0.211225 1.189 255 255 255
0.0326108 -0.133496 0.856 255 255 255
-0.0961072 -0.0666849 0.914 255 255 255
0.334998 -0.238262 0.663 255 255 255
-0.403312 0.230977 1.403 255 255 255
-0.213841 0.283688 1.319 255 255 255
-0.368505 0.300524 1.327 255 255 255
-0.0643656 0.0539919 0.17 255 255 255
-0.582219 -0.226116 1.21 255 255 255
0.0288623 0.00164911 0.869 255 255 255
-0.378221 0.207352 1.429 255 255 255
-0.537335 0.274992 1.372 255 255 255
-0.651822 -0.0445509 1.729 255 255 255
0.276035 0.215995 0.78 255 255 255
-0.54279 -0.136108 1.498 255 255 255
-0.118344 -0.111141 0.925 255 255 255
0.268844 -0.0668927 0.687 255 255 255
0.296231 -0.184648 0.649 255 255 255
-0.0972697 -0.228492 0.884 255 255 255
-0.154745 -0.21504 0.945 255 255 255
0.109676 0.165338 0.957 255 255 255
0.132846 0.036295 0.821 255 255 255
-0.66253 0.0302365 1.664 255 255 255
-0.374855 0.154541 1.48 255 255 255
-0.819169 0.0307272 1.691 255 255 255
0.300737 -0.126731 0.634 255 255 255
0.230005 0.082933 0.678 255 255 255
0.241136 -0.0357547 0.762 255 255 255
-0.59426 -0.142708 1.543 255 255 255
0.176589 0.0703827 0.731 255 255 255
0.311725 -0.219171 0.664 255 255 255
0.293712 0.140625 0.63 255 255 255
0.255262 -0.0558901 0.718 255 255 255
0.128952 0.0502879 0.789 255 255 255
0.312576 0.0451192 0.746 255 255 255
0.291908 0.0921402 0.635 255 255 255
-0.461799 0.180177 1.473 255 255 255
0.316611 0.211967 0.654 255 255 255
0.0376937 -0.146906 0.845 0 0 0
0.18653 0.146028 0.822 255 255 255
0.184177 0.27549 0.972 255 255 255
-0.336518 -0.356572 1.102 255 255 255
-0.00079883 -0.303797 0.823 255 255 255
0.0451382 -0.00981977 0.883 255 255 255
0.0867653 -0.241002 0.768 255 255 255
-0.255342 0.0197201 1.192 255 255 255
0.0263328 -0.0984614 0.879 255 255 255
-0.630266 0.066181 1.616 255 255 255
0.250194 0.110302 0.67 255 255 255
-0.418085 0.103903 1.551 255 255 255
-0.548425 -0.38382 1.283 255 255 255
0.178112 0.406651 1.135 255 255 255
0.0136389 -0.0737065 0.891 255 255 255
-0.118753 0.300309 1.289 255 255 255
0.0560983 -0.278879 0.794 255 255 255
0.215674 -0.01053 0.826 255 255 255
-0.0268715 0.0960198 0.268 255 255 255
-0.848083 -0.0193393 1.739 255 255 255
-0.139192 0.146501 1.265 255 255 255
-0.533409 0.202208 1.459 255 255 255
0.159577 -0.194205 0.724 255 255 255
0.199056 0.0270412 0.824 255 255 255
-0.0213839 0.0295353 0.9 255 255 255
0.0389488 0.174087 1.068 255 255 255
0.204744 -0.124416 0.709 255 255 255
0.0987683 0.242818 1.057 255 255 255
-0.114703 0.030952 1.108 255 255 255
0.13205 -0.140142 0.777 255 255 255
0.236249 0.398528 1.064 255 255 255
0.227213 -0.231054 0.7 255 255 255
0.00056254 -0.137675 0.856 255 255 255
0.341304 0.0460175 0.722 255 255 255
0.0938639 -0.278511 0.775 255 255 255
-0.0469858 0.0675768 0.182 255 255 255
-0.181959 -0.155528 0.967 255 255 255
-0.0341918 0.131961 0.471 255 255 255
0.205322 -0.241627 0.711 255 255 255
0.327033 -0.183883 0.639 255 255 255
-0.183958 -0.262469 0.961 255 255 255
0.24164 -0.00633234 0.805 255 255 255
0.261032 -0.073922 0.69 255 255 255
-0.680188 -0.0648039 1.744 255 255 255
0.0681967 0.133715 0.988 255 255 255
-0.155638 -0.162213 0.96 255 255 255
0.275468 -0.102929 0.66 255 255 255
-0.216505 0.104896 0.441 255 255 255
-0.613168 -0.35459 1.283 255 255 255
0.293988 0.14907 0.663 255 255 255
-0.916021 -0.0108495 1.739 255 255 255
-0.361401 -0.32173 1.171 255 255 255
-0.647919 -0.458251 1.342 255 255 255
0.138992 -0.0230614 0.895 255 255 255
-0.444711 -0.181677 1.316 255 255 255
0.252453 0.230394 0.832 255 255 255
0.332912 -0.0213346 0.661 255 255 255
-0.194476 0.123424 0.462 255 255 255
0.195833 -0.210057 0.706 255 255 255
0.130095 -0.107069 0.804 255 255 255
-0.526627 -0.398818 1.291 255 255 255
-0.468872 -0.235496 1.294 255 255 255
0.145774 -0.268306 0.75 255 255 255
-0.0936062 0.138595 0.489 255 255 255
0.29291 0.129262 0.601 255 255 255
-0.157167 -0.271232 0.932 255 255 255
0.261373 0.132895 0.703 255 255 255
0.224438 -0.17895 0.688 255 255 255
0.23317 0.371183 1.013 255 255 255
-0.102551 -0.0240147 0.932 255 255 255
0.152916 0.362754 1.154 255 255 255
0.230927 -0.166779 0.684 255 255 255
0.228122 0.299435 0.938 255 255 255
-0.333319 0.242558 1.378 255 255 255
0.28565 0.169615 0.718 255 255 255
0.00100311 0.153 0.439 255 255 255
-0.0471102 0.0633111 0.186 255 255 255
0.0909151 -0.0157791 0.895 255 255 255
0.0500363 0.348852 1.21 255 255 255
0.159004 0.122079 0.832 255 255 255
-0.156812 -0.333977 0.921 255 255 255
0.280385 0.103833 0.637 255 255 255
-0.196125 -0.231062 0.967 255 255 255
-0.526625 -0.25228 1.232 255 255 255
-0.537809 0.220511 1.439 255 255 255
0.138985 0.101623 0.842 255 255 255
0.326801 0.0577677 0.737 255 255 255
-0.160331 -0.336568 0.924 255 255 255
0.0255526 -0.201207 0.809 255 255 255
0.0590164 0.0280585 0.855 255 255 255
0.330761 0.0139974 0.707 255 255 255
-0.247348 -0.331406 1.009 255 255 255
-0.450393 0.281233 1.359 255 255 255
0.150639 0.0907758 0.795 255 255 255
-0.0455652 0.121927 0.486 255 255 255
-0.37634 -0.328599 1.182 255 255 255
-0.400667 -0.386326 1.126 255 255 255
0.110549 -0.147729 0.777 255 255 255
-0.536992 -0.442332 1.327 255 255 255
0.0247603 0.0215706 0.874 255 255 255
0.0168181 -0.0572551 0.906 255 255 255
-0.136038 0.010807 1.077 255 255 255
-0.0827681 0.144509 0.477 255 255 255
-0.20847 0.117289 0.45 255 255 255
0.209442 0.0376324 0.742 255 255 255
0.075514 -0.0639247 0.939 255 255 255
-0.613789 0.0908191 1.587 255 255 255
0.289667 0.2142 0.769 255 255 255
-0.693753 0.115763 1.575 255 255 255
-0.227226 -0.0014845 1.094 255 255 255
0.303701 0.178201 0.663 255 255 255
0.163735 0.0750512 0.754 255 255 255
-0.554366 -0.466267 1.359 255 255 255
0.143183 0.0394686 0.804 255 255 255
-0.576445 -0.122497 1.198 255 255 255
-0.674527 -0.369291 1.313 255 255 255
-0.908284 0.0116543 1.719 255 255 255
-0.228863 -0.185245 1 255 255 255
0.278691 -0.175964 0.66 255 255 255
-0.52568 -0.173762 1.244 255 255 255
0.11798 0.0992254 0.869 255 255 255
0.0673714 -0.221758 0.775 255 255 255
0.260003 -0.0448216 0.728 255 255 255
0.172129 0.152385 0.85 255 255 255
0.2845 -0.244651 0.687 255 255 255
0.156717 0.0102623 0.88 255 255 255
-0.681069 -0.0561283 1.739 255 255 255
0.300916 -0.21593 0.664 255 255 255
-0.442439 -0.357634 1.189 255 255 255
-0.0463756 -0.226087 0.848 255 255 255
0.160321 0.195734 0.917 255 255 255
0.303831 0.240792 0.77 255 255 255
0.0847566 -0.0895434 0.862 255 255 255
0.0736165 -0.113522 0.863 255 255 255
0.0982928 0.35709 1.198 255 255 255
-0.0577561 0.0567567 0.176 255 255 255
-0.1266 0.280676 1.305 255 255 255
0.315795 0.286318 0.745 255 255 255
-0.625078 0.240915 1.435 255 255 255
0.311568 0.230172 0.673 255 255 255
-0.35626 0.050392 1.463 255 255 255
0.0838264 0.0953349 0.913 255 255 255
-0.426757 0.0991098 1.555 255 255 255
0.26669 -0.049351 0.708 255 255 255
0.238081 -0.16335 0.679 255 255 255
-0.287197 0.16467 1.463 255 255 255
0.289334 0.0825555 0.582 255 255 255
-0.483254 0.0444445 1.591 255 255 255
0.15693 -0.13922 0.745 255 255 255
0.343397 0.0598669 0.719 255 255 255
-0.710049 0.0638659 1.624 255 255 255
0.211496 0.159714 0.81 255 255 255
0.266039 0.0168834 0.788 255 255 255
-0.0390548 -0.195015 0.839 255 255 255
0.214788 -0.177995 0.693 255 255 255
0.1775 -0.139022 0.725 255 255 255
0.125892 -0.122535 0.794 255 255 255
0.305787 0.271625 0.798 255 255 255
0.00247664 0.142694 0.447 255 255 255
-0.187498 0.125294 0.469 0 0 0
0.107716 -0.30471 0.784 255 255 255
0.00840175 -0.213577 0.806 255 255 255
0.295478 0.0850578 0.652 255 255 255
0.157315 0.399054 1.145 255 255 255
0.284371 -0.261392 0.684 255 255 255
0.210657 -0.136116 0.698 255 255 255
-0.189633 -0.0972028 0.966 255 255 255
0.0346 0.0186617 0.871 255 255 255
0.0893237 0.0329947 0.839 255 255 255
-0.0660696 0.0530833 0.168 255 255 255
-0.325916 -0.380365 1.073 255 255 255
0.154672 -0.147919 0.74 255 255 255
0.252435 -0.19123 0.676 255 255 255
0.240219 -0.0261396 0.771 255 255 255
-0.245789 -0.232706 1.03 255 255 255
0.307044 -0.100301 0.63 255 255 255
0.230778 -0.109834 0.697 255 255 255
0.14885 -0.155354 0.741 255 255 255
0.221064 0.359762 1.018 255 255 255
0.213279 0.421637 1.116 255 255 255
-0.508635 -0.315927 1.262 255 255 255
0.113576 -0.194296 0.747 255 255 255
0.115099 -0.187503 0.749 255 255 255
0.315219 -0.214629 0.66 255 255 255
0.0672308 -0.133098 0.836 255 255 255
-0.529177 -0.346732 1.262 255 255 255
0.0978231 -0.08757 0.83 255 255 255
-0.141475 0.14467 1.267 255 255 255
0.241776 -0.243325 0.696 255 255 255
0.188708 0.179832 0.869 255 255 255
-0.357435 -0.155379 1.196 255 255 255
0.280196 0.162831 0.719 255 255 255
0.0108948 -0.0453598 0.904 255 255 255
0.0144655 0.0494659 0.945 255 255 255
-0.535805 -0.313445 1.244 255 255 255
0.229671 -0.0468533 0.761 255 255 255
0.255453 0.0014935 0.787 255 255 255
-0.273671 0.137682 1.48 255 255 255
-0.690313 -0.304551 1.348 255 255 255
0.0617276 0.0308052 0.854 255 255 255
0.304447 -0.0454076 0.667 255 255 255
0.122809 -0.222574 0.744 255 255 255
0.17277 -0.132567 0.735 255 255 255
0.012339 -0.059938 0.902 255 255 255
0.295249 -0.126889 0.64 255 255 255
-0.497245 -0.369022 1.254 255 255 255
-0.166092 -0.308817 0.931 255 255 255
0.18779 -0.0233399 0.852 255 255 255
0.163205 -0.292824 0.763 255 255 255
0.291908 0.0900735 0.635 255 255 255
-0.0129181 0.144705 0.451 255 255 255
-0.0641535 -0.0380043 0.904 255 255 255
-0.602818 0.0505272 1.62 255 255 255
-0.255214 0.290787 1.322 255 255 255
0.273174 0.154641 0.719 255 255 255
0.043008 -0.129867 0.869 255 255 255
0.184287 -0.109089 0.738 255 255 255
-0.154215 0.287047 1.305 255 255 255
0.186904 -0.181591 0.707 255 255 255
0.124203 0.029071 0.844 255 255 255
0.0188949 -0.116735 0.866 255 255 255
-0.0721934 0.120963 0.495 255 255 255
0.0655527 0.164926 1.022 255 255 255
-0.211609 0.0573836 0.424 255 255 255
-0.523019 0.318031 1.319 255 255 255
0.159479 -0.115267 0.763 255 255 255
-0.197266 0.122356 0.458 255 255 255
-0.0862429 -0.138642 0.889 255 255 255
0.216041 -0.107563 0.712 255 255 255
0.135464 -0.169984 0.747 255 255 255
0.281647 -0.0747142 0.667 255 255 255
-0.342942 -0.0304815 1.354 255 255 255
-0.1083 -0.135097 0.904 255 255 255
-0.57172 -0.225443 1.217 255 255 255
0.300036 -0.195949 0.655 255 255 255
-0.232267 -0.0537209 1.037 255 255 255
0.102695 -0.143565 0.775 255 255 255
-0.690954 -0.402549 1.324 255 255 255
0.15523 0.0253053 0.856 255 255 255
-0.545349 -0.243666 1.229 255 255 255
-0.541288 -0.0893078 1.252 255 255 255
-0.0100571 0.153007 1.104 255 255 255
-0.343546 -0.393027 1.079 255 255 255
0.166384 -0.149075 0.728 255 255 255
0.101669 0.224073 1.034 255 255 255
-0.516852 -0.336464 1.262 255 255 255
-0.224263 0.122504 0.445 255 255 255
-0.0731311 0.134482 0.48 255 255 255
-0.36659 0.205026 1.429 255 255 255
0.00454882 -0.301722 0.821 255 255 255
-0.300922 -0.0769275 1.13 255 255 255
-0.197461 0.00206282 1.087 255 255 255
-0.0585896 -0.0027127 0.909 255 255 255
0.190895 -0.199412 0.709 255 255 255
0.0395825 0.145689 1.039 255 255 255
-0.205481 -0.345218 0.952 255 255 255
0.178354 0.162575 0.86 255 255 255
-0.139424 -0.264679 0.925 255 255 255
-0.0222878 -0.248148 0.825 255 255 255
0.252207 0.181024 0.777 255 255 255
-0.056633 -0.313558 0.857 0 0 0
-0.500259 0.317992 1.31 255 255 255
-0.500076 0.162531 1.487 255 255 255
-0.441426 -0.278787 1.252 255 255 255
0.266329 -0.116519 0.664 255 255 255
0.133399 0.173732 0.927 255 255 255
-0.392652 0.137284 1.502 255 255 255
-0.26698 0.0737806 1.327 255 255 255
-0.0656956 0.0569686 0.165 255 255 255
-0.0677105 0.0522631 0.168 255 255 255
-0.451032 -0.0428648 1.477 255 255 255
0.178354 -0.026358 0.86 255 255 255
0.015174 -0.037668 0.896 255 255 255
-0.241555 -0.0440581 1.048 255 255 255
0.138604 0.238769 0.997 255 255 255
0.331173 0.24953 0.675 255 255 255
-0.00352891 -0.166909 0.835 255 255 255
0.0626108 0.253192 1.118 255 255 255
-0.210727 -0.174772 0.969 255 255 255
-0.180385 -0.142939 0.967 255 255 255
-0.0152133 -0.03995 0.882 255 255 255
-0.858992 0.0227242 1.71 255 255 255
0.0432979 -0.148633 0.847 255 255 255
0.121802 0.00164342 0.866 255 255 255
-0.574322 -0.458331 1.375 255 255 255
-0.0541571 -0.323804 0.862 255 255 255
0.186305 0.0644573 0.718 255 255 255
0.217228 -0.154768 0.69 255 255 255
-0.845438 -0.0626409 1.763 255 255 255
0.324388 0.212257 0.642 255 255 255
0.293967 0.0535453 0.745 255 255 255
-0.093809 0.0725955 1.139 255 255 255
0.0406899 0.153345 0.428 255 255 255
-0.445474 -0.152115 1.378 255 255 255
-0.420214 -0.247838 1.22 255 255 255
-0.591179 0.137802 1.535 255 255 255
0.0665549 -0.0334701 0.942 255 255 255
0.0900781 0.15086 0.964 255 255 255
0.134001 0.010169 0.872 255 255 255
0.319285 -0.16646 0.636 255 255 255
-0.0626924 0.149139 0.472 255 255 255
0.153795 0.208513 0.941 255 255 255
-0.47363 0.173808 1.48 255 255 255
-0.336072 -0.116321 1.156 255 255 255
-0.558656 -0.364256 1.273 255 255 255
-0.571356 -0.259666 1.229 255 255 255
0.11378 0.238224 1.037 255 255 255
-0.488555 0.0107323 1.583 255 255 255
-0.665239 0.0302365 1.664 255 255 255
-0.899701 0.00607717 1.724 255 255 255
-0.03684 0.21818 1.217 255 255 255
0.155555 -0.281525 0.756 255 255 255
-0.326663 -0.31949 1.156 255 255 255
-0.459883 0.149107 1.498 255 255 255
-0.43306 0.144232 1.498 255 255 255
0.327308 0.0105459 0.707 255 255 255
-0.298367 0.241502 1.372 255 255 255
-0.178519 -0.0520422 0.974 255 255 255
-0.191403 -0.0894353 0.967 255 255 255
0.104152 -0.123858 0.786 255 255 255
0.0525864 -0.0822614 0.939 255 255 255
-0.568045 -0.133017 1.205 255 255 255
-0.351871 -0.401534 1.083 255 255 255
-0.500396 0.261065 1.381 255 255 255
0.13004 -0.00118597 0.874 255 255 255
0.0660245 -0.22651 0.774 255 255 255
-0.0826973 -0.233974 0.867 255 255 255
0.294336 -0.0104223 0.725 255 255 255
0.264167 -0.160822 0.664 255 255 255
0.103987 -0.196991 0.748 255 255 255
-0.093163 -0.154034 0.886 255 255 255
-0.00895504 -0.321429 0.834 255 255 255
-0.0252158 -0.284443 0.833 255 255 255
0.149794 -0.195278 0.728 255 255 255
0.153697 -0.0394518 0.871 255 255 255
-0.0618875 0.00470927 0.914 255 255 255
-0.129121 -0.314276 0.916 255 255 255
0.182884 -0.0262048 0.855 255 255 255
-0.520823 -0.162761 1.412 255 255 255
0.282975 0.34197 0.913 255 255 255
0.0598779 0.171051 1.039 255 255 255
-0.0188565 -0.146737 0.852 255 255 255
-0.345715 -0.13173 1.176 255 255 255
-0.0478746 0.0669845 0.182 255 255 255
0.157795 -0.106715 0.773 255 255 255
-0.602492 0.145012 1.532 255 255 255
-0.420868 0.0125937 1.498 255 255 255
0.154649 -0.178641 0.723 255 255 255
0.138698 0.0743992 0.786 255 255 255
-0.736385 -0.0884617 1.763 255 255 255
0.153231 0.324528 1.077 255 255 255
-0.699966 0.0964681 1.595 255 255 255
0.0566005 -0.171917 0.82 255 255 255
0.141224 -0.103023 0.793 255 255 255
0.10196 -0.227112 0.751 255 255 255
-0.288888 -0.0684637 1.112 255 255 255
-0.102153 0.145459 0.488 255 255 255
-0.155144 -0.350083 0.92 255 255 255
-0.399513 0.272387 1.359 255 255 255
-0.67915 -0.350309 1.322 255 255 255
0.213675 0.0912112 0.708 255 255 255
-0.293877 -0.363985 1.046 255 255 255
0.135966 -0.126256 0.785 255 255 255
-0.590666 -0.354454 1.275 255 255 255
-0.225881 -0.224599 0.98 255 255 255
0.24536 -0.106022 0.687 255 255 255
-0.730827 0.166575 1.524 255 255 255
-0.012132 -0.125335 0.867 255 255 255
0.341647 0.0184417 0.701 255 255 255
0.0129654 -0.148633 0.847 255 255 255
0.194395 0.0789156 0.722 255 255 255
-0.743137 0.128251 1.571 255 255 255
-0.133257 -0.288451 0.924 255 255 255
0.185864 0.423582 1.126 255 255 255
-0.0915369 -0.0299523 0.928 255 255 255
0.0192964 -0.173885 0.823 255 255 255
0.210657 -0.19291 0.698 255 255 255
-0.384788 0.100594 1.539 255 255 255
0.0213349 -0.236427 0.799 255 255 255
-0.0489268 0.062403 0.186 255 255 255
0.13058 -0.212947 0.74 255 255 255
0.0620168 -0.12543 0.858 255 255 255
0.0132715 0.00446711 0.867 255 255 255
0.315284 -0.096608 0.626 255 255 255
0.279485 0.218253 0.779 255 255 255
-0.0905842 -0.344073 0.889 255 255 255
0.199341 0.0318619 0.778 255 255 255
0.00935033 -0.0625252 0.897 255 255 255
0.220627 0.0362617 0.764 255 255 255
-0.177269 -0.35389 0.934 255 255 255
0.25321 0.16497 0.75 255 255 255
-0.329377 0.210519 1.419 255 255 255
0.185237 -0.00399365 0.866 255 255 255
0.310011 0.223269 0.672 255 255 255
0.261771 -0.256481 0.701 255 255 255
0.0708806 -0.215874 0.772 255 255 255
0.0372832 0.162484 0.421 255 255 255
-0.436175 -0.370313 1.162 255 255 255
-0.661789 -0.119799 1.642 255 255 255
-0.621967 0.108074 1.575 255 255 255
-0.496567 0.160542 1.491 255 255 255
-0.399725 -0.113147 1.316 255 255 255
-0.350552 0.000376647 1.393 255 255 255
0.302323 -0.132712 0.633 255 255 255
-0.157307 0.0360552 1.156 255 255 255
-0.634638 -0.324689 1.297 255 255 255
0.233741 0.186995 0.814 255 255 255
0.234545 0.322968 0.958 255 255 255
-0.436307 -0.046865 1.452 255 255 255
0.0213633 -0.135645 0.852 255 255 255
0.0384344 0.149845 0.434 255 255 255
-0.0594924 -0.235734 0.858 255 255 255
0.271514 0.11828 0.648 255 255 255
-0.532922 -0.300814 1.242 255 255 255
0.00222557 0.054154 0.974 255 255 255
0.0959245 0.107278 0.901 255 255 255
-0.585547 0.0504024 1.616 255 255 255
-0.552981 -0.175643 1.215 255 255 255
-0.0054553 0.109187 0.289 255 255 255
0.313763 -0.109676 0.625 255 255 255
0.184105 -0.145046 0.714 255 255 255
0.259488 -0.25534 0.701 0 0 0
0.275384 0.288918 0.857 255 255 255
-0.00357356 0.110128 0.289 255 255 255
-0.402453 0.256569 1.369 255 255 255
-0.337369 -0.322693 1.154 255 255 255
-0.0605033 0.132643 0.479 255 255 255
0.277104 0.120797 0.639 255 255 255
-0.0479275 0.13081 0.478 255 255 255
0.239367 -0.267484 0.709 0 0 0
0.275225 -0.174342 0.662 255 255 255
-0.218611 0.0870875 0.431 255 255 255
0.289261 0.110877 0.567 255 255 255
-0.662504 -0.500862 1.345 255 255 255
-0.127103 -0.142443 0.923 255 255 255
0.167543 0.0254827 0.862 255 255 255
-0.10548 0.156713 1.232 255 255 255
0.0265042 -0.285478 0.798 255 255 255
-0.0617664 0.121088 0.489 255 255 255
0.0203899 0.162334 0.426 255 255 255
-0.639204 -0.387385 1.302 255 255 255
-0.101575 0.00340519 0.966 255 255 255
0.260226 -0.215124 0.682 255 255 255
0.249096 0.156596 0.745 255 255 255
0.174964 -0.0222626 0.864 255 255 255
0.0387456 0.160123 0.422 255 255 255
0.169714 -0.153721 0.722 255 255 255
0.0184018 0.144953 0.445 255 255 255
0.221828 0.0721118 0.68 255 255 255
0.251674 0.245787 0.843 255 255 255
-0.000871628 -0.0435974 0.898 255 255 255
-0.176654 -0.291008 0.947 255 255 255
-0.098597 -0.17363 0.883 255 255 255
0.258927 -0.0108679 0.756 255 255 255
0.292866 0.139732 0.626 255 255 255
0.114223 0.00163583 0.862 255 255 255
0.214986 -0.214273 0.701 255 255 255
-0.582026 -0.256198 1.222 255 255 255
-0.134747 -0.0366523 0.945 255 255 255
0.227439 0.0363566 0.766 255 255 255
0.10695 0.273664 1.07 255 255 255
0.0416638 -0.0544648 0.934 255 255 255
-0.121137 0.17188 1.27 255 255 255
0.200306 0.341218 1.022 255 255 255
0.141541 0.194732 0.941 255 255 255
-0.0717599 0.152655 0.471 255 255 255
0.289241 -0.0404112 0.693 255 255 255
0.176382 -0.0125211 0.871 255 255 255
0.315547 -0.0477155 0.654 255 255 255
0.209786 0.17052 0.824 255 255 255
0.262404 0.206104 0.781 255 255 255
0.280476 0.0745441 0.672 255 255 255
0.252376 -0.14374 0.67 255 255 255
0.28358 -0.215378 0.669 255 255 255
-0.588797 0.150899 1.516 255 255 255
0.106505 -0.0788914 0.824 255 255 255
0.253466 -0.165546 0.67 255 255 255
-0.542242 -0.234324 1.222 255 255 255
-0.196882 -0.198764 0.963 255 255 255
-0.0794589 -0.334101 0.878 255 255 255
0.277112 0.230208 0.794 255 255 255
0.00170206 0.158685 0.435 255 255 255
-0.509954 0.320857 1.313 255 255 255
-0.119743 -0.013628 0.948 255 255 255
0.195153 0.0128281 0.86 255 255 255
0.282746 0.105241 0.633 255 255 255
-0.449327 -0.283992 1.257 255 255 255
0.319785 0.31937 0.831 255 255 255
0.299602 0.0490227 0.75 255 255 255
-0.058976 -0.115992 0.871 255 255 255
0.0288157 0.33833 1.229 255 255 255
0.282897 0.0652602 0.714 255 255 255
0.0376821 -0.189437 0.815 255 255 255
-0.768013 0.0893485 1.607 255 255 255
0.207206 0.0319029 0.779 255 255 255
0.0441492 -0.161861 0.837 255 255 255
-0.48279 0.122575 1.532 255 255 255
-0.137317 0.0456971 1.162 255 255 255
0.317192 -0.0144106 0.69 255 255 255
0.246367 0.273256 0.883 255 255 255
-0.636111 -0.425606 1.322 255 255 255
0.282189 0.336009 0.901 255 255 255
-0.409048 0.175383 1.473 255 255 255
-0.383398 0.329611 1.297 255 255 255
0.222836 -0.214184 0.697 255 255 255
0.289131 0.0447881 0.761 255 255 255
-0.631928 0.179108 1.484 255 255 255
0.29971 0.0707142 0.699 255 255 255
0.0563376 0.157997 0.42 255 255 255
0.294675 -0.0638599 0.667 255 255 255
-0.386441 0.0670197 1.516 255 255 255
0.103237 0.000233613 0.864 255 255 255
0.339893 0.0390759 0.724 255 255 255
0.294667 -0.157337 0.641 255 255 255
0.265883 0.00145934 0.769 255 255 255
-0.125783 -0.0798801 0.947 255 255 255
-0.116359 0.0368863 1.124 255 255 255
0.193029 -0.160428 0.7 255 255 255
-0.193361 0.00748479 1.104 255 255 255
-0.363444 -0.169993 1.203 255 255 255
-0.138772 -0.137564 0.941 255 255 255
0.221297 -0.25078 0.714 255 255 255
0.222042 -0.190975 0.691 255 255 255
0.280339 0.105734 0.612 255 255 255
0.252736 0.09064 0.654 255 255 255
0.275552 0.18841 0.751 255 255 255
0.0163912 -0.025626 0.883 255 255 255
0.260464 0.164286 0.736 255 255 255
-0.0102137 -0.290118 0.826 255 255 255
0.147168 -0.0744201 0.834 255 255 255
0.308973 0.236102 0.755 255 255 255
0.0696175 0.312891 1.208 255 255 255
-0.510712 -0.308538 1.257 255 255 255
-0.525475 -0.062842 1.555 255 255 255
-0.401116 -0.417715 1.112 255 255 255
0.323637 0.218411 0.651 255 255 255
0.0338017 0.153703 0.429 255 255 255
0.00278082 0.259769 1.217 255 255 255
0.0752375 0.0882913 0.917 255 255 255
0.0599724 -0.0834326 0.935 255 255 255
-0.173008 -0.0716779 0.961 255 255 255
-0.711416 -0.0619658 1.744 255 255 255
0.153 -0.160615 0.732 255 255 255
0.0322166 -0.196425 0.811 255 255 255
0.193029 -0.166124 0.7 255 255 255
0.297196 0.129253 0.592 255 255 255
-0.709376 -0.0448086 1.739 255 255 255
0.253928 0.215077 0.815 255 255 255
0.258863 0.19645 0.778 255 255 255
0.281378 0.251983 0.81 255 255 255
-0.527372 0.26556 1.381 255 255 255
0.24244 -0.00758538 0.799 255 255 255
-0.0196019 -0.236065 0.825 255 255 255
-0.639489 -0.35763 1.294 255 255 255
0.212573 0.357232 1.025 255 255 255
0.181232 0.0980728 0.771 255 255 255
0.0363353 0.194348 1.094 255 255 255
0.130825 -0.0590741 0.889 255 255 255
-0.00342748 -0.22546 0.811 255 255 255
0.141346 -0.146777 0.759 255 255 255
0.0526087 0.156372 0.423 255 255 255
-0.601553 0.212285 1.463 255 255 255
0.246155 -0.110962 0.683 255 255 255
-0.169733 0.141053 1.31 255 255 255
0.250941 0.072357 0.672 255 255 255
-0.0995819 0.130873 0.499 255 255 255
0.287544 0.341541 0.904 255 255 255
-0.462237 -0.220508 1.305 255 255 255
0.169995 0.165298 0.882 255 255 255
0.226069 -0.214083 0.693 255 255 255
-0.348478 -0.118004 1.192 255 255 255
0.237608 -0.126708 0.684 255 255 255
0.185267 -0.232189 0.714 255 255 255
0.0123235 0.155145 0.435 255 255 255
0.303998 0.187103 0.709 255 255 255
-0.0102632 -0.30503 0.83 255 255 255
0.280685 0.104773 0.574 255 255 255
0.137212 0.313967 1.089 255 255 255
-0.00884767 -0.274666 0.824 255 255 255
0.196802 -0.00811702 0.855 255 255 255
-0.561359 0.0710427 1.607 255 255 255
0.166555 -0.00691444 0.879 255 255 255
-0.0141784 -0.232531 0.822 255 255 255
0.280416 -0.144564 0.654 255 255 255
-0.408775 0.0728556 1.535 255 255 255
-0.274537 0.116734 1.459 255 255 255
0.0511191 0.125575 1 255 255 255
-0.378509 -0.247838 1.22 255 255 255
-0.0822236 -0.305177 0.877 255 255 255
-0.109293 0.205508 1.327 255 255 255
-0.731498 -0.29885 1.393 255 255 255
0.198716 -0.200297 0.704 255 255 255
0.0136667 -0.199396 0.807 255 255 255
0.338042 0.267039 0.689 255 255 255
0.291323 0.233302 0.787 255 255 255
0.286658 0.288998 0.845 255 255 255
-0.0153824 0.263508 1.244 255 255 255
-0.148182 0.287707 1.308 255 255 255
0.307306 0.0523329 0.745 255 255 255
0.083693 -0.0601555 0.928 255 255 255
0.247287 -0.195681 0.68 255 255 255
0.222925 0.016492 0.833 255 255 255
0.233966 0.102812 0.693 255 255 255
-0.171288 0.148799 1.322 255 255 255
0.258763 -0.223547 0.684 255 255 255
-0.452483 -0.173957 1.339 255 255 255
-0.28364 -0.328118 1.085 255 255 255
0.147224 -0.064782 0.85 255 255 255
-0.580011 -0.0872703 1.252 255 255 255
-0.0670043 -0.0102646 0.923 255 255 255
0.245043 -0.202102 0.683 255 255 255
0.260091 0.360249 0.966 255 255 255
0.299982 0.237957 0.773 255 255 255
0.16388 -0.0140826 0.88 255 255 255
0.14664 -0.216009 0.73 255 255 255
-0.286016 0.181455 1.445 255 255 255
-0.238789 -0.11942 1.036 255 255 255
0.234928 0.216721 0.842 255 255 255
-0.0622857 -0.288791 0.858 255 255 255
-0.0705402 -0.00126196 0.93 255 255 255
-0.113836 -0.124556 0.913 255 255 255
0.211404 0.0802568 0.693 255 255 255
0.274057 0.0445526 0.757 255 255 255
0.161648 0.268511 0.999 255 255 255
0.312256 0.27122 0.757 255 255 255
-0.0698428 0.012505 0.941 255 255 255
-0.443199 0.131163 1.516 255 255 255
-0.138491 0.300062 1.297 255 255 255
0.285188 -0.224896 0.678 255 255 255
0.241539 0.0453802 0.712 255 255 255
0.31618 -0.0639969 0.636 255 255 255
0.309095 -0.14541 0.63 255 255 255
-0.484112 -0.273764 1.257 255 255 255
-0.0762515 -0.177549 0.874 255 255 255
0.209675 0.0896603 0.714 255 255 255
0.203878 0.0668267 0.706 0 0 0
0.276245 -0.0167266 0.743 255 255 255
-0.149058 0.226367 1.375 255 255 255
-0.11077 0.152143 0.484 255 255 255
-0.441253 -0.112967 1.393 255 255 255
0.245003 0.0527395 0.702 255 255 255
-0.274686 -0.133036 1.064 255 255 255
-0.206703 0.0960663 0.44 255 255 255
-0.235727 0.0670335 1.242 255 255 255
-0.125313 -0.181901 0.91 255 255 255
0.328826 -0.236798 0.668 255 255 255
0.0614179 -0.141768 0.831 255 255 255
-0.719932 -0.0420994 1.744 255 255 255
0.256085 0.0223759 0.801 255 255 255
-0.0703143 0.049549 0.169 255 255 255
-0.257389 -0.382628 0.997 255 255 255
-0.0211987 -0.313662 0.835 255 255 255
0.293908 0.0339077 0.767 255 255 255
0.229035 -0.170367 0.685 255 255 255
-0.295304 0.17099 1.456 255 255 255
0.096984 -0.0111037 0.871 255 255 255
-0.616145 -0.434674 1.33 255 255 255
-0.32426 -0.207121 1.128 255 255 255
0.286175 -0.0829631 0.655 255 255 255
0.298374 -0.139387 0.64 255 255 255
-0.564123 -0.238301 1.222 255 255 255
-0.329114 -0.0939092 1.158 255 255 255
-0.055825 0.132643 0.479 255 255 255
-0.873233 -0.0335852 1.744 255 255 255
-0.0874326 -0.192752 0.872 255 255 255
0.259655 0.104894 0.65 255 255 255
0.21386 -0.00250679 0.84 255 255 255
0.231247 -0.11178 0.695 255 255 255
0.0521472 0.0431994 0.88 255 255 255
0.337268 -0.241114 0.659 255 255 255
-0.387469 0.170589 1.473 255 255 255
-0.410175 0.205887 1.435 255 255 255
0.220429 0.0610853 0.693 255 255 255
0.0149247 -0.267999 0.804 255 255 255
0.241605 0.178075 0.792 255 255 255
0.256837 -0.106524 0.676 255 255 255
-0.102728 -0.0521512 0.92 255 255 255
0.126198 0.0302641 0.839 255 255 255
0.155761 0.0704223 0.757 255 255 255
0.327877 0.248432 0.675 255 255 255
0.253971 0.329369 0.932 255 255 255
-0.269948 -0.122071 1.059 255 255 255
-0.673926 -0.423674 1.316 255 255 255
-0.232647 0.147507 1.435 255 255 255
0.343609 0.0491992 0.717 255 255 255
0.282113 -0.149656 0.653 255 255 255
0.0132715 0.005878 0.867 255 255 255
-0.362128 0.199436 1.439 255 255 255
-0.0697641 0.049549 0.169 255 255 255
0.280496 0.0994244 0.642 255 255 255
0.09665 0.00870982 0.868 255 255 255
0.0412531 -0.20071 0.807 255 255 255
-0.19435 -0.128643 0.966 255 255 255
0.25241 0.114082 0.673 255 255 255
0.251306 0.168185 0.759 255 255 255
-0.0281668 -0.0802294 0.883 255 255 255
-0.290965 0.155889 1.47 255 255 255
0.260286 -0.246014 0.694 255 255 255
-0.145155 0.261841 1.339 255 255 255
-0.568004 -0.322857 1.257 255 255 255
0.306393 0.244847 0.767 255 255 255
-0.35029 -0.144308 1.185 255 255 255
-0.000785242 -0.249918 0.809 255 255 255
0.276177 0.367036 0.951 255 255 255
0.12954 0.241428 1.015 255 255 255
0.279819 0.107384 0.578 255 255 255
-0.219197 -0.358784 0.951 255 255 255
0.0877276 0.025128 0.85 255 255 255
-0.103026 -0.218422 0.884 255 255 255
-0.214836 0.127704 0.448 255 255 255
0.0549096 0.169686 1.041 255 255 255
-0.115152 0.100766 1.187 255 255 255
-0.560892 -0.187506 1.215 255 255 255
0.316322 0.272357 0.724 255 255 255
-0.154753 0.187096 1.366 255 255 255
0.0188275 -0.223236 0.803 255 255 255
0.0167067 -0.0393007 0.9 255 255 255
0.289584 0.0580028 0.74 255 255 255
0.136747 -0.106137 0.797 255 255 255
0.297469 0.0211468 0.757 255 255 255
-0.789302 -0.0791107 1.686 255 255 255
-0.607559 0.21272 1.466 255 255 255
0.169965 0.0465195 0.749 255 255 255
0.0731863 -0.0854019 0.892 255 255 255
-0.90446 -0.0279091 1.744 255 255 255
-0.655977 0.0221661 1.668 255 255 255
-0.659593 -0.495398 1.348 255 255 255
0.103916 0.0197795 0.858 255 255 255
0.294868 -0.0752713 0.653 255 255 255
0.288041 0.123259 0.62 255 255 255
0.199287 0.211934 0.891 255 255 255
0.224752 0.281099 0.918 255 255 255
-0.169668 -0.309812 0.934 255 255 255
0.0504794 -0.235437 0.787 255 255 255
0.209097 -0.249152 0.716 255 255 255
0.00462085 -0.163995 0.834 255 255 255
0.228259 0.160098 0.786 255 255 255
-0.0139791 0.0571697 0.999 255 255 255
-0.0140993 0.154765 0.442 255 255 255
-0.921405 -0.117005 1.805 255 255 255
-0.268532 0.0714592 1.324 255 255 255
-0.399395 0.307997 1.322 255 255 255
0.235051 0.250272 0.873 255 255 255
-0.0597697 -0.200361 0.862 0 0 0
-0.196313 0.0980313 0.449 255 255 255
0.253741 0.219866 0.823 255 255 255
-0.662175 -0.0672541 1.734 255 255 255
-0.200413 0.109234 0.45 255 255 255
0.342269 0.0068635 0.684 255 255 255
-0.262792 -0.177649 1.072 255 255 255
-0.0914383 -0.0329371 0.927 255 255 255
0.0858463 -0.0301782 0.935 255 255 255
-0.219426 0.091225 0.434 255 255 255
0.300675 0.0336867 0.762 255 255 255
-0.0465557 0.0635728 0.185 255 255 255
0.209003 -0.27497 0.732 255 255 255
-0.0787204 0.141107 0.476 255 255 255
-0.561975 -0.136317 1.4 255 255 255
0.168339 -0.0868753 0.787 255 255 255
-0.175055 0.286388 1.302 255 255 255
-0.224888 0.0963904 0.435 255 255 255
-0.533706 -0.0512223 1.587 255 255 255
-0.0576682 0.120841 0.488 255 255 255
0.323575 0.0129741 0.714 255 255 255
0.116548 0.143252 0.925 255 255 255
-0.468383 0.153571 1.494 255 255 255
0.0796963 0.282991 1.128 255 255 255
0.161265 0.0387813 0.79 255 255 255
0.313121 -0.0792715 0.634 255 255 255
-0.224309 0.00762038 1.124 255 255 255
-0.58686 0.183442 1.48 255 255 255
0.103595 0.00305621 0.867 255 255 255
0.0189604 -0.114311 0.869 255 255 255
0.211099 0.0711321 0.692 255 255 255
-0.118816 0.0909545 1.185 255 255 255
0.307961 -0.156651 0.634 255 255 255
-0.391987 0.0750099 1.528 255 255 255
0.145257 0.0789085 0.78 255 255 255
0.181137 -0.0638928 0.804 255 255 255
0.307487 0.211988 0.696 255 255 255
-0.441153 0.00286365 1.509 255 255 255
0.273599 -0.0369882 0.714 255 255 255
0.277871 -0.225227 0.679 255 255 255
-0.253425 -0.0498313 1.062 255 255 255
-0.411089 -0.0458967 1.422 255 255 255
0.152084 0.36716 1.162 255 255 255
-0.691063 -0.425816 1.316 255 255 255
0.270916 -0.0903146 0.67 255 255 255
-0.508635 -0.324142 1.262 255 255 255
0.183471 0.00873993 0.871 255 255 255
-0.133482 -0.0153308 0.958 255 255 255
-0.415874 0.241362 1.384 255 255 255
0.0267522 -0.0753252 0.893 255 255 255
0.0869815 -0.122096 0.817 255 255 255
-0.199068 -0.238683 0.966 255 255 255
0.0408303 -0.17565 0.825 255 255 255
-0.147335 -0.316456 0.918 255 255 255
0.324808 -0.0440461 0.647 255 255 255
0.191155 0.120446 0.786 255 255 255
0.111146 0.214577 1.013 255 255 255
0.311208 -0.138375 0.626 255 255 255
0.324481 0.226838 0.657 255 255 255
-0.601916 -0.226116 1.21 255 255 255
-0.224744 0.0908046 0.432 255 255 255
-0.558354 0.295186 1.342 255 255 255
-0.253116 0.101504 1.381 255 255 255
-0.249772 0.295892 1.316 255 255 255
0.23251 0.0268771 0.819 255 255 255
0.158089 0.349665 1.124 255 255 255
0.068213 -0.0990215 0.884 255 255 255
-0.158395 0.110535 1.254 255 255 255
0.119867 -0.16096 0.756 255 255 255
-0.0285356 0.217266 1.201 255 255 255
0.29258 0.136822 0.641 255 255 255
-0.399355 -0.219298 1.205 255 255 255
-0.214549 0.0305026 0.415 255 255 255
-0.138927 0.260244 1.342 255 255 255
0.264911 0.147062 0.722 255 255 255
0.289986 0.255701 0.801 255 255 255
-0.291029 0.243202 1.369 255 255 255
-0.676268 0.166615 1.502 255 255 255
0.112035 -0.0401654 0.856 0 0 0
-0.276575 -0.179803 1.085 255 255 255
-0.0612853 0.143297 0.473 255 255 255
-0.190944 0.27399 1.324 255 255 255
0.200475 -0.100364 0.727 255 255 255
-0.478247 0.0493732 1.583 255 255 255
0.254557 0.115754 0.67 255 255 255
0.0680718 -0.176395 0.798 0 0 0
0.265212 0.22181 0.801 255 255 255
0.30065 -0.146795 0.636 255 255 255
-0.748813 0.0115255 1.7 255 255 255
-0.397869 -0.423424 1.108 255 255 255
0.232813 -0.135414 0.683 255 255 255
0.316449 0.0699976 0.727 255 255 255
0.0785012 0.0531031 0.855 255 255 255
0.252631 0.172796 0.763 255 255 255
-0.515693 -0.184852 1.339 255 255 255
-0.332386 0.140469 1.484 255 255 255
-0.190809 -0.137789 0.964 255 255 255
-0.0490809 0.0258399 0.925 255 255 255
0.195278 -0.184258 0.704 255 255 255
-0.594594 -0.0992478 1.612 255 255 255
0.314225 -0.245505 0.674 255 255 255
-0.401725 -0.0880941 1.359 255 255 255
-0.0480344 0.151142 0.464 255 255 255
0.184986 -0.117177 0.736 255 255 255
0.0537014 -0.116021 0.882 255 255 255
-0.204982 0.117075 0.452 255 255 255
0.292908 -0.208052 0.663 255 255 255
0.35622 0.0346086 0.705 255 255 255
0.29571 -0.156294 0.641 255 255 255
0.221078 -0.135286 0.688 255 255 255
0.169362 -0.037423 0.857 255 255 255
0.220916 0.363904 1.025 255 255 255
-0.443535 0.266062 1.372 255 255 255
0.0417132 -0.187013 0.816 255 255 255
-0.602541 -0.440557 1.348 255 255 255
0.249134 -0.18683 0.676 255 255 255
-0.0299079 0.0452856 0.988 255 255 255
-0.532584 0.0579671 1.607 255 255 255
0.242993 0.0346593 0.784 255 255 255
-0.0536545 -0.25826 0.854 255 255 255
-0.0221127 -0.00968632 0.871 255 255 255
0.0992936 -0.0660385 0.831 255 255 255
0.0814644 0.130803 0.955 255 255 255
0.150446 -0.158114 0.737 255 255 255
-0.512027 -0.229854 1.286 255 255 255
-0.411828 0.247043 1.378 255 255 255
-0.663907 -0.476837 1.339 255 255 255
0.321544 -0.00548278 0.697 255 255 255
-0.219423 0.113558 0.444 255 255 255
-0.623248 -0.180983 1.198 255 255 255
-0.662504 -0.489918 1.345 255 255 255
0.304006 0.0601663 0.737 255 255 255
0.10536 -0.0967223 0.805 255 255 255
-0.10395 0.158813 0.478 255 255 255
-0.367784 -0.19658 1.198 255 255 255
-0.0325334 -0.155524 0.847 255 255 255
0.187523 -0.17993 0.705 255 255 255
0.149662 0.0503299 0.77 255 255 255
0.155814 -0.0227521 0.883 255 255 255
0.0149247 -0.269307 0.804 255 255 255
-0.434908 -0.15444 1.359 255 255 255
0.262005 -0.158661 0.664 255 255 255
-0.255721 0.259118 1.359 255 255 255
0.187697 -0.203159 0.71 255 255 255
0.170913 0.0363476 0.793 255 255 255
0.0649655 -0.105614 0.879 255 255 255
0.191778 -0.211804 0.708 255 255 255
0.11304 0.378883 1.169 255 255 255
0.0908575 0.10823 0.909 255 255 255
-0.307715 0.158281 1.47 255 255 255
0.13058 -0.205722 0.74 255 255 255
-0.105285 0.160034 0.477 255 255 255
-0.398436 0.342793 1.291 255 255 255
0.211404 -0.179123 0.693 255 255 255
0.259393 0.105217 0.652 255 255 255
-0.210727 -0.23627 0.969 255 255 255
0.10981 0.0343601 0.839 255 255 255
0.261388 0.185974 0.756 255 255 255
-0.403173 0.356114 1.286 255 255 255
0.209425 -0.0710566 0.755 255 255 255
0.272007 -0.0870437 0.67 255 255 255
0.227505 -0.0931326 0.708 255 255 255
-0.17881 -0.191721 0.967 255 255 255
-0.00346974 -0.269657 0.821 255 255 255
-0.567492 0.231476 1.449 255 255 255
-0.164971 0.0782043 1.227 255 255 255
0.0770207 0.00312319 0.886 255 255 255
0.303181 0.205926 0.735 255 255 255
0.204455 -0.234847 0.708 255 255 255
0.0840076 -0.12359 0.827 255 255 255
-0.0491639 -0.0608522 0.873 255 255 255
-0.00343171 -0.211203 0.812 255 255 255
-0.820762 0.0225913 1.7 255 255 255
0.223649 -0.218408 0.696 255 255 255
0.304615 0.0664484 0.727 255 255 255
0.224551 0.218555 0.86 255 255 255
0.270513 -0.257254 0.7 255 255 255
0.107863 0.139186 0.928 255 255 255
-0.423043 -0.102781 1.378 255 255 255
0.299629 0.0725358 0.593 255 255 255
-0.195582 0.0958392 0.449 255 255 255
0.259618 0.296813 0.889 255 255 255
0.287027 0.0253347 0.772 255 255 255
0.122505 -0.0677999 0.871 255 255 255
0.2274 0.172277 0.801 255 255 255
-0.0237167 -0.266567 0.828 255 255 255
-0.574142 -0.316721 1.257 255 255 255
0.136429 0.208625 0.97 255 255 255
-0.424585 0.173456 1.477 255 255 255
0.176839 -0.264855 0.737 255 255 255
0.300271 0.140719 0.604 255 255 255
0.226005 0.234107 0.871 255 255 255
-0.220873 -0.189549 0.972 255 255 255
-0.389465 -0.318525 1.217 255 255 255
-0.184896 0.134246 1.327 255 255 255
-0.685596 -0.0304827 1.729 255 255 255
-0.60775 0.138161 1.539 255 255 255
-0.891509 -0.120429 1.769 255 255 255
-0.187671 -0.133083 0.964 255 255 255
-0.335412 0.059178 1.445 255 255 255
-0.0155467 0.10593 0.293 255 255 255
0.106008 0.135725 0.925 255 255 255
-0.514316 -0.0125781 1.599 255 255 255
0.0766585 -0.120111 0.85 255 255 255
0.30445 0.170627 0.631 255 255 255
-0.0922167 -0.225255 0.877 255 255 255
-0.141204 -0.325065 0.917 255 255 255
-0.157735 0.298411 1.299 255 255 255
-0.0994903 -0.296999 0.891 255 255 255
-0.632587 -0.00783972 1.7 255 255 255
-0.591627 0.0957423 1.583 255 255 255
0.189118 -0.220801 0.711 255 255 255
-0.272793 -0.393325 1.012 255 255 255
-0.106355 -0.346866 0.9 255 255 255
-0.467627 0.225323 1.425 255 255 255
-0.0477428 -0.0736382 0.873 255 255 255
-0.259296 0.238073 1.378 255 255 255
-0.0712066 -0.124633 0.882 255 255 255
0.127636 0.234359 1.013 255 255 255
-0.209341 0.0561357 0.425 255 255 255
0.206822 0.219395 0.886 255 255 255
0.252825 -0.212105 0.683 255 255 255
0.18881 0.0142772 0.863 255 255 255
-0.0698915 0.274869 1.278 255 255 255
-0.0313233 0.128173 0.474 255 255 255
-0.0509933 -0.205932 0.856 255 255 255
-0.526538 0.184972 1.473 255 255 255
0.152928 -0.204193 0.726 255 255 255
0.183191 0.170164 0.863 255 255 255
0.119923 0.0697342 0.806 255 255 255
0.027567 -0.16591 0.83 255 255 255
0.0815325 0.284827 1.128 255 255 255
-0.188393 0.10717 0.46 0 0 0
0.0165582 -0.0752408 0.892 255 255 255
-0.215968 0.016791 0.41 255 255 255
0.234781 0.375408 1.02 255 255 255
-0.0897614 -0.0634313 0.91 255 255 255
-0.489363 0.267708 1.369 255 255 255
0.199093 0.235704 0.91 255 255 255
0.310625 0.237787 0.73 255 255 255
0.163067 0.127495 0.832 255 255 255
-0.130672 -0.253183 0.927 255 255 255
0.180527 -0.0897771 0.768 255 255 255
-0.282176 0.265795 1.348 255 255 255
-0.0830789 -0.24781 0.871 255 255 255
-0.0576676 0.0386037 1.024 255 255 255
0.297564 0.22325 0.77 255 255 255
0.245215 0.0376522 0.767 255 255 255
-0.556517 0.226134 1.445 255 255 255
0.239223 0.128529 0.737 255 255 255
-0.224459 -0.338068 0.967 255 255 255
-0.00044552 0.136068 0.459 255 255 255
-0.120603 -0.344039 0.908 255 255 255
-0.0571831 0.0581888 0.176 255 255 255
-0.248891 -0.121924 1.043 255 255 255
0.000282584 0.163158 0.43 255 255 255
0.0583935 0.337838 1.22 255 255 255
-0.424638 0.330955 1.294 255 255 255
-0.390148 -0.360561 1.149 255 255 255
-0.328256 0.274569 1.348 255 255 255
-0.404321 0.353196 1.283 255 255 255
-0.199008 0.0763631 0.442 0 0 0
-0.0425765 0.0990726 0.268 255 255 255
-0.0101024 -0.233776 0.817 255 255 255
-0.0833183 0.00958281 0.955 255 255 255
-0.131895 -0.243605 0.925 255 255 255
0.30126 -0.252432 0.672 255 255 255
-0.317204 -0.306337 1.149 255 255 255
-0.0912975 -0.128069 0.896 255 255 255
-0.0474147 -0.111226 0.867 255 255 255
0.0132103 -0.121948 0.863 255 255 255
-0.392304 0.0930811 1.539 255 255 255
-0.0418858 -0.216009 0.841 255 255 255
0.190179 0.375526 1.098 255 255 255
0.162871 0.377202 1.158 255 255 255
0.0498235 -0.283823 0.797 255 255 255
0.202133 0.0604427 0.712 255 255 255
-0.217446 0.103227 0.44 255 255 255
-0.178467 0.0280122 1.135 255 255 255
-0.0234985 0.0485503 0.989 255 255 255
0.258654 -0.106367 0.675 255 255 255
0.144264 -0.20413 0.73 255 255 255
-0.136949 -0.109767 0.939 255 255 255
-0.944698 -0.0873405 1.799 255 255 255
-0.552188 -0.210461 1.222 255 255 255
0.0574302 0.161326 0.418 255 255 255
-0.209947 0.224618 1.378 255 255 255
-0.360172 -0.294383 1.232 255 255 255
-0.130042 -0.329229 0.912 255 255 255
-0.40143 -0.354125 1.171 255 255 255
0.211212 0.117234 0.757 255 255 255
0.263086 -0.159741 0.664 255 255 255
0.295411 0.180382 0.719 255 255 255
0.141583 0.371274 1.169 255 255 255
0.202135 0.277064 0.945 255 255 255
0.313272 0.184804 0.62 255 255 255
-0.624263 0.207949 1.466 255 255 255
0.248353 0.0638173 0.686 255 255 255
-0.378517 0.326644 1.302 255 255 255
0.26173 0.374273 0.978 255 255 255
-0.65301 -0.0106686 1.71 255 255 255
0.121453 -0.15187 0.766 255 255 255
0.121064 0.334367 1.173 255 255 255
-0.478111 0.156003 1.494 255 255 255
0.31036 0.214298 0.735 255 255 255
-0.4917 0.285236 1.357 255 255 255
-0.195923 -0.248115 0.966 255 255 255
0.0318009 0.0229403 0.872 255 255 255
0.316749 0.19795 0.633 255 255 255
-0.883104 -0.0624632 1.758 255 255 255
-0.52163 -0.274982 1.244 255 255 255
0.336667 -0.00530972 0.675 255 255 255
-0.404321 0.355284 1.283 255 255 255
0.0627125 0.167893 1.03 255 255 255
0.00578489 -0.212529 0.807 255 255 255
0.31736 -0.196266 0.649 255 255 255
-0.10475 0.144165 0.489 255 255 255
0.174415 -0.151371 0.722 255 255 255
0.0567403 -0.247614 0.785 255 255 255
0.288744 0.237961 0.794 255 255 255
-0.620882 -0.317749 1.286 255 255 255
-0.213987 0.086787 0.433 255 255 255
-0.221228 0.0886956 0.432 255 255 255
-0.00932012 -0.00824043 0.868 255 255 255
-0.157654 -0.220957 0.944 255 255 255
-0.0674448 0.0527215 0.166 255 255 255
0.0741283 0.0610434 0.869 255 255 255
-0.12233 -0.256041 0.921 255 255 255
-0.407185 -0.285791 1.247 255 255 255
0.0363876 0.0494386 0.916 255 255 255
-0.215909 0.0520773 1.178 255 255 255
0.0807143 0.0527304 0.849 255 255 255
0.307642 -0.250989 0.674 255 255 255
-0.337197 -0.40542 1.07 255 255 255
-0.0400013 0.341131 1.254 255 255 255
-0.518211 -0.0178268 1.603 255 255 255
0.0346398 -0.114706 0.872 255 255 255
-0.546221 -0.186598 1.222 255 255 255
-0.378767 -0.281733 1.247 255 255 255
0.252277 0.08014 0.664 255 255 255
-0.0648632 -0.0265257 0.914 255 255 255
-0.210232 0.123482 1.351 255 255 255
-0.107107 0.131949 0.5 255 255 255
-0.238328 -0.178082 1.034 0 0 0
0.248507 -0.0182978 0.758 255 255 255
-0.0128404 -0.195077 0.822 255 255 255
-0.0130434 -0.172344 0.835 255 255 255
0.241588 -0.22406 0.689 255 255 255
0.166855 -0.124839 0.746 255 255 255
0.132123 0.134631 0.888 255 255 255
-0.637295 -0.208984 1.225 255 255 255
0.174502 0.358599 1.112 255 255 255
0.0148771 0.16202 0.427 255 255 255
-0.630753 0.206124 1.47 255 255 255
0.29414 0.165836 0.702 255 255 255
0.308309 0.184229 0.639 255 255 255
-0.074572 -0.315845 0.871 255 255 255
0.290767 0.250219 0.796 255 255 255
-0.573601 0.0581474 1.612 255 255 255
0.278135 -0.212112 0.669 255 255 255
0.248715 -0.225645 0.687 255 255 255
-0.244731 -0.336634 1.005 255 255 255
-0.212789 0.0844775 0.432 255 255 255
-0.632749 0.155113 1.509 255 255 255
-0.136708 -0.20491 0.927 255 255 255
-0.213876 -0.356109 0.948 255 255 255
-0.0436148 -0.257826 0.848 255 255 255
-0.20622 -0.023075 1.025 255 255 255
-0.610255 0.138161 1.539 255 255 255
-0.273796 -0.288207 1.081 255 255 255
0.263681 -0.25048 0.697 255 255 255
-0.21168 0.0278682 0.416 255 255 255
-0.576882 -0.488213 1.403 255 255 255
-0.196018 0.100446 0.45 255 255 255
0.0659361 -0.198549 0.788 255 255 255
-0.510922 -0.220105 1.278 255 255 255
0.204156 -0.205732 0.703 255 255 255
0.00272369 0.242794 1.192 255 255 255
-0.0419854 -0.182227 0.843 255 255 255
0.0656307 -0.00120497 0.888 255 255 255
-0.299749 -0.332664 1.112 255 255 255
0.16619 -0.282007 0.754 255 255 255
0.143897 0.0550546 0.766 255 255 255
-0.252104 -0.355416 0.989 255 255 255
0.000530995 -0.24172 0.808 255 255 255
-0.130813 -0.150765 0.928 255 255 255
-0.0951803 -0.19265 0.878 255 255 255
-0.0917166 0.128472 0.496 255 255 255
-0.561628 -0.274779 1.234 255 255 255
-0.336621 -0.230261 1.171 255 255 255
-0.07161 0.125579 0.491 255 255 255
0.270223 -0.0283134 0.73 255 255 255
-0.475668 0.254323 1.381 255 255 255
-0.183324 0.131258 0.474 255 255 255
-0.172921 0.232063 1.369 255 255 255
-0.387507 -0.28625 1.249 255 255 255
0.308604 -0.114472 0.629 255 255 255
0.251438 0.389683 1.027 255 255 255
0.00175293 0.143014 0.448 255 255 255
0.14647 -0.125583 0.773 255 255 255
-0.00845667 0.14593 0.448 255 255 255
0.224487 0.0785197 0.678 255 255 255
-0.72353 -0.030659 1.739 255 255 255
-0.408976 -0.0206864 1.439 255 255 255
0.311488 0.23478 0.68 255 255 255
0.322919 -0.0297134 0.656 255 255 255
0.183582 -0.27075 0.74 255 255 255
0.0212206 0.1354 1.051 255 255 255
