ply
format ascii 1.0
comment Created by Open3D
element vertex 1291
property double x
property double y
property double z
property uchar red
property uchar green
property uchar blue
end_header
-0.0347909 0.0233257 0.835 255 255 255
-0.032291 -0.00861871 0.775 255 255 255
0.25379 0.0966684 0.741 255 255 255
-0.0507811 0.197723 0.629 255 255 255
0.265829 -0.163022 0.647 255 255 255
0.22228 0.198783 0.678 255 255 255
-0.122437 0.0276027 0.674 255 255 255
0.0696116 -0.154339 0.664 255 255 255
0.161111 0.0358893 0.783 255 255 255
0.117342 0.234973 0.614 255 255 255
0.0959747 0.00265083 0.752 255 255 255
-0.0783234 0.0953699 0.597 255 255 255
-0.257166 0.192789 0.586 255 255 255
-0.465326 -0.107667 1.229 255 255 255
-0.00541686 -0.0775645 0.724 255 255 255
0.0227511 -0.149187 0.685 255 255 255
0.178187 -0.0362778 0.723 255 255 255
0.0802767 0.215124 0.629 255 255 255
0.0984296 0.10402 0.725 255 255 255
-0.18608 0.111412 0.651 255 255 255
-0.128742 0.133174 0.601 255 255 255
0.268783 -0.095541 0.684 255 255 255
0.084104 -0.176348 0.627 255 255 255
-0.320829 -0.122161 1.176 255 255 255
0.320001 0.164923 0.684 255 255 255
0.240134 0.0562764 0.783 255 255 255
0.0646982 0.187565 0.658 255 255 255
-0.428866 -0.0507989 1.257 255 255 255
-0.630475 0.171692 1.442 255 255 255
0.253606 -0.230135 0.61 255 255 255
-0.0404133 0.201176 0.627 255 255 255
-0.0588858 0.0544925 0.607 255 255 255
0.175824 -0.163403 0.657 255 255 255
0.353432 0.0241205 0.735 0 0 0
-0.128668 -0.152517 0.763 255 255 255
0.362283 0.0141954 0.717 255 255 255
0.216342 -0.226751 0.617 255 255 255
-0.332204 -0.360331 0.951 255 255 255
0.0885561 -0.157392 0.637 255 255 255
-0.163531 -0.156973 0.84 255 255 255
0.125552 0.137863 0.705 255 255 255
-0.125917 0.0504946 0.687 255 255 255
-0.61092 -0.216181 1.167 255 255 255
-0.0185597 -0.147387 0.687 255 255 255
-0.128384 0.161897 0.633 255 255 255
0.0830876 -0.056435 0.725 255 255 255
-0.699827 0.0937967 1.435 255 255 255
-0.0974132 0.192705 0.626 255 255 255
0.19075 0.155111 0.7 255 255 255
0.00651798 -0.0468278 0.741 255 255 255
-0.182058 0.104572 0.648 255 255 255
0.247326 0.229301 0.64 255 255 255
0.179804 -0.192637 0.637 255 255 255
0.247641 -0.0478584 0.703 255 255 255
-0.0661035 0.0733768 0.592 255 255 255
-0.0213966 0.103529 0.747 255 255 255
-0.00424418 -0.0705928 0.725 255 255 255
0.0493926 0.231361 0.602 255 255 255
-0.0695564 -0.0292831 0.755 255 255 255
0.113208 -0.0753313 0.714 255 255 255
0.304149 -0.170365 0.639 255 255 255
0.301069 0.0771887 0.763 255 255 255
-0.253952 0.202238 0.583 255 255 255
0.0814626 0.192039 0.655 255 255 255
0.165179 -0.200936 0.621 255 255 255
0.373947 0.121867 0.733 255 255 255
0.02271 -0.0852192 0.719 255 255 255
-0.633502 -0.0715214 1.299 255 255 255
-0.244685 0.136524 0.63 255 255 255
-0.497986 -0.208227 1.165 255 255 255
-0.212538 0.0307689 0.696 255 255 255
0.0421918 0.138073 0.712 255 255 255
-0.554487 -0.264447 1.122 255 255 255
0.098322 0.0811016 0.742 0 0 0
-0.0504872 0.0480483 0.613 255 255 255
-0.123277 0.166806 0.644 255 255 255
0.323031 -0.0563346 0.681 255 255 255
0.115833 0.227913 0.622 255 255 255
0.328608 0.22069 0.661 255 255 255
0.339145 0.122556 0.73 255 255 255
-0.182399 0.109629 0.653 255 255 255
0.324019 0.09174 0.75 255 255 255
0.1786 -0.225015 0.615 255 255 255
-0.347257 -0.0861692 1.208 255 255 255
-0.0279465 0.139901 0.698 255 255 255
-0.234715 0.129722 0.642 255 255 255
0.0901652 -0.220736 0.606 255 255 255
-0.26716 0.146629 0.625 255 255 255
0.277746 -0.0123588 0.701 255 255 255
-0.791181 0.188613 1.502 255 255 255
-0.000621205 0.194932 0.64 255 255 255
0.194481 -0.162906 0.655 255 255 255
-0.298684 -0.336185 0.994 255 255 255
-0.228144 -0.380413 1.004 255 255 255
0.214986 -0.0477223 0.701 255 255 255
-0.125957 0.215455 0.588 255 255 255
-0.575213 -0.300025 1.092 255 255 255
0.143437 -0.142796 0.646 255 255 255
-0.782905 0.26766 1.579 255 255 255
-0.267716 -0.296727 1.037 255 255 255
0.131116 0.0137554 0.757 255 255 255
0.155871 -0.130776 0.682 255 255 255
-0.751977 0.0796186 1.432 255 255 255
0.0422239 -0.183702 0.642 255 255 255
-0.182732 0.222234 0.571 255 255 255
0.300156 -0.055713 0.687 255 255 255
0.222994 0.183534 0.687 255 255 255
0.281626 -0.00898751 0.705 255 255 255
0.0118039 -0.12231 0.697 255 255 255
-0.194909 -0.332843 0.961 255 255 255
-0.0278811 -0.226194 0.644 255 255 255
-0.645688 -0.101164 1.273 255 255 255
0.257751 0.118177 0.725 255 255 255
-0.18055 0.00443392 0.654 255 255 255
0.115856 -0.0708816 0.716 255 255 255
0.00899065 -0.0119382 0.746 255 255 255
-0.00186828 -0.0922395 0.719 0 0 0
-0.0076236 0.133063 0.71 255 255 255
0.105996 0.0790048 0.745 255 255 255
-0.47275 -0.054759 1.254 255 255 255
-0.668006 0.15381 1.473 255 255 255
-0.497508 -0.357373 1.027 255 255 255
0.125127 0.166369 0.69 255 255 255
-0.29544 0.179019 0.614 255 255 255
-0.813749 0.26766 1.579 255 255 255
0.0961979 -0.193385 0.626 255 255 255
-0.397481 -0.181848 1.154 255 255 255
-0.12548 -0.015691 0.697 255 255 255
-0.223114 0.178728 0.613 255 255 255
-0.440876 -0.0944292 1.239 255 255 255
-0.0384201 -0.0447758 0.747 255 255 255
0.254681 0.176311 0.685 255 255 255
0.027966 0.145687 0.704 255 255 255
0.0521602 0.184396 0.662 255 255 255
0.0404892 0.177656 0.665 255 255 255
-0.139832 0.0640026 0.643 255 255 255
0.0894436 0.163473 0.692 255 255 255
-0.109543 0.0316577 0.805 255 255 255
-0.757762 0.243974 1.559 255 255 255
0.233281 -0.228646 0.614 255 255 255
-0.423027 -0.09204 1.234 255 255 255
-0.184838 -0.113279 0.883 255 255 255
-0.120692 0.165477 0.647 255 255 255
0.131023 0.195464 0.663 255 255 255
-0.155055 -0.0218526 0.713 255 255 255
0.285435 -0.232348 0.608 255 255 255
0.274435 0.17459 0.687 255 255 255
-0.523674 0.0290103 1.354 255 255 255
0.088303 0.124976 0.71 255 255 255
0.0921047 -0.0414376 0.731 255 255 255
-0.122562 0.0583204 0.687 255 255 255
-0.330513 -0.240044 1.094 255 255 255
-0.00848259 0.0619219 0.79 255 255 255
-0.218274 0.216902 0.562 255 255 255
0.0594878 0.00266141 0.755 255 255 255
0.0519238 -0.160683 0.659 255 255 255
-0.0283327 0.153999 0.68 255 255 255
0.284553 -0.209354 0.619 255 255 255
-0.138615 0.174925 0.628 0 0 0
0.185098 0.23626 0.62 255 255 255
-0.242464 0.208246 0.576 255 255 255
-0.182092 0.188624 0.616 255 255 255
0.0916409 0.121338 0.709 255 255 255
0.335649 0.0499752 0.746 255 255 255
0.151077 -0.196352 0.613 255 255 255
-0.219426 -0.383949 1.009 255 255 255
-0.162712 0.15248 0.6 255 255 255
-0.0558673 -0.138325 0.692 255 255 255
-0.283121 0.177561 0.609 255 255 255
-0.117518 -0.332319 0.955 255 255 255
-0.685037 0.048222 1.4 255 255 255
-0.581091 -0.266747 1.124 255 255 255
0.0483175 -0.106889 0.7 255 255 255
0.171124 -0.0294205 0.728 0 0 0
0.341071 0.133331 0.724 255 255 255
0.293768 -0.00213375 0.715 255 255 255
0.0987793 0.222196 0.623 255 255 255
-0.332087 -0.118938 1.182 255 255 255
0.0638067 0.0708023 0.748 255 255 255
-0.287125 -0.361299 0.966 255 255 255
-0.359265 -0.311586 1.053 255 255 255
-0.457997 -0.0250156 1.299 255 255 255
0.155978 0.201791 0.659 255 255 255
-0.0861243 0.226344 0.584 255 255 255
-0.185293 0.0859279 0.62 255 255 255
0.33821 0.00599421 0.713 255 255 255
-0.20604 -0.316137 0.992 255 255 255
0.0260388 0.122194 0.714 255 255 255
0.208852 -0.111745 0.681 255 255 255
0.149397 0.216803 0.64 255 255 255
0.118068 -0.150461 0.634 255 255 255
-0.0667409 0.16326 0.655 255 255 255
0.071374 0.202538 0.641 255 255 255
-0.0285689 0.226937 0.593 255 255 255
0.284796 0.0737526 0.766 255 255 255
-0.249278 0.09749 0.65 0 0 0
-0.0354926 0.178663 0.649 255 255 255
0.0851835 -0.20263 0.62 255 255 255
-0.0113904 0.000220094 0.814 255 255 255
-0.249278 0.0964322 0.65 255 255 255
-0.16981 -0.278164 1.037 255 255 255
-0.46995 -0.133569 1.21 255 255 255
-0.296867 -0.199842 1.108 255 255 255
0.238554 0.0562046 0.782 255 255 255
0.23924 0.240969 0.627 255 255 255
0.0424123 0.0255972 0.78 255 255 255
-0.0551131 0.017869 0.834 255 255 255
-0.00351623 0.0367813 0.832 255 255 255
-0.621601 0.075885 1.406 255 255 255
-0.0953285 0.224066 0.588 255 255 255
-0.288718 0.192521 0.594 255 255 255
-0.473782 -0.119277 1.225 255 255 255
-0.209995 -0.131511 0.88 255 255 255
0.307115 0.13241 0.719 255 255 255
0.322657 -0.0991849 0.671 255 255 255
0.0646698 0.198117 0.647 255 255 255
0.00582073 0.0438255 0.812 255 255 255
-0.0627396 -0.0447758 0.747 255 255 255
-0.0289322 0.0457584 0.823 255 255 255
0.193192 0.0775052 0.754 255 255 255
-0.142582 0.185699 0.623 255 255 255
0.234481 -0.120647 0.675 255 255 255
-0.456244 -0.353894 1.017 255 255 255
-0.12368 0.0728541 0.687 255 255 255
0.0598964 -0.177157 0.641 255 255 255
0.144447 -0.219279 0.602 255 255 255
-0.0795491 0.0269099 0.82 255 255 255
-0.289552 -0.327774 1.013 255 255 255
-0.0146401 -0.0962457 0.714 0 0 0
0.156762 0.0795351 0.75 255 255 255
-0.307363 -0.236484 1.094 255 255 255
0.171765 -0.127991 0.679 255 255 255
0.266905 -0.180198 0.637 255 255 255
-0.188611 -0.320896 0.977 255 255 255
0.245792 -0.133808 0.664 255 255 255
-0.171753 0.057912 0.657 255 255 255
-0.245043 0.045845 0.758 255 255 255
-0.478231 -0.0848925 1.247 255 255 255
0.311105 -0.181869 0.632 255 255 255
0.0520711 -0.0381796 0.737 255 255 255
0.0762286 0.117875 0.716 255 255 255
-0.41442 -0.344978 1.02 255 255 255
0.180841 -0.193674 0.637 255 255 255
0.329951 0.0313396 0.736 255 255 255
0.117964 -0.0167491 0.744 0 0 0
0.112854 -0.198055 0.606 255 255 255
0.0909872 0.0416666 0.772 0 0 0
0.181914 0.0841919 0.748 255 255 255
0.26482 -0.174299 0.642 255 255 255
0.237186 0.189965 0.686 255 255 255
0.154675 0.0540891 0.77 255 255 255
0.173435 0.236504 0.618 255 255 255
0.195502 0.103062 0.735 255 255 255
-0.180671 0.0735824 0.618 255 255 255
0.129573 -0.133319 0.678 255 255 255
-0.261827 0.16212 0.622 255 255 255
0.155978 0.202864 0.659 255 255 255
-0.451032 -0.370649 0.991 255 255 255
-0.495273 -0.263797 1.104 255 255 255
0.139893 0.100259 0.732 0 0 0
-0.0655283 -0.159685 0.687 255 255 255
-0.335908 -0.171711 1.149 255 255 255
0.303604 0.13241 0.719 255 255 255
-0.177462 -0.198355 0.904 255 255 255
0.181271 0.126486 0.712 255 255 255
-0.55393 -0.202887 1.167 255 255 255
0.24786 0.149264 0.694 255 255 255
0.0700014 -0.16906 0.638 255 255 255
-0.240708 0.129338 0.625 255 255 255
-0.526192 0.00251827 1.327 255 255 255
0.0782304 0.123183 0.713 255 255 255
0.308457 0.203282 0.671 255 255 255
0.0510707 -0.156116 0.691 255 255 255
0.191614 -0.0405873 0.716 255 255 255
-0.285365 0.15526 0.627 255 255 255
-0.680817 0.183442 1.48 255 255 255
0.0938639 0.0355226 0.775 255 255 255
-0.0697541 -0.057914 0.744 255 255 255
0.108466 -0.0425105 0.729 255 255 255
0.217151 0.202676 0.669 255 255 255
-0.0287692 0.101369 0.749 255 255 255
0.283047 -0.0294281 0.7 255 255 255
-0.1694 0.0117748 0.648 255 255 255
0.136596 -0.133713 0.68 0 0 0
-0.0108667 0.202138 0.63 255 255 255
-0.0364525 -0.147387 0.687 255 255 255
-0.108918 0.110431 0.605 255 255 255
0.161182 -0.160528 0.654 255 255 255
-0.100538 0.106945 0.602 255 255 255
0.269758 -0.039737 0.701 255 255 255
0.343334 0.145432 0.714 255 255 255
-0.173628 0.155463 0.604 255 255 255
0.0421968 0.170442 0.675 255 255 255
-0.296145 -0.279409 1.048 255 255 255
-0.0250407 0.0679173 0.785 255 255 255
0.194194 -0.193544 0.64 255 255 255
-0.346736 -0.353324 0.97 255 255 255
-0.735152 0.0721204 1.422 255 255 255
-0.181619 -0.0364403 0.682 255 255 255
-0.324668 -0.306341 1.041 255 255 255
0.177941 -0.0385775 0.722 255 255 255
0.0556352 -0.0702033 0.721 255 255 255
-0.480134 -0.213773 1.154 255 255 255
0.248927 -0.140095 0.658 255 255 255
0.227534 0.213357 0.655 255 255 255
-0.157516 0.0791121 0.63 255 255 255
-0.107395 0.0100834 0.676 255 255 255
-0.275758 0.20579 0.577 255 255 255
-0.0753103 0.0400025 0.612 255 255 255
-0.11701 -0.142268 0.768 255 255 255
0.179861 0.113458 0.725 255 255 255
-0.0164663 -0.0349101 0.744 255 255 255
-0.301088 -0.332368 1.002 255 255 255
0.0685852 -0.0107386 0.747 0 0 0
-0.136718 0.203313 0.606 255 255 255
0.318226 0.0668096 0.787 255 255 255
-0.0572408 -0.133269 0.695 255 255 255
0.010164 -0.0409087 0.743 0 0 0
-0.178775 -0.252603 1.05 255 255 255
-0.576276 0.0480842 1.396 255 255 255
0.183198 -0.220727 0.617 255 255 255
-0.133043 -0.118189 0.774 255 255 255
-0.35646 -0.205073 1.137 255 255 255
-0.224509 -0.322901 0.988 255 255 255
-0.130582 0.131096 0.596 255 255 255
-0.191166 -0.267892 1.043 255 255 255
0.0622425 -0.0778726 0.716 255 255 255
-0.679519 0.0160348 1.375 255 255 255
-0.644268 0.0408255 1.381 255 255 255
0.279945 0.237183 0.636 255 255 255
-0.258132 0.170129 0.618 255 255 255
-0.216309 0.153899 0.634 255 255 255
-0.16678 -0.363463 0.989 255 255 255
-0.0775715 0.00707872 0.842 255 255 255
0.349321 0.130974 0.724 255 255 255
0.209675 -0.0137499 0.714 255 255 255
0.0288826 0.170778 0.672 255 255 255
-0.0677785 0.0515291 0.607 255 255 255
0.362831 0.100551 0.752 255 255 255
-0.0182535 0.220951 0.603 255 255 255
0.184595 0.0172667 0.749 255 255 255
-0.0858298 0.200653 0.616 255 255 255
-0.375505 -0.3182 1.041 255 255 255
0.294994 -0.0613921 0.688 255 255 255
0.180678 0.0786278 0.753 255 255 255
-0.0623882 -0.1289 0.702 255 255 255
0.124897 -0.156157 0.632 255 255 255
-0.0257044 -0.233849 0.642 255 255 255
-0.13459 -0.101724 0.783 255 255 255
-0.654646 -0.0381923 1.316 255 255 255
0.00539207 0.219627 0.613 255 255 255
0.253973 -0.176114 0.641 255 255 255
-0.0536919 -0.135141 0.693 255 255 255
0.256674 -0.121388 0.667 255 255 255
-0.255934 0.179249 0.608 255 255 255
-0.267402 -0.380709 0.992 255 255 255
-0.299272 -0.275601 1.053 255 255 255
0.134812 0.216803 0.64 255 255 255
-0.157849 0.102817 0.657 255 255 255
0.0447399 -0.00348176 0.755 255 255 255
0.0813026 -0.0299459 0.741 255 255 255
0.120724 0.144238 0.697 255 255 255
-0.0645622 0.0401332 0.614 255 255 255
-0.0867779 0.0611613 0.595 255 255 255
-0.275334 -0.372914 0.98 255 255 255
-0.293032 0.193472 0.591 255 255 255
-0.175841 -0.186083 0.874 255 255 255
-0.218656 0.202141 0.58 255 255 255
0.221875 0.171236 0.687 255 255 255
-0.160612 0.111476 0.664 255 255 255
-0.104133 -0.080165 0.784 255 255 255
0.371561 0.120674 0.733 255 255 255
-0.504374 -0.160275 1.189 255 255 255
0.332487 -0.0926333 0.671 255 255 255
-0.717979 0.265889 1.539 255 255 255
-0.799502 0.217311 1.532 255 255 255
-0.0356567 0.0812318 0.766 255 255 255
0.31809 0.134937 0.72 255 255 255
0.151093 0.223024 0.634 255 255 255
0.10467 0.185789 0.667 255 255 255
-0.479711 0.0287532 1.342 255 255 255
-0.0458327 0.142166 0.661 255 255 255
-0.301873 0.190242 0.599 255 255 255
-0.0831824 0.0924554 0.597 255 255 255
-0.103597 0.179029 0.639 255 255 255
-0.239309 0.181618 0.606 255 255 255
-0.237565 -0.263606 1.053 255 255 255
-0.244896 -0.378518 0.999 255 255 255
0.281681 -0.146244 0.652 255 255 255
-0.0733067 0.13426 0.629 255 255 255
0.342948 0.161714 0.699 255 255 255
-0.578549 0.0480842 1.396 255 255 255
0.0458413 -0.116639 0.697 255 255 255
0.303668 0.038997 0.745 255 255 255
-0.108233 0.0316577 0.805 255 255 255
-0.074239 0.146334 0.637 255 255 255
-0.255934 0.180238 0.608 255 255 255
0.0505424 0.193105 0.655 255 255 255
0.140021 0.216803 0.64 255 255 255
0.151617 0.159199 0.693 255 255 255
0.337265 -0.0733047 0.674 255 255 255
0.132411 -0.104904 0.687 255 255 255
0.216693 -0.224102 0.618 255 255 255
0.0226119 -0.173031 0.649 255 255 255
-0.318357 -0.305164 1.037 255 255 255
0.366954 0.113857 0.743 255 255 255
-0.18794 -0.20011 0.912 255 255 255
-0.0217689 0.0867794 0.76 255 255 255
-0.411112 -0.252101 1.1 255 255 255
-0.347521 -0.296128 1.059 255 255 255
-0.017289 -0.160506 0.681 255 255 255
0.00291111 0.0837417 0.744 255 255 255
-0.213398 0.211995 0.576 255 255 255
0.0140294 0.193753 0.643 255 255 255
0.256015 -0.0330332 0.704 255 255 255
0.196685 0.00383336 0.744 255 255 255
0.268437 0.122388 0.722 255 255 255
0.177743 -0.112402 0.685 255 255 255
-0.192181 0.151794 0.613 255 255 255
-0.0918775 0.0318936 0.811 255 255 255
0.0952291 0.169623 0.685 255 255 255
-0.25171 -0.358318 0.975 255 255 255
0.212704 -0.0443 0.701 255 255 255
0.245206 -0.213076 0.624 255 255 255
0.326157 0.147458 0.707 255 255 255
0.0862194 0.236843 0.606 255 255 255
-0.0940702 0.149221 0.645 255 255 255
0.271992 -0.129096 0.662 255 255 255
0.00931582 0.159767 0.681 255 255 255
-0.267618 0.16436 0.619 255 255 255
0.142291 -0.043517 0.726 255 255 255
0.0912133 -0.135926 0.68 255 255 255
-0.280507 0.200598 0.581 255 255 255
-0.175588 0.104955 0.575 255 255 255
-0.792619 0.268338 1.583 255 255 255
-0.137169 0.149566 0.608 255 255 255
-0.0158479 -0.181086 0.667 255 255 255
0.28685 -0.131728 0.659 255 255 255
-0.000803684 0.0392993 0.828 255 255 255
-0.233473 0.114073 0.614 255 255 255
0.100001 0.126309 0.711 255 255 255
0.167208 0.189932 0.674 255 255 255
0.0881211 0.0281359 0.78 255 255 255
0.0875514 0.167638 0.686 255 255 255
0.231602 0.191081 0.686 255 255 255
0.0403824 -0.230645 0.614 255 255 255
-0.0839604 0.199975 0.617 255 255 255
-0.10514 -0.11432 0.782 255 255 255
0.322421 0.245976 0.632 255 255 255
0.0388733 0.18913 0.656 255 255 255
-0.69661 0.0115092 1.369 255 255 255
0.222056 0.131722 0.709 255 255 255
-0.0344084 0.165661 0.669 255 255 255
0.2018 0.0111127 0.745 0 0 0
0.236069 -0.0947041 0.686 0 0 0
-0.0950017 -0.0707615 0.793 255 255 255
-0.109007 -0.0587508 0.863 255 255 255
0.0905156 -0.191241 0.629 255 255 255
0.189445 -0.110494 0.687 255 255 255
0.27701 -0.149198 0.651 255 255 255
0.0481389 -0.160222 0.666 255 255 255
-0.399359 -0.181848 1.154 255 255 255
0.232099 -0.172746 0.644 255 255 255
-0.0620099 0.219485 0.599 255 255 255
-0.404551 -0.319728 1.046 255 255 255
-0.100803 -0.101075 0.778 255 255 255
0.187087 0.207153 0.659 255 255 255
-0.231192 0.104053 0.608 255 255 255
-0.0736215 0.126897 0.623 255 255 255
0.14722 -0.18304 0.622 255 255 255
-0.150592 -0.0455704 0.703 255 255 255
-0.110624 0.153901 0.656 255 255 255
-0.150515 0.0461114 0.672 255 255 255
0.335311 -0.0479569 0.688 0 0 0
-0.194174 -0.320613 0.981 255 255 255
0.313179 0.107993 0.736 255 255 255
0.204635 -0.168009 0.65 255 255 255
0.367479 0.122892 0.732 255 255 255
0.133558 -0.147594 0.644 255 255 255
0.254638 -0.0709624 0.694 255 255 255
-0.470248 -0.0926367 1.242 255 255 255
0.356392 0.135687 0.724 255 255 255
0.0137894 0.204837 0.632 255 255 255
0.110995 -0.00222627 0.746 255 255 255
0.216775 0.225823 0.639 255 255 255
-0.801954 0.281643 1.571 255 255 255
-0.589447 0.146183 1.445 255 255 255
0.0306805 -0.185502 0.641 255 255 255
-0.270277 -0.235433 1.081 255 255 255
-0.117942 0.216554 0.591 255 255 255
-0.134123 -0.0770288 0.719 255 255 255
0.316003 0.0301828 0.737 255 255 255
0.180125 0.193966 0.669 255 255 255
-0.16673 -0.103235 0.871 255 255 255
0.185191 -0.0932801 0.692 255 255 255
-0.26334 0.127831 0.643 255 255 255
0.0672783 -0.0701059 0.72 255 255 255
0.298017 0.229348 0.646 255 255 255
0.171978 -0.204648 0.62 255 255 255
-0.288645 0.196603 0.586 255 255 255
0.240643 -0.07683 0.696 255 255 255
-0.234321 0.100589 0.611 255 255 255
-0.11615 -0.106275 0.779 255 255 255
-0.728528 0.032182 1.396 255 255 255
-0.364791 -0.264 1.09 255 255 255
-0.0267719 -0.126847 0.697 255 255 255
0.068368 -0.136725 0.684 255 255 255
0.325235 0.149335 0.705 0 0 0
0.153207 0.169738 0.69 255 255 255
-0.487124 -0.252587 1.11 255 255 255
0.1482 -0.0411541 0.726 255 255 255
0.0870269 -0.195423 0.626 255 255 255
0.0870245 0.129415 0.709 255 255 255
0.328182 0.13709 0.719 255 255 255
-0.541825 -0.284322 1.1 255 255 255
-0.044546 0.0620003 0.791 255 255 255
-0.132077 0.20992 0.594 255 255 255
-0.163049 0.218936 0.577 255 255 255
0.181662 0.0797472 0.752 255 255 255
0.00508956 0.134219 0.71 255 255 255
-0.163418 -0.0251914 0.709 255 255 255
-0.0831776 0.140486 0.634 255 255 255
0.087583 0.21239 0.63 255 255 255
-0.426818 -0.301298 1.059 255 255 255
0.151646 0.0973459 0.737 255 255 255
-0.50411 -0.287586 1.092 255 255 255
0.150859 0.00875793 0.751 255 255 255
-0.039496 0.16957 0.663 255 255 255
0.237059 -0.0367291 0.709 255 255 255
-0.0848544 0.0487258 0.609 255 255 255
0.277892 -0.219575 0.611 255 255 255
0.173208 -0.0130816 0.742 255 255 255
0.105354 0.0355684 0.776 255 255 255
0.0557034 -0.194312 0.629 255 255 255
-0.0371423 -0.125115 0.7 0 0 0
0.159296 -0.147983 0.655 255 255 255
-0.0875072 0.21204 0.6 255 255 255
-0.280417 -0.277315 1.053 255 255 255
0.275513 0.218687 0.655 255 255 255
0.243756 -0.00567944 0.722 255 255 255
0.22523 0.18577 0.687 255 255 255
-0.178341 0.0148922 0.646 255 255 255
0.0909147 0.0965534 0.731 255 255 255
0.300351 0.233152 0.642 255 255 255
-0.0945077 0.173115 0.648 255 255 255
-0.0424351 0.102746 0.612 255 255 255
-0.139192 0.172331 0.626 255 255 255
0.203601 -0.129759 0.671 255 255 255
-0.378312 -0.100343 1.213 255 255 255
-0.292611 0.189583 0.6 255 255 255
0.20735 -0.133727 0.669 255 255 255
0.0954689 -0.150344 0.656 255 255 255
0.308898 -0.00213375 0.715 255 255 255
0.139323 -0.100578 0.688 255 255 255
0.13611 -0.185379 0.613 255 255 255
0.0453494 -0.162334 0.657 255 255 255
0.0134471 -0.168893 0.666 255 255 255
-0.681592 0.271556 1.302 255 255 255
-0.112336 0.108 0.597 255 255 255
-0.165687 0.0623104 0.626 255 255 255
-0.142819 0.203002 0.611 255 255 255
0.108184 0.143395 0.704 255 255 255
0.196072 -0.150016 0.664 255 255 255
0.0988436 0.127466 0.711 255 255 255
0.347352 0.159896 0.701 255 255 255
-0.193958 0.0471871 0.642 255 255 255
0.015033 -0.156786 0.689 255 255 255
0.0830834 -0.178389 0.627 255 255 255
0.307698 0.220356 0.66 255 255 255
0.0104856 -0.143614 0.685 255 255 255
0.00408895 -0.0274227 0.738 255 255 255
-0.0170834 -0.0840492 0.719 0 0 0
-0.180389 -0.307909 1.002 255 255 255
-0.00676848 -0.0227721 0.743 0 0 0
0.0368661 0.166786 0.678 255 255 255
-0.214804 0.0319016 0.696 255 255 255
0.0723675 0.0900276 0.736 255 255 255
0.199103 -0.12008 0.678 255 255 255
-0.13125 0.0848573 0.627 255 255 255
0.165504 0.129415 0.709 255 255 255
0.305398 -0.12371 0.662 255 255 255
0.0938996 0.0665503 0.755 255 255 255
-0.0741564 0.203645 0.619 255 255 255
0.137129 0.207817 0.651 255 255 255
0.0687761 -0.164872 0.646 255 255 255
-0.375743 -0.193473 1.145 255 255 255
-0.044733 -0.10988 0.712 255 255 255
-0.0686188 0.0294705 0.817 255 255 255
-0.173097 0.0985478 0.65 255 255 255
0.305448 0.194319 0.674 255 255 255
-0.188624 0.179039 0.621 255 255 255
0.0651563 -0.217942 0.612 255 255 255
0.296702 0.243919 0.632 255 255 255
0.209545 -0.196474 0.636 255 255 255
0.230822 0.170118 0.687 255 255 255
0.247405 -0.201857 0.627 255 255 255
-0.559967 -0.264447 1.122 255 255 255
0.179469 -0.203247 0.625 255 255 255
0.328114 -0.0434153 0.687 255 255 255
-0.125381 -0.309123 0.98 255 255 255
-0.130831 0.0805183 0.625 255 255 255
0.169024 0.156265 0.695 255 255 255
-0.127983 0.155013 0.626 255 255 255
-0.193307 0.0810839 0.592 255 255 255
-0.254212 -0.289976 1.037 255 255 255
-0.200971 -0.222088 0.983 255 255 255
-0.106173 0.173601 0.642 255 255 255
0.354607 0.142742 0.718 0 0 0
0.314804 0.0277841 0.737 255 255 255
0.113235 0.170987 0.686 255 255 255
0.294701 0.121381 0.723 255 255 255
0.296847 -0.118131 0.667 255 255 255
0.00146696 -0.232805 0.642 255 255 255
-0.145369 0.207637 0.593 255 255 255
0.145095 0.0334686 0.786 255 255 255
0.169716 0.0565951 0.77 255 255 255
0.265852 0.019494 0.741 255 255 255
-0.14461 -0.0230129 0.713 255 255 255
-0.391406 -0.271095 1.09 255 255 255
0.248715 0.171236 0.687 255 255 255
0.231771 -0.0476542 0.7 255 255 255
0.334733 -0.0562519 0.68 255 255 255
0.317489 0.178606 0.681 255 255 255
-0.694839 0.0507167 1.406 255 255 255
0.0504592 0.222345 0.615 255 255 255
0.146239 -0.0377134 0.728 255 255 255
0.296862 -0.086383 0.682 255 255 255
0.0408354 -0.00590756 0.751 255 255 255
0.0239136 0.110332 0.72 255 255 255
-0.248852 -0.26969 1.05 255 255 255
-0.527454 -0.138644 1.22 255 255 255
0.0467015 0.185193 0.661 255 255 255
0.0848206 0.16999 0.682 255 255 255
0.110476 0.143395 0.704 255 255 255
-0.184305 -0.000890155 0.656 255 255 255
-0.237114 -0.264816 1.051 255 255 255
-0.487476 -0.363237 1.02 255 255 255
0.0518284 0.00896784 0.769 255 255 255
0.262345 -0.186125 0.636 255 255 255
-0.0516267 0.100254 0.603 255 255 255
-0.0139224 -0.16998 0.679 255 255 255
0.254965 -0.138812 0.657 255 255 255
-0.47582 -0.122761 1.22 255 255 255
-0.273011 0.0992936 0.7 255 255 255
0.163561 0.205896 0.655 255 255 255
0.214589 -0.235869 0.612 255 255 255
0.159296 -0.152247 0.655 255 255 255
-0.602457 -0.0974016 1.278 255 255 255
0.349817 0.14987 0.713 255 255 255
0.266625 -0.192265 0.629 255 255 255
-0.597616 -0.0788687 1.281 255 255 255
0.116041 0.121509 0.71 255 255 255
0.301978 -0.150027 0.65 255 255 255
0.105062 -0.121257 0.691 255 255 255
-0.107477 0.0953699 0.597 255 255 255
-0.151508 0.0324977 0.662 255 255 255
-0.12274 0.0617641 0.688 255 255 255
-0.633255 -0.105307 1.273 255 255 255
-0.199422 0.19893 0.62 255 255 255
0.038446 -0.223014 0.615 255 255 255
0.0833264 0.135953 0.707 255 255 255
0.223936 0.0919689 0.742 255 255 255
0.306069 0.03401 0.742 255 255 255
0.124534 -0.0641583 0.719 255 255 255
-0.6471 0.00256951 1.354 255 255 255
0.330584 -0.13902 0.648 255 255 255
0.241429 0.213264 0.658 255 255 255
0.185505 -0.0245461 0.724 255 255 255
-0.592554 -0.255479 1.139 255 255 255
-0.506814 -0.286332 1.094 255 255 255
-0.17351 0.0871104 0.636 255 255 255
0.0796599 0.197673 0.649 255 255 255
0.195113 -0.171182 0.65 255 255 255
0.332383 -0.0753863 0.673 255 255 255
0.308166 0.213244 0.668 255 255 255
-0.650628 -0.122657 1.239 255 255 255
-0.143639 0.101095 0.646 255 255 255
-0.704406 -0.0040407 1.354 255 255 255
-0.568496 -0.0316228 1.31 255 255 255
-0.175357 0.186922 0.617 255 255 255
-0.0194775 -0.16359 0.68 0 0 0
-0.170715 0.0243158 0.645 255 255 255
-0.0750642 -0.0765749 0.761 255 255 255
-0.133325 0.17604 0.632 255 255 255
-0.029541 -0.114032 0.709 255 255 255
0.00778547 0.191503 0.646 255 255 255
0.062535 -0.17888 0.636 255 255 255
0.245651 0.238124 0.633 255 255 255
-0.4151 -0.277424 1.087 255 255 255
0.214939 -0.233262 0.613 255 255 255
-0.153046 0.0336765 0.664 255 255 255
0.12952 0.187181 0.672 255 255 255
-0.0297082 -0.0287788 0.742 255 255 255
-0.201569 -0.256752 1.053 255 255 255
0.0638209 -0.140971 0.683 255 255 255
-0.034277 0.182042 0.646 255 255 255
0.0218449 0.230208 0.599 255 255 255
-0.744551 0.17463 1.487 255 255 255
-0.111352 0.126825 0.654 255 255 255
-0.155231 0.115898 0.569 255 255 255
-0.244583 -0.394 1.018 255 255 255
-0.158091 0.152734 0.601 255 255 255
0.184763 0.193222 0.674 255 255 255
0.127927 0.155815 0.693 255 255 255
0.270125 0.240071 0.63 255 255 255
-0.0857294 0.131398 0.63 255 255 255
0.292363 -0.232348 0.608 255 255 255
-0.0538648 -0.0517209 0.742 255 255 255
-0.10995 0.163573 0.652 255 255 255
-0.603367 -0.240894 1.149 255 255 255
0.284729 0.159199 0.693 255 255 255
0.00281329 -0.0910694 0.719 0 0 0
-0.310114 -0.373801 0.974 255 255 255
0.285276 -0.169855 0.641 255 255 255
-0.149447 -0.0478584 0.703 255 255 255
-0.107088 0.194823 0.623 255 255 255
0.124652 -0.146795 0.636 255 255 255
0.0803997 0.0242967 0.779 255 255 255
-0.252651 0.0769571 0.737 255 255 255
0.114357 0.225961 0.625 255 255 255
-0.298043 0.202838 0.582 255 255 255
0.0259294 0.134408 0.711 255 255 255
0.15243 0.0994739 0.735 255 255 255
0.280393 0.0146112 0.738 255 255 255
0.143881 0.210022 0.648 255 255 255
-0.629828 -0.185896 1.192 255 255 255
0.301574 0.1077 0.734 255 255 255
0.281335 -0.216946 0.612 255 255 255
0.221627 -0.186545 0.641 255 255 255
0.157505 -0.153671 0.652 255 255 255
-0.530636 -0.0979055 1.232 255 255 255
0.0250856 0.110332 0.72 255 255 255
0.0401538 0.113373 0.717 255 255 255
0.302393 -0.0601849 0.687 255 255 255
-0.145227 -0.379911 1.007 255 255 255
0.260277 -0.0792089 0.697 255 255 255
0.138345 0.0384868 0.784 255 255 255
-0.0104035 0.169253 0.666 255 255 255
0.0206919 0.211044 0.623 255 255 255
-0.159512 0.198004 0.614 255 255 255
0.0197121 0.182211 0.658 255 255 255
-0.175419 0.0242404 0.643 255 255 255
0.0116853 -0.139048 0.69 255 255 255
0.305991 0.213244 0.668 255 255 255
0.143757 0.197323 0.662 255 255 255
-0.0473841 0.0917903 0.599 255 255 255
-0.472133 -0.302721 1.064 255 255 255
0.226074 -0.0453759 0.7 255 255 255
0.205256 0.115498 0.723 255 255 255
-0.346891 -0.136019 1.18 255 255 255
-0.0452064 0.0816317 0.596 255 255 255
0.0788343 0.132689 0.708 255 255 255
-0.430501 -0.184999 1.162 255 255 255
-0.266385 0.213871 0.571 255 255 255
0.0512856 0.0775836 0.743 255 255 255
-0.00382855 0.182168 0.654 255 255 255
0.0060166 0.157131 0.684 255 255 255
-0.179287 0.213989 0.584 255 255 255
0.324759 0.16341 0.687 255 255 255
0.185574 0.234097 0.625 255 255 255
-0.165849 0.17947 0.619 255 255 255
-0.110643 0.220239 0.588 255 255 255
0.114637 -0.198712 0.605 255 255 255
-0.565646 -0.12417 1.234 255 255 255
0.0828729 -0.0821875 0.713 255 255 255
-0.489327 -0.298209 1.079 255 255 255
0.298437 -0.194714 0.627 255 255 255
0.332274 0.162113 0.691 255 255 255
0.248103 0.239532 0.634 255 255 255
-0.187915 0.176291 0.622 255 255 255
-0.734465 0.0528916 1.403 255 255 255
0.248079 -0.225381 0.616 255 255 255
-0.636975 -0.17338 1.213 255 255 255
-0.446267 -0.308401 1.048 255 255 255
-0.25665 0.185476 0.587 255 255 255
0.0758027 -0.0855482 0.712 255 255 255
0.0315755 0.200552 0.638 255 255 255
-0.266268 0.177561 0.609 255 255 255
-0.0396398 0.210336 0.615 255 255 255
0.0580706 -0.116137 0.694 255 255 255
0.330563 -0.0735222 0.676 255 255 255
-0.0635329 0.0708439 0.595 255 255 255
-0.0313898 0.0703824 0.784 255 255 255
-0.0521602 -0.0667821 0.735 255 255 255
-0.128068 -0.0250492 0.705 255 255 255
-0.0267854 -0.179452 0.669 255 255 255
0.390249 0.0754097 0.84 255 255 255
0.0909446 -0.199965 0.618 255 255 255
0.180637 0.142452 0.705 255 255 255
0.157305 0.114859 0.719 255 255 255
-0.0815784 -0.136554 0.764 255 255 255
0.276708 0.0243174 0.741 0 0 0
-0.102669 -0.04858 0.857 255 255 255
0.188531 0.218525 0.642 255 255 255
0.0100819 -0.0249869 0.737 255 255 255
0.00135956 0.230607 0.595 255 255 255
0.0122612 0.00412705 0.801 255 255 255
0.0290975 0.167642 0.677 255 255 255
-0.147889 0.18295 0.624 255 255 255
-0.380996 -0.331725 1.015 255 255 255
0.212358 -0.206595 0.629 255 255 255
0.349129 0.0204205 0.731 255 255 255
0.3141 0.0411993 0.741 255 255 255
-0.131636 -0.0546009 0.864 0 0 0
0.253726 -0.215746 0.62 255 255 255
-0.536202 -0.303399 1.085 255 255 255
-0.420613 -0.356969 1.007 255 255 255
-0.129768 -0.311356 0.977 255 255 255
-0.55773 -0.212383 1.167 255 255 255
0.030872 0.196455 0.645 255 255 255
-0.0249161 0.223984 0.598 255 255 255
0.137331 -0.184682 0.614 255 255 255
0.404934 0.0891867 0.804 255 255 255
0.325568 -0.0510173 0.684 255 255 255
0.240836 -0.223096 0.618 255 255 255
-0.0420314 0.131912 0.669 255 255 255
-0.652504 -0.0360508 1.316 255 255 255
0.329701 -0.0938649 0.672 255 255 255
-0.0568767 -0.0922395 0.719 255 255 255
0.173888 0.182465 0.683 255 255 255
-0.28205 0.142902 0.631 255 255 255
0.330848 0.0410325 0.738 255 255 255
0.133714 0.0479481 0.772 255 255 255
-0.0285251 0.193409 0.635 255 255 255
-0.000594998 0.21863 0.613 255 255 255
-0.176562 -0.279851 1.037 255 255 255
0.187022 0.216062 0.644 255 255 255
-0.150453 0.193498 0.622 255 255 255
-0.209647 0.214807 0.576 255 255 255
0.273259 -0.213658 0.614 255 255 255
0.135964 -0.102817 0.688 255 255 255
0.281461 0.185269 0.677 255 255 255
0.0740704 0.0126725 0.766 255 255 255
-0.516619 -0.212997 1.16 255 255 255
-0.0346392 -0.0898994 0.719 255 255 255
-0.00079786 0.0443652 0.822 255 255 255
-0.269436 0.187056 0.592 255 255 255
-0.375978 -0.360617 0.96 255 255 255
-0.492376 -0.0648588 1.252 255 255 255
-0.160062 0.181778 0.62 255 255 255
0.117852 0.0735305 0.751 255 255 255
0.067392 0.210311 0.633 255 255 255
0.253106 0.148562 0.696 255 255 255
0.20601 -0.16403 0.651 255 255 255
0.302393 -0.0579489 0.687 255 255 255
0.232771 -0.0356255 0.71 255 255 255
0.242159 -0.214092 0.624 255 255 255
0.0508855 -0.101772 0.704 0 0 0
0.0784499 0.116547 0.715 255 255 255
-0.574756 -0.131988 1.232 255 255 255
0.307853 -0.0306546 0.702 255 255 255
0.0820627 -0.193694 0.627 255 255 255
-0.0461791 0.0455916 0.82 255 255 255
0.1263 -0.187142 0.609 255 255 255
0.0753275 0.0293675 0.779 255 255 255
0.00166118 0.109039 0.727 255 255 255
0.0144899 -0.238181 0.618 255 255 255
-0.106686 -0.080165 0.784 255 255 255
-0.71036 0.246582 1.528 255 255 255
-0.514734 -0.323702 1.059 255 255 255
-0.233034 0.209419 0.569 255 255 255
-0.609152 -0.192031 1.182 255 255 255
-0.188445 0.0548529 0.634 255 255 255
-0.520604 0.0719742 1.375 255 255 255
-0.0348033 0.207339 0.618 255 255 255
0.00545515 0.0732712 0.761 255 255 255
-0.617635 0.147296 1.456 255 255 255
-0.110456 0.146205 0.655 255 255 255
0.260626 -0.123373 0.666 255 255 255
-0.13598 0.178558 0.63 255 255 255
0.0762051 -0.105358 0.705 0 0 0
0.132989 0.163001 0.69 255 255 255
0.268626 0.0255577 0.742 255 255 255
-0.139083 -0.381043 1.01 255 255 255
-0.120769 -0.0247295 0.696 255 255 255
-0.486557 -0.227408 1.147 255 255 255
0.253421 0.139163 0.7 255 255 255
0.199581 0.153752 0.699 255 255 255
0.0125659 -0.0384387 0.742 0 0 0
-0.166001 0.116305 0.571 255 255 255
0.251715 0.198262 0.68 255 255 255
-0.00377586 -0.210801 0.645 255 255 255
-0.133048 -0.0609889 0.855 255 255 255
0.2194 0.0908838 0.743 255 255 255
0.182932 -0.0732345 0.705 255 255 255
-0.384226 -0.357463 0.977 255 255 255
0.0995721 -0.169476 0.628 255 255 255
-0.0436832 0.198037 0.63 255 255 255
-0.280654 -0.346557 0.96 255 255 255
0.0580696 -0.039379 0.737 0 0 0
-0.0597536 0.00570851 0.842 255 255 255
0.0296133 -0.14221 0.689 255 255 255
-0.130242 -0.283007 1.018 255 255 255
-0.186588 -0.157544 0.858 255 255 255
0.0603718 -0.218654 0.614 255 255 255
0.292455 -0.1532 0.65 255 255 255
0.199815 -0.0461538 0.712 255 255 255
0.00636845 -0.0716736 0.724 255 255 255
0.269373 -0.0328455 0.7 255 255 255
0.300351 -0.169075 0.642 255 255 255
0.0890655 0.234208 0.612 255 255 255
0.157442 -0.125595 0.684 255 255 255
-0.416806 -0.326571 1.03 255 255 255
0.167595 -0.0433372 0.723 255 255 255
-0.468151 -0.369133 1 255 255 255
0.279045 0.24505 0.627 255 255 255
0.209293 -0.230645 0.614 255 255 255
0.30355 0.0133193 0.733 255 255 255
0.104189 -0.0931326 0.708 255 255 255
-0.290511 0.198783 0.584 255 255 255
0.267855 0.136715 0.705 255 255 255
0.211983 0.0258677 0.751 255 255 255
-0.025487 0.118177 0.725 255 255 255
0.247479 -0.14202 0.657 255 255 255
0.19436 -0.184274 0.644 255 255 255
0.0581716 0.135184 0.709 255 255 255
-0.501295 0.0111309 1.324 255 255 255
0.272402 0.145789 0.699 255 255 255
0.195665 0.222355 0.638 255 255 255
-0.279196 -0.263885 1.068 255 255 255
0.222944 0.03092 0.755 255 255 255
-0.181423 -0.167708 0.86 255 255 255
0.111523 0.213065 0.632 255 255 255
-0.122309 0.155667 0.65 255 255 255
0.283328 -0.182897 0.632 255 255 255
-0.133759 0.142171 0.606 255 255 255
-0.22461 0.132633 0.646 0 0 0
0.172463 -0.0058525 0.744 0 0 0
-0.178169 0.114577 0.657 255 255 255
0.0196043 0.153338 0.692 255 255 255
0.140746 -0.141165 0.658 255 255 255
-0.139001 -0.0149118 0.714 255 255 255
-0.575874 -0.0104385 1.327 255 255 255
-0.109104 -0.124486 0.774 255 255 255
0.288472 -0.181869 0.632 255 255 255
-0.0849441 0.074922 0.589 255 255 255
-0.117487 -0.154604 0.755 255 255 255
-0.137511 0.0465231 0.678 0 0 0
0.213499 0.213186 0.648 255 255 255
0.245248 0.0420444 0.779 255 255 255
0.152492 0.153312 0.697 255 255 255
-0.0596618 0.043201 0.615 255 255 255
0.0387148 0.131121 0.712 255 255 255
0.0620434 -0.189796 0.631 255 255 255
0.0457254 0.0649756 0.751 255 255 255
-0.115736 0.0249976 0.693 255 255 255
-0.537529 0.058932 1.384 255 255 255
-0.450354 -0.136939 1.205 255 255 255
-0.0337257 0.0737366 0.779 255 255 255
-0.203459 0.203974 0.62 255 255 255
-0.151628 -0.157239 0.82 255 255 255
0.292842 0.219688 0.658 255 255 255
0.237923 0.0866264 0.748 255 255 255
0.0393323 0.198862 0.646 255 255 255
-0.118363 -0.303607 0.988 255 255 255
-0.108983 -0.170569 0.739 255 255 255
0.24286 0.197156 0.68 255 255 255
0.32711 0.0205322 0.735 255 255 255
-0.66017 0.0159998 1.372 255 255 255
0.277047 0.122558 0.723 255 255 255
-0.161973 -0.136523 0.832 255 255 255
0.062535 0.206133 0.636 255 255 255
-0.181003 0.0476281 0.648 255 255 255
-0.0667409 0.164326 0.655 255 255 255
0.278468 -0.190937 0.628 255 255 255
0.213375 -0.21679 0.623 255 255 255
0.210355 -0.0667322 0.697 255 255 255
0.0979244 0.0843815 0.739 255 255 255
0.177545 -0.0657585 0.711 0 0 0
-0.180274 0.108566 0.653 255 255 255
-0.411501 -0.289566 1.073 255 255 255
0.0189585 -0.102639 0.71 255 255 255
-0.289533 0.222382 0.569 255 255 255
-0.502333 -0.287586 1.092 255 255 255
0.206828 -0.11677 0.678 255 255 255
0.297737 0.209208 0.669 255 255 255
0.109986 -0.19404 0.612 255 255 255
0.260258 -0.196441 0.626 255 255 255
0.143636 -0.0202443 0.739 255 255 255
0.308631 -0.126941 0.662 255 255 255
-0.195583 0.0748425 0.596 255 255 255
-0.345066 -0.213703 1.124 255 255 255
0.263364 -0.189796 0.631 255 255 255
-0.059914 0.0795791 0.588 255 255 255
-0.160961 0.0107203 0.648 255 255 255
0.0127 -0.234232 0.629 255 255 255
0.269324 -0.078868 0.694 255 255 255
0.119107 0.0656678 0.759 255 255 255
0.26016 0.224092 0.646 255 255 255
-0.0628632 0.152025 0.648 255 255 255
-0.61954 0.0408255 1.381 255 255 255
0.31173 -0.208323 0.613 255 255 255
-0.135407 -0.062787 0.759 255 255 255
0.2277 -0.0554692 0.698 255 255 255
-0.533224 -0.249918 1.139 255 255 255
0.311844 0.0814016 0.756 255 255 255
0.15537 0.188017 0.675 255 255 255
-0.586917 -0.214021 1.176 255 255 255
-0.0505159 -0.181898 0.666 255 255 255
-0.608281 0.0157549 1.351 255 255 255
-0.12179 0.21463 0.591 255 255 255
-0.0460407 0.166584 0.664 255 255 255
-0.151342 0.00972546 0.652 255 255 255
0.0751649 0.00387458 0.752 255 255 255
-0.103818 0.183819 0.634 255 255 255
-0.640318 -0.0977826 1.283 255 255 255
-0.0140317 -0.245379 0.634 0 0 0
0.142385 -0.142796 0.646 255 255 255
-0.362258 -0.141779 1.18 255 255 255
0.0105168 0.214409 0.621 255 255 255
-0.131941 -0.0490902 0.866 255 255 255
0.271475 0.170366 0.688 255 255 255
-0.508826 -0.260748 1.114 255 255 255
-0.0465717 0.106079 0.614 255 255 255
-0.0312204 0.140431 0.695 255 255 255
0.384865 0.10667 0.752 255 255 255
0.0208276 0.044637 0.78 255 255 255
-0.00365878 0.20867 0.625 255 255 255
0.10747 -0.2295 0.598 255 255 255
0.12528 -0.138391 0.65 0 0 0
-0.0483459 0.201228 0.624 255 255 255
-0.0972603 0.0948353 0.606 255 255 255
-0.0482442 -0.218781 0.65 255 255 255
-0.143303 -0.375885 1.005 255 255 255
0.331779 -0.0820792 0.674 255 255 255
-0.0505327 0.0678307 0.784 255 255 255
0.331001 0.211069 0.668 255 255 255
0.207325 -0.0480627 0.706 255 255 255
0.0630911 0.00388489 0.754 255 255 255
-0.369665 -0.159208 1.167 255 255 255
0.202519 -0.168009 0.65 255 255 255
0.0722662 -0.0633387 0.723 255 255 255
0.165135 -0.228626 0.606 255 255 255
-0.01899 -0.0180564 0.748 255 255 255
0.205012 -0.195016 0.638 255 255 255
0.0149239 0.159357 0.684 255 255 255
0.0681179 0.187061 0.66 255 255 255
-0.623997 0.0548995 1.396 255 255 255
0.18867 0.13901 0.705 255 255 255
0.284483 0.111865 0.73 255 255 255
-0.410687 -0.315013 1.053 255 255 255
-0.110393 0.0943984 0.597 255 255 255
-0.71086 0.0530047 1.406 255 255 255
-0.135436 0.0117566 0.647 255 255 255
0.254545 -0.209357 0.622 255 255 255
-0.386687 -0.287552 1.072 255 255 255
-0.107827 0.162512 0.652 255 255 255
0.245515 -0.183595 0.638 255 255 255
-0.216218 -0.243662 1.041 255 255 255
-0.32073 -0.245132 1.085 255 255 255
0.261266 -0.221652 0.614 255 255 255
0.312494 0.196804 0.675 255 255 255
-0.0410036 0.145192 0.67 255 255 255
-0.487735 -0.130703 1.22 255 255 255
-0.127957 0.178189 0.636 255 255 255
-0.25985 0.0618807 0.758 255 255 255
0.11453 -0.181981 0.615 255 255 255
0.10168 0.232731 0.616 255 255 255
0.135685 0.0726935 0.755 255 255 255
-0.530307 -0.132905 1.222 255 255 255
-0.75791 0.1714 1.48 255 255 255
0.0742244 -0.0977412 0.708 0 0 0
0.16596 -0.108258 0.687 255 255 255
0.185907 0.126486 0.712 255 255 255
-0.0898903 0.223868 0.59 255 255 255
0.0865914 -0.226412 0.595 255 255 255
0.0241793 0.0961572 0.728 255 255 255
-0.489338 -0.317108 1.06 255 255 255
0.0447146 0.22956 0.605 255 255 255
0.339257 0.0242189 0.738 255 255 255
0.107522 -0.192989 0.615 255 255 255
-0.357714 -0.194654 1.141 255 255 255
0.0646765 0.0764773 0.744 255 255 255
0.301268 -0.218223 0.61 255 255 255
0.0287605 -0.0646045 0.724 255 255 255
0.302966 0.146183 0.712 255 255 255
-0.212778 -0.340157 0.964 255 255 255
0.145344 0.170861 0.69 255 255 255
0.0970474 0.165247 0.69 255 255 255
0.0570175 0.13403 0.709 255 255 255
0.0742691 -0.150694 0.667 255 255 255
0.0982198 -0.151206 0.646 255 255 255
0.095219 0.177557 0.677 255 255 255
-0.441143 -0.0507989 1.257 255 255 255
-0.381153 -0.136595 1.185 255 255 255
0.277304 0.207497 0.667 255 255 255
0.295248 -0.214658 0.614 255 255 255
0.282373 -0.0772906 0.69 255 255 255
-0.0178983 -0.113389 0.705 255 255 255
-0.399597 -0.137632 1.194 255 255 255
-0.0782143 0.0269099 0.82 255 255 255
-0.140094 0.0280608 0.659 255 255 255
0.0925547 -0.125573 0.69 255 255 255
-0.422105 -0.265453 1.096 255 255 255
0.322002 0.0325815 0.737 255 255 255
-0.722427 0.0298459 1.393 255 255 255
0.109511 0.0621256 0.761 0 0 0
-0.117031 0.158171 0.656 255 255 255
0.265859 -0.114472 0.671 255 255 255
0.336563 0.107376 0.74 255 255 255
-0.0663528 -0.0161858 0.775 255 255 255
-0.36675 -0.109123 1.201 255 255 255
-0.491932 -0.160005 1.187 255 255 255
-0.591128 -0.227705 1.158 255 255 255
-0.612843 -0.200966 1.178 255 255 255
-0.405849 -0.124758 1.201 255 255 255
0.344379 -0.013384 0.695 255 255 255
0.327248 -0.111619 0.667 255 255 255
0.147245 0.0915971 0.739 255 255 255
-0.669449 0.2815 1.299 255 255 255
-0.178048 -0.174112 0.864 0 0 0
0.246277 0.00139102 0.733 255 255 255
-0.27329 -0.249044 1.079 255 255 255
0.330502 -0.13139 0.652 255 255 255
-0.280422 0.187318 0.599 255 255 255
-0.0581224 0.154496 0.654 255 255 255
-0.566675 0.0180996 1.362 255 255 255
-0.102529 0.226681 0.58 255 255 255
0.151757 -0.180582 0.624 255 255 255
-0.0882469 0.0485062 0.802 255 255 255
-0.0463241 -0.123012 0.701 255 255 255
0.299473 0.170366 0.688 255 255 255
-0.543136 -0.274263 1.11 255 255 255
-0.109867 -0.16468 0.745 255 255 255
0.318597 -0.0773906 0.681 255 255 255
-0.125743 0.216043 0.587 255 255 255
0.259138 -0.229757 0.609 255 255 255
0.0630389 -0.0322703 0.739 255 255 255
0.0391497 0.201077 0.643 255 255 255
-0.0605498 -0.0364121 0.75 255 255 255
-0.272931 0.177086 0.604 255 255 255
-0.413354 -0.242677 1.106 255 255 255
-0.00792614 -0.235571 0.641 255 255 255
0.233038 -0.226384 0.616 255 255 255
0.3777 0.0434344 0.738 255 255 255
0.15468 0.133652 0.707 255 255 255
-0.197458 0.208246 0.576 255 255 255
-0.146003 0.0667034 0.629 255 255 255
-0.304083 -0.133252 1.156 255 255 255
0.0696789 -0.224433 0.608 255 255 255
0.0919615 -0.116137 0.694 255 255 255
-0.192996 0.0749681 0.597 255 255 255
-0.147027 0.067727 0.629 255 255 255
-0.0658802 0.225789 0.59 255 255 255
0.0352378 -0.0925001 0.712 0 0 0
0.0693534 0.0452589 0.769 255 255 255
0.191242 -0.149384 0.666 255 255 255
0.0389867 -0.080315 0.717 0 0 0
0.239405 0.141239 0.699 255 255 255
-0.553683 0.000361235 1.336 255 255 255
0.316185 0.00723477 0.721 255 255 255
0.139861 -0.225444 0.595 255 255 255
0.0890807 -0.0964526 0.707 255 255 255
-0.0438088 -0.221983 0.647 255 255 255
-0.126847 0.0400209 0.68 255 255 255
0.0856088 -0.0168166 0.747 255 255 255
-0.247455 -0.332025 0.977 255 255 255
0.367707 0.0987557 0.757 255 255 255
0.0278799 0.210705 0.625 255 255 255
-0.0225844 -0.110415 0.708 0 0 0
-0.295474 0.179432 0.612 255 255 255
0.210329 -0.222809 0.62 255 255 255
0.125965 -0.200306 0.598 255 255 255
-0.744375 0.234544 1.547 255 255 255
0.0262576 0.110332 0.72 255 255 255
-0.289542 0.16697 0.625 255 255 255
0.255509 0.122388 0.722 255 255 255
-0.130804 -0.0674196 0.815 0 0 0
-0.179332 0.113377 0.575 255 255 255
0.0462596 0.203264 0.64 255 255 255
0.0829569 -0.156373 0.65 255 255 255
0.0363223 0.175197 0.668 255 255 255
-0.415218 -0.110577 1.217 255 255 255
0.140706 -0.188503 0.607 255 255 255
0.0951433 0.0537378 0.765 255 255 255
-0.347513 -0.212251 1.126 255 255 255
0.179181 0.237125 0.617 255 255 255
0.157954 0.0319438 0.78 255 255 255
0.269354 0.148775 0.697 255 255 255
-0.107695 0.0354108 0.801 255 255 255
0.104811 0.0416666 0.772 255 255 255
-0.458703 -0.30417 1.057 255 255 255
0.0411059 -0.045191 0.734 255 255 255
0.196369 0.190516 0.68 255 255 255
0.16399 -0.183926 0.632 255 255 255
0.214223 -0.173551 0.647 255 255 255
0.118155 -0.209246 0.593 255 255 255
0.200124 -0.0877762 0.693 255 255 255
0.0488232 0.0167334 0.781 255 255 255
0.00540966 0.219343 0.615 255 255 255
-0.54164 -0.324677 1.051 255 255 255
0.398031 0.0769595 0.842 255 255 255
0.117488 -0.100904 0.698 255 255 255
0.0186037 0.21542 0.621 255 255 255
0.0349904 -0.101055 0.707 0 0 0
0.0710166 -0.15485 0.657 255 255 255
-0.194164 0.0959796 0.583 255 255 255
0.090356 -0.21166 0.614 255 255 255
-0.186087 0.0547664 0.633 255 255 255
-0.188545 -0.0316724 0.675 255 255 255
0.174713 -0.169865 0.645 255 255 255
-0.29795 0.190578 0.597 255 255 255
0.313833 0.0879611 0.749 255 255 255
-0.630475 0.166999 1.442 255 255 255
0.227774 0.236719 0.632 255 255 255
0.163849 -0.20433 0.616 255 255 255
-0.10207 -0.0274993 0.852 0 0 0
0.125399 -0.004648 0.745 0 0 0
-0.204794 -0.359152 0.986 255 255 255
0.0207615 0.0150456 0.828 255 255 255
-0.258299 0.175593 0.616 255 255 255
0.218035 0.161643 0.689 255 255 255
0.248989 -0.0675743 0.694 255 255 255
-0.191959 0.214161 0.606 255 255 255
-0.401794 -0.142861 1.189 255 255 255
0.00291111 -0.0349101 0.744 0 0 0
-0.134591 0.0149383 0.648 255 255 255
0.0759092 -0.0821875 0.713 0 0 0
-0.434314 -0.124235 1.215 255 255 255
0.0586639 0.117711 0.715 255 255 255
0.210335 -0.168546 0.648 255 255 255
-0.334686 -0.240483 1.096 255 255 255
-0.209756 -0.134222 0.879 255 255 255
-0.445299 -0.208773 1.137 255 255 255
-0.224239 0.158524 0.636 255 255 255
0.209215 -0.135701 0.668 255 255 255
0.166135 -0.140733 0.661 255 255 255
-0.0427926 0.218007 0.603 255 255 255
0.245954 -0.0868986 0.695 255 255 255
0.0600428 0.170096 0.678 255 255 255
0.178342 -0.0732345 0.705 255 255 255
-0.0366617 0.178154 0.651 255 255 255
-0.43264 -0.366251 0.975 0 0 0
-0.164102 0.11489 0.665 255 255 255
-0.734915 0.249003 1.543 255 255 255
0.186318 -0.0932801 0.692 255 255 255
0.10765 -0.22306 0.599 255 255 255
0.199648 0.11448 0.724 255 255 255
-0.00707599 0.177126 0.659 255 255 255
-0.487623 -0.144783 1.205 255 255 255
0.114886 -0.105146 0.696 255 255 255
-0.00062897 -0.201236 0.648 255 255 255
0.149252 -0.0130993 0.743 255 255 255
-0.264288 -0.353908 0.963 255 255 255
0.22923 0.123874 0.717 255 255 255
0.255255 -0.140522 0.655 255 255 255
-0.55194 0.0316979 1.375 255 255 255
-0.136485 -0.0172115 0.713 255 255 255
-0.0106847 0.157131 0.684 255 255 255
0.337473 0.104044 0.742 255 255 255
0.191681 0.169 0.687 255 255 255
0.293989 0.110677 0.73 255 255 255
-0.251866 0.180718 0.603 255 255 255
0.178759 0.000201437 0.745 255 255 255
-0.129994 -0.0673066 0.703 255 255 255
0.224265 0.0561327 0.781 255 255 255
-0.0864863 0.220182 0.593 255 255 255
0.0984973 0.187628 0.662 255 255 255
0.294737 0.246222 0.63 255 255 255
0.120944 -0.186073 0.612 255 255 255
-0.170455 0.0138838 0.648 255 255 255
0.180253 0.130384 0.708 255 255 255
0.0413819 -0.219654 0.614 255 255 255
0.0801705 -0.0677626 0.72 255 255 255
-0.283174 0.209026 0.573 255 255 255
-0.626809 -0.101799 1.281 255 255 255
0.0650278 -0.138952 0.684 255 255 255
0.0129893 0.0626154 0.767 255 255 255
-0.112148 0.0942403 0.596 0 0 0
0.161722 0.177083 0.688 255 255 255
0.0398807 0.171032 0.673 255 255 255
-0.443411 -0.277424 1.087 255 255 255
-0.702032 0.130979 1.459 255 255 255
-0.14416 0.13985 0.592 255 255 255
0.324631 0.228645 0.653 255 255 255
0.401859 0.0873237 0.811 255 255 255
0.0983996 0.0441219 0.771 0 0 0
-0.0863142 -0.100425 0.773 255 255 255
-0.0234687 -0.122837 0.7 0 0 0
-0.228576 -0.251321 1.059 255 255 255
0.0834314 -0.0507451 0.728 255 255 255
-0.24532 0.13119 0.629 255 255 255
-0.480051 -0.324677 1.051 255 255 255
0.122256 -0.164628 0.629 255 255 255
-0.101373 0.0762238 0.607 255 255 255
-0.531425 -0.138644 1.22 255 255 255
0.212972 -0.125765 0.673 255 255 255
0.0719742 0.0954943 0.732 255 255 255
-0.525436 -0.199089 1.167 255 255 255
0.226069 -0.0877762 0.693 255 255 255
-0.480257 -0.313362 1.059 255 255 255
