ply
format ascii 1.0
comment Created by Open3D
element vertex 1296
property double x
property double y
property double z
property uchar red
property uchar green
property uchar blue
end_header
-0.497533 0.21566 1.034 255 255 255
-0.834034 -0.952943 2.593 255 255 255
0.174894 0.0977667 0.638 255 255 255
0.485 0.0474703 1.316 255 255 255
0.522774 -0.348814 1.062 255 255 255
-0.638529 -0.171905 1.393 255 255 255
0.123084 0.16164 0.628 255 255 255
0.137061 0.163326 0.604 0 0 0
-0.771067 -0.0132764 2.128 255 255 255
-0.637336 0.221201 1.491 0 0 0
0.528214 -0.357067 1.066 255 255 255
-0.338863 0.486811 1.502 255 255 255
-0.582989 0.148848 1.899 255 255 255
0.189122 0.226368 0.607 255 255 255
-0.636771 0.313687 1.734 255 255 255
-0.387512 0.551851 1.412 255 255 255
-0.684885 -0.362325 1.359 255 255 255
0.507229 -0.0887622 1.073 255 255 255
0.161619 0.315836 1.7 255 255 255
-0.730957 -0.386596 2.356 255 255 255
0.451008 -0.444009 1.182 255 255 255
-0.323921 -0.923444 2.469 255 255 255
0.209166 0.213011 0.638 255 255 255
-0.455054 0.342463 1.668 255 255 255
0.026285 -0.49275 2.181 255 255 255
-0.341215 0.519499 1.47 255 255 255
-0.0371019 -0.352957 2.151 255 255 255
-0.302792 0.473089 1.505 255 255 255
0.425988 -0.126284 1.319 255 255 255
0.210978 0.217695 0.616 255 255 255
-0.919864 -0.459939 2.44 255 255 255
-0.00200339 -0.268146 2.064 255 255 255
-0.019263 0.222362 1.794 255 255 255
-0.276297 0.430277 1.563 255 255 255
-0.289405 -0.760535 2.449 255 255 255
-0.705607 -0.35401 1.502 255 255 255
0.160291 0.206672 1.81 255 255 255
-1.02284 -0.933564 2.402 255 255 255
0.125908 0.157813 0.707 255 255 255
0.206031 -0.207542 2.244 255 255 255
0.195715 0.225995 0.606 255 255 255
0.270099 0.0690232 0.596 255 255 255
-0.91874 -0.32478 2.469 255 255 255
0.266465 -0.580819 1.734 255 255 255
-0.222023 0.501383 1.473 255 255 255
-0.53279 0.133193 1.237 255 255 255
0.247621 0.0426585 1.991 255 255 255
-0.0522886 0.22069 0.661 255 255 255
0.496259 -0.0557904 1.189 255 255 255
0.04841 0.202698 0.655 255 255 255
-0.157545 -0.357054 2.22 255 255 255
-0.160728 0.39955 1.603 255 255 255
-0.804426 -0.244585 2.392 255 255 255
0.0192549 -0.490995 2.189 255 255 255
0.118952 0.126648 0.612 255 255 255
-0.0486955 0.237331 0.642 255 255 255
-0.46722 0.338813 1.005 255 255 255
-0.870923 -0.691695 1.81 255 255 255
0.0370704 -0.659164 1.997 255 255 255
0.027496 -0.64383 2.01 255 255 255
-0.205762 0.368918 1.629 255 255 255
-0.742096 -0.332512 1.691 255 255 255
-0.482263 0.224211 1.075 255 255 255
0.419517 -0.309379 1.286 255 255 255
-0.440407 0.381 1.624 255 255 255
0.132069 0.128017 0.582 255 255 255
0.436874 -0.17699 1.313 255 255 255
0.0904085 0.185545 0.674 255 255 255
0.230157 0.186088 0.672 255 255 255
0.0564481 -0.174877 2.114 255 255 255
0.250014 -0.177938 2.151 255 255 255
0.460331 0.103545 1.509 255 255 255
-0.189582 -0.151468 2.173 255 255 255
-0.548 0.42245 1.591 255 255 255
0.263536 0.099432 0.61 255 255 255
0.474137 0.0633062 1.432 255 255 255
-0.309348 0.293935 1.734 255 255 255
-0.729695 -0.686476 2.707 255 255 255
-0.416378 0.259565 1.769 255 255 255
-0.809173 -0.353749 1.893 255 255 255
-0.717073 -0.87862 2.743 255 255 255
-0.213736 -0.4864 2.32 255 255 255
0.19049 -0.10093 2.151 255 255 255
0.439438 -0.291369 1.203 255 255 255
-0.791982 -0.0710093 1.911 255 255 255
0.209918 0.213739 0.634 255 255 255
-0.280205 0.200166 1.859 255 255 255
0.143421 -0.497898 2.236 255 255 255
-0.0359296 0.227546 0.638 255 255 255
0.391411 -0.272382 1.445 255 255 255
-0.714757 -0.711218 2.684 255 255 255
-0.688413 -0.361968 1.366 255 255 255
0.27371 -0.63551 1.642 255 255 255
0.108864 0.173585 0.701 255 255 255
0.222074 -0.463866 2.024 255 255 255
0.529916 -0.384019 1.059 255 255 255
0.0297296 0.212587 0.643 255 255 255
-0.521313 0.368918 1.629 255 255 255
-0.615853 0.278768 1.763 255 255 255
-0.777058 -0.480748 1.532 255 255 255
-0.690909 -0.387944 1.412 255 255 255
-0.954471 -0.818508 2.151 0 0 0
0.246561 -0.230932 2.092 255 255 255
0.407906 0.044723 1.7 255 255 255
0.263775 0.142259 0.642 255 255 255
-0.813309 -0.60121 1.696 255 255 255
-0.839554 -0.00926932 2.01 255 255 255
0.11507 0.225281 1.794 255 255 255
0.0932705 0.177944 0.687 0 0 0
-0.482956 0.402791 1.616 255 255 255
0.0718564 0.235867 0.627 255 255 255
-0.442481 0.540374 1.449 255 255 255
-0.384872 0.19952 1.853 255 255 255
-0.225582 -0.580504 2.365 255 255 255
0.184679 0.122008 0.599 255 255 255
0.253881 0.177006 1.87 255 255 255
-0.342246 0.266534 1.758 255 255 255
0.364371 -0.208233 1.583 255 255 255
0.516613 -0.0928617 1.06 255 255 255
-0.180125 0.365402 1.637 255 255 255
-0.714438 -0.309296 1.369 255 255 255
0.203172 0.242261 1.748 255 255 255
0.396387 -0.027365 1.71 255 255 255
-0.423909 -0.0405757 2.107 255 255 255
-0.499149 0.533691 1.463 255 255 255
-0.453146 0.109309 1.966 255 255 255
0.0688102 0.34435 1.664 255 255 255
-0.161284 -0.423755 2.173 255 255 255
0.414397 -0.152022 1.419 255 255 255
-0.473854 0.112107 1.959 255 255 255
0.47717 0.0263318 1.33 255 255 255
0.260481 0.127095 0.629 255 255 255
-0.404047 -0.108683 2.166 255 255 255
-0.271498 -0.654777 2.582 255 255 255
-0.943976 -0.978313 2.582 255 255 255
-0.294858 0.342463 1.668 255 255 255
0.12524 0.112494 0.59 255 255 255
0.452037 -0.218198 1.232 255 255 255
0.471925 -0.141755 1.196 255 255 255
0.179006 0.126631 0.653 255 255 255
-0.572819 0.131924 1.108 255 255 255
0.276373 -0.563664 1.691 255 255 255
0.308566 0.0460108 0.655 255 255 255
0.4252 -0.353901 1.196 255 255 255
-0.0561123 -0.605178 1.959 255 255 255
-0.257809 0.0952842 1.941 255 255 255
-0.742914 -0.638019 2.707 255 255 255
-1.01131 -0.948723 2.593 255 255 255
0.238661 0.173963 1.87 255 255 255
0.270849 -0.222307 2.044 255 255 255
-0.685149 -0.140294 2.22 255 255 255
0.345459 0.186519 1.905 255 255 255
-0.100805 -0.58244 2.024 255 255 255
0.380619 0.0271627 1.821 255 255 255
0.293019 0.199805 0.656 255 255 255
-0.552215 0.0604553 1.192 255 255 255
-0.757169 -0.810617 2.695 255 255 255
-0.618402 0.00397002 2.092 255 255 255
0.130613 0.145889 0.597 255 255 255
0.441844 -0.256708 1.215 255 255 255
0.370176 -0.31979 1.502 255 255 255
0.277198 0.0963284 0.603 255 255 255
0.419528 -0.268114 1.299 255 255 255
0.410958 -0.334489 1.319 255 255 255
-0.798197 -0.535036 1.705 255 255 255
0.153611 0.160081 0.592 255 255 255
-0.544101 -0.577991 2.54 255 255 255
-0.702086 -0.407478 1.416 255 255 255
0.423564 -0.275177 1.273 255 255 255
0.0368586 0.230949 0.622 255 255 255
0.279037 0.237233 0.607 255 255 255
0.143642 0.230913 0.633 255 255 255
-0.289538 -0.585832 2.593 255 255 255
-0.415519 0.0780627 1.985 255 255 255
-0.66022 -0.044443 2.128 255 255 255
0.216096 0.213714 0.637 255 255 255
-0.146944 0.400152 1.595 255 255 255
0.464009 -0.309652 1.07 255 255 255
-0.525671 -0.806341 2.818 255 255 255
-0.574237 -0.374096 2.374 255 255 255
0.497145 0.0042653 1.21 255 255 255
0.0950269 0.239183 0.625 255 255 255
-0.701565 -0.273987 1.547 255 255 255
-0.434461 -0.964002 2.707 255 255 255
0.246147 0.0974111 0.629 255 255 255
0.241109 0.14171 0.669 255 255 255
0.368615 -0.435701 1.403 255 255 255
0.387529 -0.403461 1.327 255 255 255
0.0773923 0.224783 0.639 255 255 255
-0.563449 0.524168 1.463 255 255 255
0.449827 -0.33327 1.108 255 255 255
-0.619406 -0.020003 2.107 255 255 255
0.460231 0.0388296 1.39 255 255 255
-0.527633 -0.971903 2.78 255 255 255
0.309425 -0.488525 1.633 255 255 255
0.14091 0.234945 0.63 255 255 255
0.150349 -0.341629 2.286 255 255 255
-0.447681 -1.01246 2.707 0 0 0
-0.726889 -0.48753 2.459 255 255 255
-0.518146 0.35858 1.203 255 255 255
-0.0552214 0.198315 0.684 255 255 255
-0.196561 -0.457687 2.253 255 255 255
0.470719 -0.252603 1.05 255 255 255
0.416909 -0.0620933 1.477 255 255 255
-0.55773 0.0629856 1.167 255 255 255
-0.31037 0.317489 1.724 255 255 255
0.180841 0.10176 0.637 255 255 255
-0.515902 0.161696 1.102 255 255 255
-0.552299 0.06367 1.297 0 0 0
-0.85311 -0.694187 1.848 255 255 255
0.267242 -0.0822641 2.121 255 255 255
0.294997 0.151086 0.644 255 255 255
-0.497016 -0.432603 2.356 255 255 255
-0.200942 0.131129 1.911 255 255 255
-0.691709 -0.865887 2.731 255 255 255
-0.409361 0.159118 1.911 255 255 255
0.0895691 -0.119257 2.166 255 255 255
0.0322616 0.136918 1.905 255 255 255
0.249981 -0.00280073 2.064 255 255 255
0.344057 -0.299222 1.659 255 255 255
-0.135616 0.134239 1.911 255 255 255
-0.445018 -0.326494 2.365 255 255 255
0.442593 0.109513 1.559 255 255 255
-0.566842 0.0861713 1.147 255 255 255
0.051845 0.198273 0.658 255 255 255
-0.479666 -0.241824 2.365 255 255 255
-0.46722 0.337178 1.005 255 255 255
0.00901487 0.202864 0.659 255 255 255
-0.41674 0.335201 1.7 255 255 255
-0.879515 -0.778985 2.707 255 255 255
-0.576891 0.50378 1.473 255 255 255
0.462267 -0.278309 1.07 255 255 255
0.426386 0.162545 1.633 255 255 255
0.434567 -0.203945 1.281 255 255 255
0.190055 -0.314832 2.228 255 255 255
-1.03355 -0.775532 2.695 255 255 255
0.256674 0.191216 0.667 255 255 255
-0.118546 0.367167 1.633 255 255 255
0.528519 0.00368719 1.046 255 255 255
-0.0366117 0.185458 0.69 255 255 255
0.535155 0.0297787 1.066 255 255 255
-0.2541 0.373863 1.616 255 255 255
0.0351398 0.16378 1.893 255 255 255
0.0195276 -0.375117 2.22 255 255 255
0.321449 -0.0729452 1.805 255 255 255
-0.647467 0.0471203 2.044 255 255 255
0.205654 0.212637 0.64 255 255 255
-0.0622986 -0.631928 1.953 255 255 255
0.27368 -0.535922 1.744 255 255 255
-0.652157 -0.170553 1.459 255 255 255
-0.050877 -0.592991 2.004 255 255 255
0.0754658 -0.108683 2.166 255 255 255
-0.591386 0.105084 1.947 255 255 255
0.303628 -0.430285 1.753 255 255 255
0.119839 0.131541 1.917 255 255 255
0.0529481 0.183901 0.672 255 255 255
0.0565301 0.166332 1.887 255 255 255
-0.358078 0.317489 1.724 255 255 255
-1.02052 -0.840657 2.707 255 255 255
0.233796 -0.142351 2.196 255 255 255
0.348805 -0.519001 1.406 255 255 255
-0.236983 0.552278 1.419 255 255 255
0.152283 0.240059 0.622 255 255 255
-0.585565 0.0569035 2.037 255 255 255
-0.516852 0.398757 1.262 255 255 255
-0.500029 0.174086 0.989 255 255 255
-0.571557 -0.170505 2.286 255 255 255
0.04235 0.0889669 1.941 255 255 255
0.430115 -0.301299 1.244 255 255 255
0.476249 -0.12642 1.217 255 255 255
-0.541886 0.00739907 2.099 255 255 255
-0.250073 0.279826 1.734 255 255 255
0.0336036 0.235498 0.618 255 255 255
-0.258073 -0.881663 2.278 255 255 255
0.317762 -0.41163 1.677 255 255 255
0.39021 -0.457963 1.286 255 255 255
0.285381 0.236421 0.61 255 255 255
-0.292951 -0.260625 2.261 255 255 255
-0.537208 -0.0373937 2.121 255 255 255
-0.710215 0.119063 1.917 255 255 255
0.173486 -0.678501 1.959 255 255 255
-0.0629047 0.061506 1.972 255 255 255
-0.576929 0.463575 1.498 255 255 255
-0.294601 0.451219 1.539 255 255 255
-0.911765 -0.626828 2.166 255 255 255
-0.139699 -0.140475 2.114 0 0 0
0.417885 -0.333191 1.281 255 255 255
0.505011 -0.163693 1.072 255 255 255
-0.876805 -0.895636 2.768 255 255 255
0.528526 -0.0924451 1.036 255 255 255
-0.282409 0.415174 1.583 255 255 255
-0.240661 -0.736384 2.22 255 255 255
-0.500851 -0.298414 2.356 255 255 255
0.478715 -0.0826639 1.244 255 255 255
0.0304782 -0.416352 2.228 255 255 255
0.303422 0.218888 0.631 255 255 255
0.432903 -0.255928 1.27 255 255 255
0.400783 -0.0341886 1.637 255 255 255
-0.495396 0.543855 1.452 255 255 255
-0.593094 -1.01246 2.707 255 255 255
-0.386077 0.371569 1.629 255 255 255
-0.507883 0.432112 1.579 255 255 255
0.247457 0.0943026 0.622 255 255 255
-0.0656814 0.314911 1.71 255 255 255
0.52191 -0.33239 1.043 255 255 255
-0.371115 0.474101 1.524 255 255 255
0.293132 -0.0756912 2.037 255 255 255
-0.408801 0.14447 1.923 255 255 255
-0.0918256 -0.496452 2.121 255 255 255
-0.485449 0.263081 0.939 255 255 255
0.134188 0.269313 1.739 255 255 255
-0.330127 0.00394345 2.078 255 255 255
0.254439 0.192517 0.664 255 255 255
-0.332886 0.289122 1.739 255 255 255
-0.390138 0.0657652 2.004 255 255 255
0.303563 -0.53525 1.575 255 255 255
0.248869 0.0914128 0.623 255 255 255
-0.513938 0.156962 1.094 255 255 255
0.229124 -0.172808 2.22 255 255 255
-0.264454 -0.0373937 2.121 0 0 0
-0.78265 -0.0678994 1.911 255 255 255
-0.886143 -0.342232 2.479 255 255 255
-0.518859 0.153402 1.12 255 255 255
-0.0017879 0.201333 1.842 255 255 255
-0.100449 -0.00961519 2.085 255 255 255
-0.544714 0.442024 1.357 255 255 255
-0.422366 0.463741 1.539 255 255 255
-0.816527 -0.89918 2.793 255 255 255
0.122109 0.147041 0.705 255 255 255
-0.737297 -0.437668 1.463 255 255 255
-0.178267 0.101287 1.935 255 255 255
0.250171 -0.619227 1.7 255 255 255
0.160598 -0.743659 1.997 255 255 255
0.0122866 0.310069 1.714 255 255 255
0.250467 0.112406 0.627 255 255 255
0.48953 0.0445709 1.294 255 255 255
0.296639 -0.348034 1.815 255 255 255
0.256932 0.110793 0.618 255 255 255
0.158222 -0.152584 2.189 255 255 255
0.414978 -0.241657 1.39 255 255 255
-0.39928 -0.641592 2.649 255 255 255
0.429389 -0.25754 1.278 255 255 255
-0.211341 -0.357757 2.294 255 255 255
0.37558 -0.429618 1.362 255 255 255
-0.710219 0.142734 1.821 255 255 255
0.0611179 -0.739464 1.935 255 255 255
-0.507134 0.382088 1.173 255 255 255
0.462534 -0.250891 1.087 255 255 255
-0.674809 -0.310184 1.393 255 255 255
-0.683965 -0.359746 1.366 255 255 255
0.522411 -0.108449 1.044 255 255 255
-0.835848 -0.224785 1.978 255 255 255
0.502017 -0.312321 1.044 255 255 255
-0.193192 0.409505 1.591 255 255 255
-0.0218722 -0.22486 2.037 255 255 255
-0.47671 0.293318 0.905 255 255 255
-0.532053 -0.0790726 2.128 255 255 255
0.252271 0.0970865 0.614 255 255 255
0.20537 0.110391 1.929 255 255 255
-0.620346 -0.56654 2.582 255 255 255
0.463997 -0.309065 1.062 255 255 255
0.214879 0.191937 0.662 255 255 255
-0.319009 -0.193783 2.212 255 255 255
-0.461469 0.54715 1.442 255 255 255
-0.647253 -0.785891 2.731 255 255 255
0.390356 -0.366591 1.375 255 255 255
-0.666488 -0.185357 1.502 255 255 255
0.229906 -0.54989 1.978 255 255 255
-0.231563 0.0271627 2.044 255 255 255
-0.249715 -0.169149 2.173 255 255 255
0.191816 0.114026 0.588 255 255 255
-0.19098 -0.715461 2.037 255 255 255
0.0206916 -0.661664 1.985 255 255 255
-0.454109 0.554587 1.419 255 255 255
0.154731 0.231577 0.632 255 255 255
-0.0557685 -0.715534 1.947 255 255 255
0.349591 -0.342952 1.563 255 255 255
0.281983 0.221265 0.629 255 255 255
-0.335934 -0.360309 2.411 255 255 255
-0.710347 0.0175875 2.092 255 255 255
0.467397 -0.0300088 1.333 255 255 255
-0.660289 0.261269 1.587 255 255 255
-0.3377 0.191091 1.859 255 255 255
0.143095 0.178728 0.613 255 255 255
-0.659088 0.258138 1.779 255 255 255
-0.909632 -0.562892 2.604 255 255 255
-0.361617 -0.832596 2.626 255 255 255
0.365773 -0.342399 1.494 255 255 255
0.325509 -0.00588498 1.972 255 255 255
-0.459649 -0.6847 2.649 255 255 255
-0.49109 0.232279 0.997 255 255 255
-0.579374 -0.106275 2.189 0 0 0
0.382022 -0.137823 1.603 255 255 255
0.393995 -0.158727 1.528 255 255 255
-0.535997 0.442705 1.571 255 255 255
-0.347152 -0.541329 2.582 255 255 255
0.377892 -0.486081 1.294 255 255 255
-0.0435486 0.212515 0.659 255 255 255
-0.516727 0.301528 1.729 255 255 255
-0.266974 0.0528784 2.01 255 255 255
-0.763061 -0.154468 2.269 255 255 255
-0.921508 -0.887916 2.638 255 255 255
0.541926 0.0602143 1.083 255 255 255
0.425021 -0.287858 1.265 255 255 255
-0.5907 0.120787 1.139 255 255 255
0.319194 0.0323098 1.953 255 255 255
-0.0274914 0.224409 0.635 255 255 255
0.0160285 -0.432402 2.236 255 255 255
-0.301206 0.41364 1.587 255 255 255
0.437625 0.0753236 1.587 255 255 255
0.488597 0.0484808 1.286 255 255 255
0.469456 -0.331518 1.051 255 255 255
-0.544113 -0.0339422 2.121 255 255 255
0.513526 0.0555791 1.171 255 255 255
0.103185 0.181034 0.686 0 0 0
-0.285741 0.439323 1.559 255 255 255
-0.168135 0.416768 1.599 255 255 255
0.268328 -0.342715 1.953 255 255 255
0.290994 -0.512892 1.696 255 255 255
-0.460733 -0.217068 2.347 255 255 255
-0.597485 -0.165484 1.213 255 255 255
-0.269922 0.1607 1.893 255 255 255
-0.621174 -0.736061 2.695 255 255 255
0.0875154 0.15335 0.713 255 255 255
0.261501 0.16021 0.66 255 255 255
-0.579425 -0.82807 2.768 255 255 255
-0.744925 -0.0701362 2.173 255 255 255
-0.969721 -0.780597 2.286 255 255 255
-0.355558 -0.881672 2.582 255 255 255
0.512494 0.0575829 1.173 255 255 255
0.126532 0.200401 0.651 255 255 255
-0.0629047 -0.140667 1.972 255 255 255
0.0138509 0.183266 0.686 255 255 255
0.315186 -0.211751 1.837 255 255 255
-0.26053 0.326042 1.71 255 255 255
-0.792684 -0.930844 2.638 255 255 255
-0.500416 -0.802621 2.805 255 255 255
0.236948 -0.238369 2.128 255 255 255
-0.349015 0.453564 1.547 255 255 255
0.223993 0.202389 0.654 255 255 255
-0.327723 0.203776 1.837 255 255 255
0.497345 -0.23369 0.978 255 255 255
-0.0185564 -0.0193384 2.037 255 255 255
0.0043803 -0.729466 1.917 255 255 255
0.252445 0.237196 0.612 255 255 255
-0.548502 0.502727 1.372 255 255 255
0.292249 0.213011 0.638 255 255 255
-0.493932 0.399202 1.03 255 255 255
0.460482 -0.432678 1.167 255 255 255
0.127175 0.239431 0.623 255 255 255
0.451744 -0.330545 1.189 255 255 255
0.469395 -0.12853 1.257 255 255 255
-0.444252 -0.78753 2.768 255 255 255
-0.533063 0.254525 1.774 255 255 255
-0.0935115 -0.68806 1.941 255 255 255
0.365904 -0.466267 1.359 255 255 255
0.187258 -0.628863 2.004 255 255 255
-0.605554 0.408986 1.579 255 255 255
-0.49985 0.395109 1.139 255 255 255
-0.206736 0.220054 1.799 255 255 255
-0.686716 -0.973237 2.66 255 255 255
0.268779 0.131129 1.911 255 255 255
0.171146 0.184914 0.617 255 255 255
-0.282869 0.209755 1.837 255 255 255
0.0474787 0.186088 0.672 255 255 255
0.238432 0.14404 0.68 255 255 255
0.182802 -0.332961 2.228 255 255 255
0.0485187 0.0949896 1.935 255 255 255
-0.00846939 -0.195128 2.004 255 255 255
-0.647588 0.117032 1.935 255 255 255
0.0147024 0.0139052 2.051 255 255 255
0.0461246 -0.560177 2.114 255 255 255
-0.586031 0.410944 1.484 255 255 255
0.33972 -0.249253 1.705 255 255 255
0.201617 0.229782 0.603 255 255 255
0.449641 -0.230074 1.242 255 255 255
0.274227 0.132423 0.63 255 255 255
0.131161 0.118671 0.578 255 255 255
0.502904 -0.117383 1.13 255 255 255
0.413185 -0.350556 1.299 255 255 255
-0.593681 -0.329104 2.329 255 255 255
-0.704166 -0.318676 1.52 255 255 255
-0.200311 0.152418 1.905 255 255 255
-0.627685 0.290619 1.748 255 255 255
-0.860639 -0.941439 2.731 255 255 255
0.113617 0.188017 0.675 255 255 255
0.168121 0.320703 1.682 255 255 255
0.31678 -0.14956 1.882 255 255 255
-0.295528 -0.0995219 2.121 255 255 255
0.183105 0.0919997 0.627 255 255 255
0.072117 0.1607 1.893 255 255 255
-0.483557 -0.0582949 2.128 255 255 255
0.139662 0.090246 0.629 255 255 255
0.49213 -0.00961257 1.222 255 255 255
-0.342837 0.487953 1.498 255 255 255
-0.320687 -0.522491 2.572 255 255 255
-0.326787 0.527483 1.459 255 255 255
0.14228 0.0787353 0.627 255 255 255
0.178007 0.140018 1.905 255 255 255
-0.189898 -0.378366 2.261 255 255 255
0.206996 -0.658992 1.859 255 255 255
-0.920352 -0.887997 2.54 255 255 255
-0.120407 -0.0163461 2.078 255 255 255
0.420626 -0.287778 1.283 255 255 255
-0.0238372 -0.43292 2.22 255 255 255
-0.28606 0.446012 1.547 255 255 255
-0.00607614 0.204241 0.667 255 255 255
-0.305885 -0.0408453 2.121 255 255 255
0.493388 -0.246836 0.999 255 255 255
0.428888 -0.211512 1.289 255 255 255
-0.635229 -0.03039 2.114 255 255 255
0.487077 -0.136419 1.167 255 255 255
-0.33941 0.54715 1.442 255 255 255
-0.314036 0.522857 1.466 255 255 255
-0.575716 0.471656 1.47 255 255 255
-0.848814 -0.639874 1.865 255 255 255
-0.417663 -0.942708 2.684 255 255 255
-0.154509 0.177574 1.876 255 255 255
-0.965481 -0.882836 2.561 255 255 255
0.148124 0.215424 0.639 255 255 255
0.232928 -0.491894 2.004 255 255 255
0.243335 0.206221 0.646 255 255 255
0.463205 -0.0152579 1.372 255 255 255
-0.31681 0.292792 1.744 255 255 255
0.395975 -0.40102 1.305 255 255 255
-0.88439 -0.801845 2.695 255 255 255
-0.818952 -0.491532 2.459 255 255 255
0.193001 -0.723753 1.87 255 255 255
0.360114 -0.331164 1.532 255 255 255
0.0266477 0.22718 0.62 255 255 255
-0.0837482 -0.0877716 2.01 255 255 255
0.0675577 0.238166 0.625 255 255 255
0.396694 -0.446651 1.21 255 255 255
-1.03815 -0.761364 2.707 255 255 255
-0.140469 0.104436 1.935 255 255 255
-0.12379 -0.537111 2.078 255 255 255
0.350485 -0.328529 1.567 255 255 255
-0.6858 -0.210795 2.32 255 255 255
0.422091 -0.24798 1.327 255 255 255
-0.0333194 0.205942 0.669 255 255 255
0.468963 -0.227313 1.128 255 255 255
0.3895 -0.304037 1.396 255 255 255
-0.0190483 0.237204 1.774 255 255 255
0.314977 -0.526886 1.543 255 255 255
0.281124 0.0963284 0.603 255 255 255
0.125338 0.234317 1.774 255 255 255
-0.525891 -0.836921 2.844 255 255 255
0.285508 0.132423 0.63 255 255 255
-0.382562 0.144019 1.917 255 255 255
-0.735791 0.0696677 1.848 255 255 255
0.240412 -0.203739 2.128 255 255 255
0.252822 0.165065 0.68 255 255 255
-0.410601 -0.736061 2.695 255 255 255
-0.525111 -0.03039 2.114 255 255 255
0.216868 0.0171251 2.037 255 255 255
0.320948 -0.126147 1.853 255 255 255
0.526817 -0.00312155 1.046 255 255 255
0.422566 -0.311729 1.27 255 255 255
0.14823 0.229576 0.635 255 255 255
0.523499 0.0126529 1.085 255 255 255
0.297737 0.0415508 0.669 255 255 255
-0.603455 0.40331 1.587 255 255 255
-0.823195 -0.025624 2.01 255 255 255
0.476406 -0.164367 1.137 255 255 255
-0.525649 0.342463 1.668 255 255 255
-0.268751 0.55111 1.416 255 255 255
0.0486933 0.235498 0.618 255 255 255
-0.643943 -0.0552184 2.143 255 255 255
0.38491 -0.291041 1.456 255 255 255
-0.378582 -0.468585 2.383 255 255 255
-0.337058 0.491512 1.494 255 255 255
-0.989676 -0.615993 2.707 255 255 255
0.316723 -0.350735 1.686 255 255 255
0.103728 0.211009 0.661 255 255 255
0.149073 -0.711718 2.017 255 255 255
-0.503874 0.321226 1.714 255 255 255
0.194194 0.197015 0.64 255 255 255
-0.344815 -0.0231871 2.085 255 255 255
0.426022 -0.406976 1.215 255 255 255
0.0862195 -0.630531 2.085 255 255 255
0.226269 0.21579 0.625 255 255 255
0.0740339 0.212528 0.646 255 255 255
0.29673 0.232354 0.615 255 255 255
0.267091 -0.500115 1.899 255 255 255
0.415807 -0.326043 1.294 255 255 255
-0.584694 0.338237 1.422 255 255 255
-0.464377 0.532399 1.466 255 255 255
-0.228664 0.0949896 1.935 255 255 255
0.276671 0.0697343 0.638 255 255 255
-0.664032 -0.218039 1.459 255 255 255
0.0431673 0.186365 0.673 255 255 255
0.117894 0.172546 0.662 0 0 0
-0.113759 0.391725 1.603 255 255 255
0.47211 -0.303893 1.027 255 255 255
0.295302 0.163537 0.577 255 255 255
0.199305 0.101538 0.599 255 255 255
0.304033 -0.35893 1.739 255 255 255
0.100969 0.2388 0.624 255 255 255
0.118364 -0.20389 2.244 255 255 255
-0.624161 0.194742 1.865 255 255 255
0.205096 -0.42742 2.121 255 255 255
0.453263 0.0166179 1.425 255 255 255
0.053358 -0.245294 2.128 255 255 255
-0.495313 0.510991 1.48 255 255 255
0.434209 0.0839089 1.603 255 255 255
0.219807 -0.615594 1.865 255 255 255
-0.532961 0.370764 1.286 255 255 255
0.124929 0.0907947 0.612 255 255 255
-0.378443 -0.137829 2.181 255 255 255
0.128454 0.21596 0.65 255 255 255
0.149187 0.00727569 2.064 255 255 255
-0.559014 0.397626 1.387 255 255 255
-0.127172 -0.530348 2.078 255 255 255
0.339558 -0.382559 1.612 255 255 255
-0.477655 0.294465 0.904 255 255 255
0.502155 -0.167964 1.055 255 255 255
0.0339825 -0.429307 2.22 255 255 255
-0.586181 0.45754 1.535 255 255 255
0.379728 0.0958435 1.831 255 255 255
-0.449272 -0.469144 2.347 255 255 255
0.532056 -0.388697 1.053 255 255 255
-0.0616259 0.26007 1.753 255 255 255
-0.530782 0.548353 1.439 255 255 255
0.441184 0.153034 1.563 255 255 255
0.246775 0.0536221 0.644 255 255 255
0.125222 -0.428763 2.236 255 255 255
-0.505522 0.207328 1.842 255 255 255
0.180341 0.176532 1.865 255 255 255
0.140787 0.181607 0.616 255 255 255
-0.369362 0.535658 1.449 255 255 255
0.0538262 0.224023 0.631 255 255 255
0.280603 -0.486833 1.826 255 255 255
0.467124 -0.0907556 1.302 255 255 255
0.203158 0.105879 0.596 255 255 255
0.461747 0.0250942 1.381 255 255 255
0.322427 0.1995 0.655 255 255 255
0.318511 -0.0729452 1.805 255 255 255
-0.48889 0.248719 0.931 255 255 255
0.393897 0.040896 1.774 255 255 255
0.0952082 0.214913 1.805 255 255 255
-0.156897 0.133818 1.905 255 255 255
0.190758 0.0943026 0.622 255 255 255
-0.748754 0.0567963 1.821 255 255 255
-0.554816 0.492952 1.491 255 255 255
0.385425 -0.367992 1.406 255 255 255
0.280405 -0.258758 2.017 255 255 255
-1.03793 -0.806231 2.695 255 255 255
-0.117686 0.119435 1.923 255 255 255
-0.0354805 -0.565157 2.057 255 255 255
0.322427 0.148337 0.655 255 255 255
-0.363481 0.346015 1.659 255 255 255
0.489547 -0.36933 1.092 255 255 255
0.167675 -0.613566 2.085 255 255 255
-0.630426 -0.977566 2.66 255 255 255
-0.208413 0.542217 1.429 255 255 255
-0.620817 -0.460108 2.42 255 255 255
0.140944 -0.613197 2.143 255 255 255
0.0628811 -0.0165113 2.099 255 255 255
-0.581937 -0.863327 2.78 255 255 255
-0.0596947 -0.169549 1.972 255 255 255
-0.70589 -0.00626399 2.099 255 255 255
0.0383141 -0.62418 2.064 255 255 255
-0.191119 0.247209 1.763 255 255 255
0.184341 0.0105314 2.044 255 255 255
0.239287 0.106185 0.658 255 255 255
0.481688 -0.279692 1.012 255 255 255
0.40105 -0.223398 1.463 255 255 255
-0.525913 0.158618 1.905 255 255 255
0.435767 0.02742 1.509 255 255 255
-0.558564 0.398553 1.599 255 255 255
-0.465156 0.322631 0.957 255 255 255
-0.894947 -0.513975 2.151 0 0 0
0.432564 0.000398278 1.473 255 255 255
-0.940329 -0.344615 2.411 255 255 255
-0.550901 0.412985 1.378 255 255 255
0.172955 -0.736808 1.953 255 255 255
0.39466 -0.472955 1.222 255 255 255
0.196703 0.182902 0.638 255 255 255
0.0202463 0.212969 0.641 255 255 255
0.113533 -0.335358 2.294 255 255 255
0.412087 -0.154331 1.419 255 255 255
-0.24954 -0.69677 2.449 255 255 255
0.0840336 0.161472 0.713 255 255 255
-0.854012 -0.690055 1.837 255 255 255
0.203742 -0.050862 2.107 255 255 255
-0.63178 -0.211177 1.313 255 255 255
-0.42347 0.286293 1.739 255 255 255
0.34425 -0.417329 1.528 255 255 255
-0.679648 0.191091 1.859 255 255 255
-0.0051579 -0.622901 1.985 255 255 255
-0.765489 -0.334114 2.392 255 255 255
0.0981725 0.262923 1.753 255 255 255
-1.02062 -0.733766 2.719 255 255 255
0.211372 0.227899 1.769 255 255 255
0.0545056 0.226684 0.627 255 255 255
-0.294099 0.284278 1.744 255 255 255
-0.0308407 -0.379587 2.204 255 255 255
0.174875 0.17657 0.609 255 255 255
0.0904877 0.229938 0.636 255 255 255
-0.63386 0.331652 1.696 255 255 255
0.172261 0.141001 0.577 255 255 255
0.343072 -0.515007 1.48 255 255 255
-0.0474933 0.25509 1.758 255 255 255
0.0982403 0.0554509 1.985 255 255 255
-0.834881 -0.588843 1.646 255 255 255
0.466939 -0.417467 1.141 255 255 255
-0.657236 0.260299 1.774 255 255 255
0.424729 -0.327685 1.252 255 255 255
0.0615442 0.187458 1.853 255 255 255
-0.507322 -0.980602 2.818 255 255 255
0.276315 0.072261 0.642 0 0 0
0.40237 -0.355953 1.319 255 255 255
-0.644427 0.0664215 2.024 255 255 255
0.138663 0.127191 0.574 255 255 255
0.446936 0.0855677 1.539 255 255 255
0.310728 -0.337171 1.729 255 255 255
0.471925 -0.182627 1.196 255 255 255
0.0660768 -0.591795 2.092 255 255 255
0.188362 0.120882 0.645 255 255 255
-0.97253 -0.80294 2.684 255 255 255
0.434736 -0.1834 1.313 255 255 255
-0.0213783 0.0588585 1.991 255 255 255
0.305477 0.218888 0.631 255 255 255
-0.47446 -1.02133 2.684 255 255 255
-0.434186 -0.552008 2.479 255 255 255
-0.791643 -0.51138 1.691 255 255 255
-0.605221 -0.128823 1.167 255 255 255
0.289059 -0.365202 1.842 255 255 255
-0.867065 -0.132498 2.044 255 255 255
0.200938 -0.0163461 2.078 255 255 255
-0.560567 0.0268567 1.165 255 255 255
-0.625368 -0.18981 1.313 255 255 255
0.16058 0.185316 0.615 255 255 255
-0.372599 -0.204708 2.253 255 255 255
0.375877 -0.452105 1.324 255 255 255
-0.514273 0.390087 1.607 255 255 255
0.148571 0.119959 0.562 255 255 255
-0.872299 -0.891132 2.768 255 255 255
0.334168 -0.540851 1.505 255 255 255
0.0108928 -0.700121 1.966 255 255 255
-0.32744 0.345178 1.668 255 255 255
0.198553 0.205582 0.644 255 255 255
-0.280559 0.490525 1.491 255 255 255
0.471943 -0.138439 1.201 255 255 255
0.422653 -0.191111 1.322 255 255 255
-0.96416 -0.870064 2.649 255 255 255
0.155907 -0.65105 2.064 255 255 255
-0.658989 -0.0661402 2.158 255 255 255
0.20319 -0.186376 2.253 255 255 255
-0.153713 -0.429439 2.166 255 255 255
-0.51216 0.156566 1.079 255 255 255
0.385308 -0.173473 1.595 255 255 255
-0.739334 -0.301834 2.383 255 255 255
-0.686814 0.16019 1.887 255 255 255
-0.514174 0.169483 1.106 255 255 255
-0.210693 -0.64943 2.136 255 255 255
-0.21083 0.387472 1.607 255 255 255
-0.46652 -0.641868 2.615 255 255 255
0.529335 0.0156771 1.051 255 255 255
-0.472087 0.367167 1.633 255 255 255
-0.897859 -0.522671 2.158 0 0 0
-0.485844 0.427628 1.591 255 255 255
0.397227 0.00921759 1.789 255 255 255
0.181937 0.189754 0.623 255 255 255
0.390834 -0.29999 1.409 255 255 255
-0.557994 0.0555986 1.213 255 255 255
-0.67539 -0.1774 1.539 255 255 255
-0.32974 0.477987 1.505 255 255 255
0.348673 -0.158745 1.779 255 255 255
-0.627697 -0.117335 2.196 255 255 255
0.310232 0.156047 0.622 255 255 255
-0.582286 0.403163 1.607 255 255 255
-0.64845 -0.069652 2.158 255 255 255
-0.419342 0.23112 1.794 255 255 255
0.294024 -0.359604 1.799 255 255 255
0.26663 0.0921801 0.608 255 255 255
0.0481883 0.204953 0.652 255 255 255
-0.543104 0.355954 1.655 255 255 255
-0.457298 0.458599 1.547 255 255 255
0.460331 0.108456 1.509 255 255 255
0.317989 -0.470991 1.583 255 255 255
0.0123001 -0.443758 2.22 255 255 255
-0.554183 0.347058 1.664 255 255 255
0.295375 0.129752 0.627 255 255 255
-0.272788 0.265776 1.753 255 255 255
-0.372514 0.165891 1.882 255 255 255
0.0417112 0.237872 1.779 255 255 255
0.352769 0.084482 1.911 255 255 255
0.446616 -0.32276 1.196 255 255 255
0.259267 0.0870947 0.614 255 255 255
-0.426405 0.0469589 2.037 255 255 255
-0.827126 -0.497 1.935 255 255 255
-0.018192 -0.1457 1.997 255 255 255
-0.000600821 0.234872 0.619 255 255 255
-0.705627 -0.34319 2.374 255 255 255
-0.170497 -0.597381 2.03 255 255 255
-0.286563 -0.871289 2.392 255 255 255
-0.907949 -0.420233 2.44 255 255 255
-0.500717 -0.365255 2.392 255 255 255
-0.241064 0.469702 1.502 255 255 255
0.30038 -0.587642 1.599 255 255 255
0.0154708 0.237125 0.617 255 255 255
-0.834878 -0.584814 1.62 255 255 255
0.0636913 0.232806 0.627 255 255 255
0.1153 0.190462 0.672 255 255 255
-0.720998 0.0509402 2.064 255 255 255
-0.417187 -0.623201 2.626 255 255 255
0.0458232 0.232225 0.62 255 255 255
0.145537 -0.298472 2.269 255 255 255
0.190341 -0.586181 2.037 255 255 255
0.00808676 0.19673 0.671 255 255 255
0.253338 0.0489904 1.985 255 255 255
0.0255248 0.192076 0.67 255 255 255
0.304993 0.220592 0.63 255 255 255
-0.725494 -0.402802 1.539 255 255 255
0.0393722 -0.0684578 2.121 255 255 255
-0.491745 -1.00365 2.707 255 255 255
0.418658 -0.4116 1.194 255 255 255
-0.243533 -0.159124 2.181 255 255 255
0.225879 -0.59435 1.865 255 255 255
0.474982 -0.39419 1.112 255 255 255
-0.261209 0.0653386 1.991 255 255 255
0.00789208 -0.199676 2.017 255 255 255
0.434437 -0.265811 1.239 255 255 255
0.281679 0.0772976 0.6 255 255 255
-0.465148 0.327863 1.705 255 255 255
-0.478418 0.373825 0.981 255 255 255
0.531077 -0.00818877 1.041 255 255 255
0.0204206 -0.691253 1.959 255 255 255
-0.162725 0.200131 1.831 255 255 255
-0.0626915 -0.265686 2.071 255 255 255
-0.324104 0.470679 1.513 255 255 255
-0.128989 0.149318 1.905 255 255 255
0.309474 -0.577722 1.579 255 255 255
-0.351875 0.183092 1.87 255 255 255
-0.00484609 0.188672 1.865 255 255 255
0.406421 0.0173494 1.729 255 255 255
-0.66308 0.253696 1.729 255 255 255
-0.600564 -0.378928 2.356 255 255 255
-1.06342 -0.691872 2.66 255 255 255
-0.494336 0.230657 0.997 255 255 255
-0.54978 0.138749 1.077 255 255 255
-0.614474 0.368066 1.637 255 255 255
-0.596639 -0.0480861 2.136 255 255 255
-0.497914 0.356896 1.118 255 255 255
0.148088 0.23392 0.63 255 255 255
-0.407584 0.48665 1.494 255 255 255
0.292995 -0.167942 1.991 255 255 255
-0.49476 -0.515241 2.42 255 255 255
0.193931 0.220702 0.616 255 255 255
0.140286 0.127902 0.573 255 255 255
0.30226 0.102074 0.608 255 255 255
-0.371679 0.458599 1.547 255 255 255
-0.191148 -0.769094 2.004 255 255 255
-0.405559 0.42245 1.591 255 255 255
0.293291 -0.24433 1.929 255 255 255
-0.00948369 -0.401083 2.244 255 255 255
-0.656859 -0.172152 1.247 255 255 255
0.132975 -0.470466 2.244 255 255 255
-0.601162 -0.97765 2.684 255 255 255
0.433743 -0.114763 1.31 255 255 255
0.277004 0.222603 0.627 255 255 255
-0.355572 0.514715 1.47 255 255 255
0.0466752 0.270707 1.748 255 255 255
0.519993 -0.0283436 1.1 255 255 255
-0.351603 -0.0537239 2.085 255 255 255
-0.247217 -0.00283872 2.092 255 255 255
0.178675 0.0949403 0.633 255 255 255
0.356373 -0.149367 1.705 255 255 255
0.168599 0.0821877 0.63 255 255 255
-0.0992135 0.11353 1.929 255 255 255
-0.812308 -0.00948606 2.057 255 255 255
-0.499229 -0.0960703 2.121 255 255 255
0.299142 0.12225 0.62 255 255 255
-0.876692 -0.181665 2.286 255 255 255
-0.475268 0.324317 1.048 255 255 255
-0.591137 0.270706 1.432 255 255 255
0.00424777 0.188065 1.859 255 255 255
0.41283 -0.213179 1.339 255 255 255
-0.415835 0.246558 1.779 255 255 255
-0.0106602 0.210891 1.821 255 255 255
0.433379 0.00281621 1.484 255 255 255
0.21566 0.2101 0.645 255 255 255
-0.599787 0.0352974 1.194 255 255 255
-0.504982 -0.893914 2.805 255 255 255
-0.948951 -0.750835 2.22 0 0 0
0.466121 -0.362761 1.083 255 255 255
0.233182 -0.392422 2.064 255 255 255
-0.165532 0.424574 1.599 255 255 255
0.0568896 0.142667 1.899 255 255 255
-0.631131 -0.862083 2.719 255 255 255
-0.753959 -0.497549 2.469 255 255 255
0.24734 -0.0825355 2.128 255 255 255
-0.578413 0.229299 1.826 255 255 255
-0.539891 -0.166202 2.278 0 0 0
-0.830301 -0.786863 2.719 255 255 255
-0.365346 0.442994 1.563 255 255 255
0.428571 -0.181036 1.327 255 255 255
0.306513 -0.272137 1.821 255 255 255
0.162189 0.0897898 0.633 255 255 255
-0.509025 -0.623809 2.593 255 255 255
0.167313 0.112817 0.653 255 255 255
-0.232314 -0.0935794 2.143 255 255 255
0.380281 -0.238125 1.543 255 255 255
-0.717026 -0.942936 2.66 255 255 255
0.413639 -0.167812 1.378 255 255 255
0.0329207 0.210822 0.644 0 0 0
-0.485854 0.527628 1.466 255 255 255
0.363552 -0.0451693 1.753 255 255 255
-0.0834982 -0.586468 2.004 255 255 255
0.26155 0.238406 0.61 255 255 255
-0.89424 -0.916752 2.672 255 255 255
0.269449 0.20609 1.831 255 255 255
0.415524 0.143127 1.686 255 255 255
-0.762019 0.0527205 2.004 255 255 255
-0.0533045 0.18716 0.688 255 255 255
-0.611211 -0.109526 1.324 255 255 255
-0.0269055 0.201398 0.672 255 255 255
0.274768 0.217518 0.636 255 255 255
-0.668066 -0.708038 2.672 255 255 255
-0.944871 -0.734414 2.236 255 255 255
-0.783932 -0.0517914 2.01 255 255 255
0.507542 -0.0610051 1.108 255 255 255
0.0728875 -0.00964747 2.092 255 255 255
-0.662844 -0.491532 2.459 255 255 255
-0.424545 0.375714 1.624 255 255 255
-0.217283 -0.292241 2.278 255 255 255
0.209603 0.206122 0.649 255 255 255
-0.816529 -0.105687 1.978 255 255 255
0.0570677 0.18308 0.669 255 255 255
0.0165019 0.226447 0.618 255 255 255
-0.517959 0.144547 1.122 255 255 255
0.0414347 0.223668 0.63 255 255 255
0.399131 -0.241284 1.456 255 255 255
-0.375181 -0.336768 2.411 255 255 255
0.293087 0.123259 0.62 255 255 255
0.001292 -0.677726 1.966 255 255 255
0.479564 -0.151143 1.149 255 255 255
-0.76054 -0.633614 2.707 255 255 255
-0.660032 -0.0807447 2.173 255 255 255
-0.0283327 0.197156 0.68 255 255 255
0.0587421 0.326953 1.686 255 255 255
0.171424 0.152042 0.587 255 255 255
-0.88598 -0.681042 2.004 255 255 255
-0.125041 -0.50155 2.099 255 255 255
0.388121 0.0553304 1.774 255 255 255
0.126337 0.0990848 0.614 255 255 255
0.34891 -0.352492 1.583 255 255 255
0.497269 -0.233363 0.997 255 255 255
-0.683178 0.236298 1.789 255 255 255
-0.412627 -0.161386 2.212 0 0 0
-0.933202 -0.979196 2.53 255 255 255
0.320492 -0.348862 1.677 255 255 255
0.254503 0.191216 0.667 255 255 255
0.277 0.0703288 0.634 255 255 255
-0.20099 0.386054 1.612 255 255 255
-0.00522286 -0.208796 2.01 255 255 255
-0.354997 -0.0130082 2.085 0 0 0
0.204546 -0.705002 1.837 255 255 255
-0.697923 -0.273108 1.528 255 255 255
-0.626422 -0.22765 2.338 255 255 255
0.318816 -0.299756 1.774 255 255 255
0.327831 0.11353 1.929 255 255 255
0.505345 -0.16566 1.03 255 255 255
-0.547292 0.0894194 1.165 255 255 255
0.400273 -0.440152 1.203 255 255 255
-0.485245 0.205756 1.07 255 255 255
-0.511629 -0.738191 2.719 255 255 255
-0.92463 -0.430932 2.411 255 255 255
0.489362 -0.436357 1.137 255 255 255
-0.995473 -0.852614 2.32 255 255 255
-0.414661 0.529857 1.459 255 255 255
0.148356 0.216803 0.64 255 255 255
0.335087 -0.209947 1.724 255 255 255
0.405157 -0.265172 1.419 255 255 255
0.249979 -0.0788125 2.121 255 255 255
0.508502 -0.114847 1.072 255 255 255
-0.587915 0.0750813 1.178 255 255 255
0.307369 0.0557737 0.657 255 255 255
0.382022 -0.135214 1.603 255 255 255
-0.522194 0.140942 1.217 255 255 255
-0.458655 0.493943 1.494 255 255 255
-0.459597 0.330638 1.705 255 255 255
0.46401 0.0787791 1.505 255 255 255
-0.290217 0.194742 1.865 255 255 255
-1.04671 -0.714132 2.695 255 255 255
0.108066 -0.0235096 2.114 255 255 255
-0.895107 -0.292359 2.143 255 255 255
0.512027 -0.0356975 1.106 255 255 255
0.259918 0.18996 1.848 255 255 255
-0.579309 0.054086 1.18 255 255 255
0.175392 0.318987 1.673 255 255 255
-0.583864 -0.0840094 2.166 255 255 255
0.36788 -0.473538 1.342 255 255 255
-0.621994 0.293463 1.748 255 255 255
0.088079 0.143118 1.905 255 255 255
0.515522 -0.148674 1.017 255 255 255
-0.501023 -0.0441507 2.114 255 255 255
-0.739621 -0.915872 2.695 255 255 255
0.505866 0.029567 1.198 255 255 255
-0.227298 -0.577166 2.383 255 255 255
0.318428 0.181991 0.669 255 255 255
-0.767299 -0.444708 1.668 255 255 255
-0.478712 0.274476 0.906 255 255 255
0.444586 0.0262026 1.442 255 255 255
0.00141818 -0.498089 2.158 255 255 255
0.0162994 0.196505 1.853 255 255 255
-0.452717 -0.380375 2.365 255 255 255
-0.570049 0.0249609 1.165 255 255 255
0.480562 -0.0956009 1.203 255 255 255
-0.845779 -0.936263 2.755 255 255 255
0.500318 -0.08953 1.104 255 255 255
-0.568005 -0.458054 2.43 255 255 255
-0.134199 -0.103702 2.136 255 255 255
-0.662273 -0.114176 2.204 255 255 255
0.144654 0.116094 0.561 0 0 0
0.395417 0.0034045 1.794 255 255 255
-0.739334 -0.325101 2.383 255 255 255
-0.203731 -0.183294 2.173 255 255 255
0.326812 0.125694 1.923 255 255 255
0.276671 0.142411 0.638 255 255 255
0.0147244 0.21887 0.628 255 255 255
-0.246016 0.354878 1.65 255 255 255
-0.213385 0.11869 1.911 255 255 255
-0.609639 0.143118 1.905 255 255 255
0.498265 -0.0169632 1.18 255 255 255
0.432466 -0.365332 1.096 255 255 255
-0.0527928 0.275763 1.744 255 255 255
0.0350728 -0.592595 2.071 255 255 255
-0.403244 -0.0866047 2.143 255 255 255
-0.862292 -0.622919 1.637 255 255 255
-0.892183 -0.287928 2.136 255 255 255
-0.412448 0.48665 1.494 255 255 255
0.497358 0.0159601 1.201 255 255 255
-0.817916 -0.10443 2.151 255 255 255
0.129605 0.131953 1.923 255 255 255
-0.341374 -0.947354 2.479 255 255 255
0.241313 -0.611375 1.799 255 255 255
-0.134178 0.250929 1.769 255 255 255
-0.635532 -0.125442 1.459 255 255 255
0.299047 -0.511338 1.664 255 255 255
0.0126414 0.187472 0.681 255 255 255
0.367723 -0.285833 1.543 255 255 255
0.0290145 -0.11678 2.121 255 255 255
0.303036 0.159898 0.65 255 255 255
-0.42069 -0.569113 2.519 255 255 255
0.101778 -0.702544 1.991 255 255 255
0.363311 -0.439857 1.409 255 255 255
0.524983 -0.0470613 1.039 255 255 255
0.281572 0.138641 0.635 255 255 255
-0.453422 -0.00282923 2.085 255 255 255
-0.616599 -0.167801 1.308 255 255 255
0.16631 0.0877296 0.633 255 255 255
-0.502794 -0.020003 2.107 255 255 255
-0.561925 -0.867364 2.793 255 255 255
0.495773 -0.237513 0.994 255 255 255
-0.481512 -0.626455 2.604 255 255 255
0.410651 -0.267654 1.339 255 255 255
0.469004 -0.106872 1.267 255 255 255
-0.732907 -0.393281 1.571 255 255 255
0.450833 -0.283209 1.124 255 255 255
-0.831935 -0.212431 2.338 255 255 255
0.228507 -0.315924 2.114 255 255 255
-0.00518908 -0.181447 1.997 255 255 255
0.448499 -0.331203 1.05 0 0 0
-0.151472 -0.629916 1.997 255 255 255
0.261212 -0.598985 1.682 255 255 255
-0.376716 0.458599 1.547 255 255 255
-0.938053 -0.267742 2.356 255 255 255
-0.0118837 -0.0258789 2.03 255 255 255
0.465098 -0.231803 1.132 255 255 255
-0.630426 -0.986223 2.66 255 255 255
0.00111719 0.318602 1.7 255 255 255
0.432727 -0.36113 1.169 255 255 255
-0.802941 -0.491532 2.459 255 255 255
0.416076 -0.416769 1.165 255 255 255
-0.910979 -0.435962 2.181 255 255 255
0.210093 0.0298924 2.004 255 255 255
-0.650116 -0.391026 2.383 255 255 255
0.229005 -0.10093 2.151 255 255 255
0.0749432 -0.28295 2.151 255 255 255
-0.52953 0.444128 1.567 255 255 255
0.172501 0.159655 0.594 255 255 255
-0.668066 -0.647163 2.672 255 255 255
-0.567988 0.069233 2.01 255 255 255
0.233263 -0.287382 2.158 255 255 255
-0.70589 0.00739907 2.099 255 255 255
-0.380365 0.384382 1.616 255 255 255
-0.391855 0.374789 1.62 255 255 255
0.459346 -0.263504 1.118 255 255 255
0.236345 -0.34668 2.092 255 255 255
0.268744 0.219929 0.634 255 255 255
-0.399485 0.495378 1.491 255 255 255
0.488422 -0.23417 1.044 255 255 255
-1.03806 -0.811676 2.684 255 255 255
0.0942858 0.282648 1.734 255 255 255
0.450245 -0.337645 1.18 255 255 255
-0.453749 0.0241514 2.071 255 255 255
0.0655831 0.183618 0.667 255 255 255
-0.291606 0.404327 1.591 255 255 255
-0.573472 -0.898479 2.805 255 255 255
-0.551994 0.215734 1.837 255 255 255
0.460886 -0.315768 1.079 255 255 255
-0.37351 -0.978691 2.561 255 255 255
-0.437318 -0.488137 2.365 255 255 255
0.0173455 0.34435 1.664 255 255 255
0.195396 0.110728 0.596 255 255 255
0.403918 -0.402634 1.257 255 255 255
-0.297762 0.508582 1.48 255 255 255
0.261515 0.0458001 0.652 255 255 255
-0.218711 -0.551807 2.374 255 255 255
-0.620486 0.239072 1.81 255 255 255
-0.212731 -0.28001 2.269 255 255 255
-0.476221 -0.74704 2.719 255 255 255
-0.210174 0.473541 1.491 255 255 255
-0.236586 0.0401906 2.03 255 255 255
0.434693 -0.298877 1.234 255 255 255
0.186074 0.122498 0.648 255 255 255
0.359267 -0.519344 1.359 255 255 255
-0.558032 0.280822 1.336 255 255 255
0.243074 -0.216875 2.121 255 255 255
-0.436905 -0.537357 2.449 255 255 255
-0.325541 -0.0743305 2.092 255 255 255
-0.414692 0.0174698 2.078 255 255 255
-0.467087 0.337126 1.682 255 255 255
-0.361694 -0.362506 2.374 255 255 255
0.194754 0.112448 0.6 255 255 255
0.516817 -0.0828859 1.043 255 255 255
0.117942 -0.425124 2.236 255 255 255
-0.369397 0.337928 1.686 255 255 255
-0.412973 0.16739 1.899 255 255 255
-0.471831 0.485335 1.505 255 255 255
-0.673649 0.183679 1.876 255 255 255
0.148473 -0.583983 2.151 255 255 255
0.154539 0.175003 0.607 255 255 255
0.0819431 0.171133 0.705 255 255 255
0.275758 0.0942094 0.602 255 255 255
-0.025695 -0.3004 2.078 255 255 255
0.496575 -0.0756482 1.167 255 255 255
-0.560065 -0.289635 2.347 255 255 255
0.370787 0.0243322 1.831 255 255 255
-0.320814 0.555759 1.422 255 255 255
0.0896135 -0.616959 2.085 255 255 255
0.0654848 0.18551 0.666 255 255 255
-0.0424736 0.329877 1.673 255 255 255
0.451276 -0.337003 1.158 255 255 255
0.204305 -0.558259 2.044 255 255 255
0.106226 -0.631795 2.078 255 255 255
0.071459 0.0239181 2.051 255 255 255
0.480114 -0.0938957 1.232 255 255 255
-0.386098 0.436143 1.575 255 255 255
0.480854 -0.104601 1.194 255 255 255
-0.801383 -0.406647 2.43 255 255 255
0.2235 0.0138102 2.037 255 255 255
0.14147 -0.601484 2.151 255 255 255
-0.0499849 0.217877 0.659 255 255 255
-0.901118 -0.702793 2.719 255 255 255
-0.204053 0.1218 1.911 255 255 255
0.242184 0.126413 0.663 255 255 255
-0.355541 0.268628 1.753 255 255 255
-0.375505 -0.657119 2.695 255 255 255
0.237839 -0.211457 2.136 255 255 255
-0.186218 -0.341572 2.261 255 255 255
0.383307 -0.204417 1.535 255 255 255
0.133967 -0.0587058 2.143 255 255 255
-0.830777 -0.460172 1.966 255 255 255
0.295055 -0.317241 1.842 255 255 255
0.516867 -0.0851509 1.05 255 255 255
0.0503868 0.169403 1.887 255 255 255
-0.669628 -0.52631 2.53 255 255 255
-0.443324 -0.25624 2.356 255 255 255
-0.209056 -0.00622221 2.085 255 255 255
0.253342 -0.340881 2.037 255 255 255
-0.587389 -0.0840094 2.166 255 255 255
-0.810504 -0.562473 1.624 255 255 255
-0.602202 0.107919 1.941 255 255 255
0.188554 0.129959 0.578 255 255 255
-0.0519876 0.204289 1.815 255 255 255
0.207553 0.225995 0.606 255 255 255
0.236034 0.113177 1.923 255 255 255
0.242581 -0.651569 1.705 255 255 255
0.339683 -0.247206 1.691 255 255 255
-0.356759 0.195974 1.848 255 255 255
0.467862 -0.16235 1.176 255 255 255
0.35967 -0.124688 1.748 255 255 255
-0.732857 -0.336173 1.616 255 255 255
0.157239 0.0956902 0.638 255 255 255
0.130413 0.223398 0.644 255 255 255
-0.555824 0.513793 1.396 255 255 255
0.19165 -0.576859 2.051 255 255 255
0.468755 -0.0793613 1.289 255 255 255
0.458151 -0.322821 1.085 255 255 255
0.0527173 0.234493 0.618 255 255 255
0.241109 0.136266 0.669 255 255 255
0.248253 0.0885131 0.624 255 255 255
0.256345 -0.638821 1.686 255 255 255
0.177588 0.13607 0.576 255 255 255
-0.597501 -0.933166 2.707 255 255 255
-0.747321 -0.638019 2.707 255 255 255
-0.632823 -0.170796 1.366 255 255 255
-0.572328 0.0924129 1.132 255 255 255
-0.235057 -0.499608 2.383 255 255 255
0.195855 -0.182709 2.253 255 255 255
0.464303 -0.245584 1.087 255 255 255
0.116224 0.108241 0.593 255 255 255
-0.595764 0.270161 1.763 255 255 255
0.36601 0.17357 1.899 255 255 255
-0.210174 0.468688 1.491 255 255 255
-0.175433 -0.147932 2.173 255 255 255
-0.895944 -0.909517 2.626 255 255 255
0.239552 0.0964322 0.65 255 255 255
0.316723 -0.42207 1.686 255 255 255
-0.647378 -0.161667 1.229 255 255 255
-0.00509034 0.086604 1.959 255 255 255
-0.520185 -0.353577 2.392 255 255 255
0.154675 0.212343 0.636 255 255 255
-0.0559404 0.0958733 1.953 255 255 255
0.182802 -0.644224 1.991 255 255 255
0.328556 -0.538801 1.513 255 255 255
0.281378 -0.190488 2.024 255 255 255
0.393369 -0.236425 1.516 255 255 255
0.458582 -0.227576 1.167 255 255 255
0.234596 0.207243 1.815 255 255 255
0.227872 -0.465544 2.017 255 255 255
-0.0344456 0.0460368 1.997 255 255 255
0.379613 -0.436362 1.322 255 255 255
-0.668154 -1.021 2.638 255 255 255
0.497186 -0.063156 1.182 255 255 255
-0.237312 -0.677789 2.329 255 255 255
-0.726473 0.053957 2.051 255 255 255
0.328719 -0.0155123 1.972 255 255 255
0.283007 0.222289 0.629 255 255 255
0.259426 0.121008 0.624 255 255 255
-0.479761 0.252281 0.974 255 255 255
-0.738628 -0.233236 2.356 255 255 255
0.252681 0.101248 0.615 255 255 255
-0.688669 -0.848808 2.719 255 255 255
0.316085 0.208471 0.64 255 255 255
0.406291 -0.0757168 1.509 255 255 255
-0.351883 -0.0817211 2.107 255 255 255
-0.910711 -0.911487 2.695 255 255 255
0.304746 0.0846805 0.611 0 0 0
0.241668 0.113356 0.65 255 255 255
0.381266 0.0829624 1.81 255 255 255
0.127984 0.205267 0.653 255 255 255
0.427661 -0.39774 1.176 255 255 255
-0.542253 -0.136189 2.212 0 0 0
0.310443 0.146147 0.65 255 255 255
-0.356634 -0.95861 2.53 255 255 255
0.133279 -0.530179 2.189 255 255 255
-0.400979 -0.760314 2.719 255 255 255
0.249135 0.216834 0.634 255 255 255
-0.0428878 0.225133 0.649 255 255 255
0.156526 0.120659 0.561 255 255 255
-0.187659 0.364509 1.633 255 255 255
-0.633949 0.308044 1.734 255 255 255
0.101534 -0.460402 2.196 255 255 255
0.134194 0.114954 0.583 255 255 255
0.139893 -0.553086 2.181 255 255 255
-0.697521 -0.769164 2.719 255 255 255
0.196135 0.164408 0.623 255 255 255
-0.0191212 -0.522044 2.099 255 255 255
-0.394128 0.506174 1.48 255 255 255
0.455237 -0.317043 1.108 255 255 255
-0.594001 0.34704 1.677 255 255 255
0.0764616 0.234977 1.779 255 255 255
0.2525 -0.381015 2.004 255 255 255
-0.39002 0.412094 1.591 255 255 255
-0.405268 -0.973237 2.66 255 255 255
0.453209 -0.342431 1.053 255 255 255
0.449508 -0.0522444 1.406 255 255 255
0.357361 -0.0921595 1.779 255 255 255
0.489719 0.0523387 1.278 255 255 255
-0.855962 -0.630441 1.929 255 255 255
-0.762864 0.0305727 1.848 255 255 255
-0.721925 0.0962865 1.784 255 255 255
0.416197 -0.201867 1.322 255 255 255
0.30012 0.153658 0.646 255 255 255
0.456732 -0.0307517 1.366 255 255 255
0.152772 0.122222 0.564 255 255 255
0.402232 -0.434279 1.203 255 255 255
0.311392 0.193798 0.661 255 255 255
-0.214556 0.538986 1.439 255 255 255
-0.252035 0.538986 1.439 255 255 255
0.195619 0.0882373 0.615 255 255 255
-0.401799 -0.0370059 2.099 0 0 0
-0.593884 -0.174225 2.286 255 255 255
0.336203 0.0130374 1.923 255 255 255
-0.489416 0.412449 1.087 255 255 255
-0.832628 -0.237661 1.978 255 255 255
0.213428 0.204638 0.651 255 255 255
0.439749 -0.223157 1.26 255 255 255
0.54281 0.0366487 1.064 255 255 255
0.0659423 0.229454 0.629 255 255 255
-0.706496 -0.353225 1.384 255 255 255
0.483549 -0.272934 1.03 255 255 255
