ply
format ascii 1.0
comment Created by Open3D
element vertex 1296
property double x
property double y
property double z
property uchar red
property uchar green
property uchar blue
end_header
0.352774 -0.294869 1.815 255 255 255
0.00349611 0.241479 0.631 255 255 255
-0.0199609 0.251595 1.859 255 255 255
-0.493949 0.00403834 2.128 255 255 255
-0.752035 -0.521592 1.612 255 255 255
0.480048 -0.383753 1.192 255 255 255
-0.785503 -0.87327 2.672 255 255 255
0.408675 -0.0852232 1.595 255 255 255
-0.542343 0.0346998 1.319 255 255 255
-0.152119 0.163246 1.923 255 255 255
0.249329 -0.647398 1.905 255 255 255
-0.78323 -0.0762114 2.051 255 255 255
0.462677 0.231174 1.668 255 255 255
-0.473519 0.409414 1.079 255 255 255
-0.400938 -0.605298 2.66 255 255 255
-0.401882 0.25612 1.848 255 255 255
0.238948 -0.450703 2.085 255 255 255
0.243954 0.244659 0.626 255 255 255
-0.456095 -0.661453 2.731 255 255 255
0.345089 -0.226698 1.837 255 255 255
-0.647253 -0.697006 2.731 255 255 255
-0.178884 0.460377 1.579 255 255 255
0.380973 0.0572954 1.837 255 255 255
0.506895 0.161001 1.473 255 255 255
0.53674 0.0349324 1.12 255 255 255
0.54067 0.0128512 1.102 255 255 255
-0.131523 0.322153 1.734 255 255 255
0.400046 0.00344435 1.815 255 255 255
-0.0132868 0.235331 0.648 255 255 255
0.131065 0.185057 0.71 255 255 255
0.303748 0.10026 0.609 255 255 255
-0.618652 0.0386679 2.128 255 255 255
-0.435118 -0.188659 2.374 255 255 255
0.467415 -0.274769 1.225 255 255 255
0.198135 -0.0626285 2.158 255 255 255
-0.0732094 0.3692 1.691 255 255 255
-0.5521 -0.00636862 1.381 0 0 0
0.291106 0.194958 0.647 255 255 255
0.432118 -0.325212 1.409 255 255 255
0.00810337 -0.208392 2.071 255 255 255
-0.0873374 0.391518 1.646 255 255 255
-0.862222 -0.284801 2.22 255 255 255
-0.896974 -0.719479 2.329 255 255 255
-0.587389 -0.00293914 2.166 255 255 255
-0.793956 -0.96366 2.731 255 255 255
0.0615072 0.199955 0.682 255 255 255
-0.72738 -0.474156 1.543 255 255 255
-0.527864 0.0697218 1.254 255 255 255
-0.538872 0.454962 1.587 255 255 255
-0.0283744 0.209636 0.681 255 255 255
-0.1985 0.236469 1.859 255 255 255
0.472029 0.0317957 1.484 255 255 255
0.035547 -0.0370059 2.099 255 255 255
-0.259884 0.433462 1.603 255 255 255
0.275691 0.124992 0.604 0 0 0
0.385601 -0.0584497 1.724 255 255 255
0.287811 0.0858427 0.642 255 255 255
-0.450207 0.291613 1.789 255 255 255
0.0331252 0.226895 0.648 255 255 255
0.0609195 0.236996 0.63 255 255 255
0.551998 0.121762 1.114 255 255 255
-0.600117 -0.899649 2.66 255 255 255
0.158479 0.157288 0.568 255 255 255
-0.727444 -0.260318 1.381 255 255 255
-0.0870025 -0.204511 2.173 255 255 255
-0.571221 -0.0460071 1.357 255 255 255
0.530388 0.0929327 1.237 255 255 255
0.424944 -0.276181 1.393 255 255 255
-0.178702 -0.29458 2.356 255 255 255
-0.0517012 0.276597 1.805 255 255 255
-0.55058 0.424135 1.4 255 255 255
-0.460374 0.279843 0.944 255 255 255
0.411863 -0.307632 1.539 255 255 255
-0.0250273 -0.154257 2.024 255 255 255
-0.108942 0.324974 1.734 255 255 255
0.0562006 0.232525 1.876 255 255 255
0.208189 -0.100917 2.228 255 255 255
0.215458 0.161116 1.935 255 255 255
-0.305945 0.537339 1.473 255 255 255
-0.52107 0.416969 1.62 255 255 255
0.55905 -0.337484 1.11 255 255 255
0.275084 0.117711 0.607 255 255 255
0.124896 -0.719526 1.899 255 255 255
-0.367095 0.240911 1.87 255 255 255
-0.402979 0.345544 1.724 255 255 255
-0.56214 -0.110596 2.278 255 255 255
0.344258 -0.475371 1.7 255 255 255
-0.490494 0.532667 1.48 255 255 255
0.449845 -0.394215 1.237 255 255 255
-0.738393 -0.0827884 2.228 255 255 255
-0.554785 -0.714036 2.78 255 255 255
0.285569 0.217463 0.661 255 255 255
-0.0376963 -0.106703 1.997 255 255 255
0.0390693 0.148521 1.935 255 255 255
0.173732 0.1422 0.549 255 255 255
0.509976 -0.380516 1.176 255 255 255
-0.422834 0.507377 1.505 255 255 255
-0.388803 0.187694 1.917 255 255 255
0.524676 -0.420609 1.192 255 255 255
-0.540826 -0.694165 2.755 255 255 255
0.504926 -0.120499 1.16 255 255 255
-0.298833 0.482519 1.535 255 255 255
-0.51944 0.530347 1.487 255 255 255
-0.0203834 0.243501 0.639 255 255 255
-0.327533 -0.0842809 2.173 255 255 255
0.251517 0.217792 0.662 255 255 255
-0.154962 0.46827 1.571 255 255 255
-0.0159812 -0.253169 2.136 255 255 255
-0.32611 -0.115834 2.236 255 255 255
-0.105165 0.197669 1.923 255 255 255
-0.0216763 0.302861 1.753 255 255 255
0.194626 0.129952 0.638 255 255 255
-0.297155 0.431929 1.607 255 255 255
-0.877234 -0.92995 2.66 255 255 255
0.0179179 -0.165193 2.037 255 255 255
0.114309 -0.696362 1.929 255 255 255
0.377466 -0.182127 1.7 255 255 255
-0.163435 -0.265467 2.303 255 255 255
-0.238059 -0.120909 2.196 255 255 255
-0.489346 -0.175726 2.356 255 255 255
-0.537684 -0.0206803 1.173 255 255 255
-0.533614 -0.0619805 1.16 255 255 255
-0.164484 0.0609337 0.343 255 255 255
-0.719397 0.105732 1.959 255 255 255
0.135185 0.206525 0.657 255 255 255
-0.558343 -0.808112 2.731 255 255 255
-0.243222 0.470973 1.563 255 255 255
0.100466 -0.177052 2.099 255 255 255
0.358683 -0.191493 1.815 255 255 255
0.227408 -0.496487 2.136 255 255 255
0.116647 0.202053 0.693 255 255 255
0.353597 -0.40463 1.705 255 255 255
0.217198 -0.420218 2.173 255 255 255
-0.437905 0.155298 1.941 255 255 255
-0.454747 0.376658 1.01 0 0 0
-0.737159 -0.269347 2.44 255 255 255
-0.431926 -0.761539 2.805 255 255 255
0.133746 0.209988 1.893 255 255 255
0.284601 0.244419 0.628 255 255 255
-0.536606 -0.0104809 1.104 255 255 255
-0.641128 -0.22112 1.547 255 255 255
-0.730247 -0.511338 1.664 255 255 255
-0.617949 0.305625 1.769 255 255 255
0.0345565 0.209197 0.676 255 255 255
-0.208723 0.129747 1.985 255 255 255
0.405159 -0.0861315 1.612 255 255 255
0.298769 -0.582713 1.81 255 255 255
0.190436 0.120311 0.631 255 255 255
-0.769112 -0.480831 1.972 255 255 255
-0.600483 -0.221353 1.31 255 255 255
-0.0880814 -0.443211 2.114 255 255 255
-0.651354 -0.313079 1.406 255 255 255
-0.475008 0.232058 1.055 255 255 255
-0.523236 0.437358 1.336 255 255 255
-0.543574 -0.0415318 1.225 255 255 255
0.317367 0.074287 0.66 255 255 255
-0.186467 0.0927712 2.024 255 255 255
0.129624 0.247143 0.635 255 255 255
0.181458 -0.209251 2.303 255 255 255
0.201737 -0.30707 2.278 255 255 255
-0.776804 -0.842833 2.672 255 255 255
0.0354256 0.193031 0.693 255 255 255
0.264621 -0.473927 1.997 255 255 255
0.14446 0.175327 0.598 0 0 0
-0.00508766 0.214861 0.68 255 255 255
-0.751178 -0.138583 2.312 255 255 255
0.469566 -0.427519 1.252 255 255 255
0.152054 0.17467 0.586 255 255 255
-0.10108 -0.687698 1.905 255 255 255
0.0180938 -0.0295706 2.057 255 255 255
0.301562 0.219021 0.656 255 255 255
-0.583142 0.347549 1.734 255 255 255
-0.627324 -0.131238 1.225 255 255 255
-0.899479 -0.913172 2.649 255 255 255
-0.224159 0.487698 1.52 255 255 255
0.283609 0.223674 0.654 255 255 255
-0.280399 -0.781316 2.626 255 255 255
0.47042 0.119732 1.629 255 255 255
0.394414 -0.128827 1.655 255 255 255
0.520098 -0.416175 1.213 255 255 255
0.549861 -0.377332 1.132 255 255 255
-0.409301 0.41594 1.616 255 255 255
0.560156 0.114653 1.098 255 255 255
0.0469319 -0.405463 2.151 255 255 255
0.287768 -0.58751 1.853 255 255 255
-0.0305828 0.23753 0.657 255 255 255
0.437339 -0.3019 1.308 255 255 255
-0.111756 0.238631 1.876 255 255 255
0.221125 0.118306 0.6 255 255 255
0.540163 -0.0155687 1.083 255 255 255
-0.802137 -0.894663 2.684 255 255 255
0.144803 0.178335 1.917 255 255 255
-0.406905 0.317125 1.753 255 255 255
-0.750644 -0.661405 2.768 255 255 255
-0.0711102 -0.434324 2.121 255 255 255
-0.46257 0.254237 1.02 255 255 255
0.132011 0.208895 0.668 255 255 255
0.518972 -0.177649 1.072 255 255 255
-0.30499 0.520625 1.48 255 255 255
0.068485 0.345544 1.724 255 255 255
0.47074 -0.201291 1.239 255 255 255
0.440177 -0.340974 1.336 255 255 255
-0.546205 0.515824 1.494 255 255 255
-0.668033 -0.327699 1.551 255 255 255
-0.800986 -0.650898 1.779 255 255 255
-0.479085 0.412294 1.156 255 255 255
-0.446242 -1.02981 2.672 255 255 255
0.357357 0.0704041 2.044 255 255 255
0.431521 -0.135634 1.52 255 255 255
0.158386 -0.491139 2.143 255 255 255
0.579333 -0.472485 1.247 255 255 255
-0.697788 0.0684234 2.085 255 255 255
0.138516 0.306586 1.758 255 255 255
-0.544397 0.540833 1.463 255 255 255
0.370459 -0.43086 1.587 255 255 255
0.278083 -0.424342 2.024 255 255 255
-0.778115 0.0173521 2.064 255 255 255
-0.578656 -0.793808 2.743 255 255 255
-0.173774 0.443897 1.603 255 255 255
-0.360543 -0.248478 2.392 255 255 255
-0.0740706 -0.448601 2.107 255 255 255
-0.0489729 -0.67125 1.929 255 255 255
-0.296938 0.30982 1.744 255 255 255
-0.04809 -0.114733 2.024 255 255 255
0.497775 -0.280742 1.053 0 0 0
0.506128 -0.454923 1.227 255 255 255
-0.300693 0.0548514 2.085 0 0 0
-0.488183 0.186541 1.192 255 255 255
-0.64184 0.0144814 2.136 255 255 255
-0.59896 0.377456 1.691 255 255 255
0.49911 -0.149714 1.182 255 255 255
-0.474926 0.237178 1.004 255 255 255
-0.580387 -1.00801 2.649 255 255 255
0.27612 0.156799 0.625 255 255 255
-0.098199 0.453168 1.563 255 255 255
-0.38634 -0.325101 2.383 255 255 255
-0.245622 0.270722 1.805 255 255 255
0.507872 -0.0519206 1.189 255 255 255
0.203742 0.0314287 2.107 255 255 255
-0.619434 -0.166682 1.283 255 255 255
0.400307 -0.283485 1.646 255 255 255
0.362961 -0.399113 1.659 255 255 255
-0.362847 0.416969 1.62 255 255 255
-0.665993 0.196298 1.744 255 255 255
0.462712 -0.18431 1.351 255 255 255
0.524019 -0.0692025 1.124 255 255 255
0.170518 0.159216 0.565 255 255 255
0.183539 0.101877 0.625 255 255 255
0.194622 -0.508624 2.158 255 255 255
0.198236 0.153591 0.568 255 255 255
0.466084 -0.313029 1.196 255 255 255
-0.855487 -0.369973 2.449 255 255 255
0.168918 0.196718 0.595 255 255 255
0.458738 0.0300935 1.52 255 255 255
0.0351716 0.417533 1.612 255 255 255
-0.764117 -0.552657 1.691 255 255 255
0.1492 0.142384 0.575 255 255 255
-0.562902 -0.00854109 1.369 255 255 255
-0.127216 0.349119 1.714 255 255 255
0.0631208 -0.0645771 2.107 255 255 255
-0.287147 0.441681 1.595 255 255 255
0.454372 -0.161829 1.466 255 255 255
0.0938389 0.211084 0.675 255 255 255
0.394579 -0.541882 1.406 255 255 255
-0.461955 0.286025 1.015 255 255 255
0.0416739 -0.0733357 2.064 255 255 255
0.0533011 0.233409 0.637 255 255 255
0.345117 -0.577106 1.543 255 255 255
0.509549 -0.232903 1.002 255 255 255
0.284505 -0.189263 2.121 255 255 255
0.173824 0.14827 0.555 255 255 255
0.0244652 -0.564346 2.03 255 255 255
0.351802 -0.226311 1.81 255 255 255
-0.0340144 -0.596358 1.972 255 255 255
0.425492 -0.152752 1.543 255 255 255
-0.36368 0.428026 1.612 255 255 255
-0.478074 0.440574 1.591 255 255 255
-0.324147 -0.655431 2.743 255 255 255
-0.5897 0.437592 1.571 255 255 255
-0.0858013 -0.407442 2.143 255 255 255
0.438008 -0.283175 1.31 255 255 255
-0.362105 0.530347 1.487 255 255 255
-0.495139 -0.107639 2.294 0 0 0
0.21824 0.342738 1.71 255 255 255
-0.454316 0.364708 0.941 255 255 255
0.0248749 -0.194253 2.064 255 255 255
-0.551654 -0.509949 2.615 255 255 255
0.253342 -0.49005 2.037 255 255 255
0.544881 0.111283 1.118 255 255 255
0.401951 0.0597264 1.734 255 255 255
0.502327 0.0213248 1.289 255 255 255
-0.761556 -0.972886 2.695 255 255 255
0.38746 -0.23132 1.637 255 255 255
0.321878 -0.387207 1.876 255 255 255
0.300271 0.1073 0.604 255 255 255
-0.536978 0.48499 1.559 255 255 255
-0.312806 -0.553979 2.684 255 255 255
-0.634918 -0.232337 1.324 255 255 255
-0.438334 0.399554 1.646 255 255 255
-0.0431242 0.272222 1.815 255 255 255
0.434927 -0.189059 1.532 255 255 255
-0.446713 -0.930415 2.649 255 255 255
-0.472031 0.23813 0.981 255 255 255
-0.608629 -0.114169 1.498 255 255 255
0.0510276 0.187106 1.911 255 255 255
0.206215 0.242761 0.629 255 255 255
0.386073 -0.337005 1.62 255 255 255
-0.675607 -0.385751 1.551 255 255 255
0.109017 0.23006 0.654 255 255 255
-0.71573 0.102957 2.03 255 255 255
-0.455965 0.321532 1.039 255 255 255
0.518649 -0.429806 1.196 255 255 255
-0.115504 -0.566846 2.051 255 255 255
-0.509404 0.0749568 2.078 255 255 255
0.500136 -0.480492 1.252 255 255 255
0.503758 -0.241664 1.062 255 255 255
0.206298 0.113626 0.617 255 255 255
-0.380521 -0.452231 2.42 255 255 255
0.499057 -0.018257 1.27 255 255 255
-0.0998307 0.155298 1.941 255 255 255
0.212861 -0.24405 2.278 255 255 255
-0.848005 -0.645272 2.719 255 255 255
-0.483439 0.212404 1.114 255 255 255
0.163337 0.31622 1.748 255 255 255
-0.699706 -0.96458 2.66 255 255 255
-0.776878 -0.22964 2.44 255 255 255
-0.39261 -0.215702 2.374 255 255 255
-0.221505 0.50881 1.502 255 255 255
-0.424596 -0.0668452 2.181 255 255 255
-0.700411 -0.437221 1.528 255 255 255
-0.314055 0.204473 1.899 255 255 255
-0.549616 0.0134661 1.342 255 255 255
0.302415 0.00732504 2.078 255 255 255
0.0277907 0.243487 0.623 255 255 255
-0.268146 0.289983 1.779 255 255 255
0.140855 -0.185234 2.196 255 255 255
0.47987 -0.168093 1.247 255 255 255
-0.334651 -0.580185 2.684 255 255 255
-0.29138 -0.978709 2.572 0 0 0
0.154391 0.0110055 2.136 255 255 255
-0.286763 0.539736 1.473 255 255 255
-0.115118 0.462309 1.551 255 255 255
0.460979 -0.289411 1.203 255 255 255
0.274225 0.0847979 0.642 255 255 255
0.279431 0.118297 2.01 255 255 255
-0.599721 -0.232543 1.313 255 255 255
0.209975 0.127476 0.616 255 255 255
0.289434 0.21069 0.66 255 255 255
-0.41234 0.214893 1.882 255 255 255
-0.457734 0.524494 1.491 255 255 255
0.0134471 0.221275 0.666 255 255 255
0.371392 -0.42159 1.591 255 255 255
-0.246408 -0.400254 2.54 255 255 255
0.4 0.138385 1.842 255 255 255
0.309628 0.175204 0.629 255 255 255
-0.687785 -0.251386 2.42 255 255 255
0.306108 -0.400651 1.911 255 255 255
-0.768934 -0.261405 2.44 255 255 255
0.348012 -0.278064 1.821 255 255 255
-0.651525 -0.30842 2.374 255 255 255
-0.485179 -0.850088 2.695 255 255 255
-0.295011 0.404785 1.624 255 255 255
-0.535895 0.0567192 1.283 255 255 255
0.496656 -0.224362 1.141 255 255 255
0.411406 -0.248243 1.528 255 255 255
-0.168251 0.0607276 0.345 255 255 255
-0.964338 -0.674482 2.626 255 255 255
-0.263499 0.543605 1.477 255 255 255
0.503331 -0.0181132 1.26 255 255 255
0.270166 0.148187 0.623 255 255 255
0.101793 0.408475 1.587 255 255 255
-0.312164 -0.171102 2.294 255 255 255
0.0813006 0.238666 0.629 255 255 255
-0.889085 -0.692721 1.805 255 255 255
-0.496203 0.443163 1.591 255 255 255
-0.872493 -0.834136 2.672 255 255 255
-0.378298 -0.908567 2.78 255 255 255
0.410858 0.0958536 1.724 255 255 255
0.284232 0.234875 0.641 255 255 255
-0.416064 0.198292 1.899 255 255 255
0.216165 -0.0271283 2.128 255 255 255
0.184099 0.219545 0.61 255 255 255
-0.131996 -0.47018 2.278 255 255 255
0.0210982 -0.157551 2.024 255 255 255
0.543156 -0.419708 1.089 255 255 255
0.0857254 -0.469994 2.158 255 255 255
-0.436551 0.161116 1.935 255 255 255
0.305982 -0.589285 1.734 255 255 255
0.278606 -0.630111 1.794 255 255 255
-0.283307 0.520625 1.48 255 255 255
-0.156927 0.324974 1.734 255 255 255
-0.382441 0.27275 1.799 255 255 255
0.518481 -0.0148517 1.165 255 255 255
-0.252597 -0.911047 2.479 0 0 0
0.377182 -0.106143 1.724 255 255 255
-0.0115793 -0.0863743 1.978 255 255 255
0.0781528 -0.473702 2.143 255 255 255
0.200072 0.124024 0.629 255 255 255
-0.806104 -0.66224 1.81 255 255 255
-0.224508 0.0679639 2.071 255 255 255
-0.607772 -0.113102 1.484 255 255 255
0.491413 -0.18049 1.182 255 255 255
0.327985 -0.436053 1.876 255 255 255
-0.152989 0.10558 2.017 255 255 255
0.127706 -0.624784 1.991 255 255 255
0.495913 -0.49049 1.262 0 0 0
-0.578591 -0.365255 2.392 255 255 255
-0.0673912 -0.710748 1.917 255 255 255
-0.528344 0.239494 1.859 255 255 255
-0.617024 -0.200038 1.449 255 255 255
-0.832241 -0.574269 1.62 255 255 255
-0.290726 0.351155 1.724 255 255 255
0.321878 0.253895 1.876 255 255 255
-0.848313 -0.593344 2.212 255 255 255
0.539341 0.0913152 1.165 255 255 255
-0.575302 -0.0487483 1.372 255 255 255
0.136497 0.189987 0.648 255 255 255
0.282015 0.0705507 0.636 255 255 255
-0.657331 -0.348141 1.409 255 255 255
-0.449795 0.367679 0.999 255 255 255
-0.590024 0.304589 1.763 255 255 255
0.538619 -0.0563111 1.087 255 255 255
0.346158 -0.539961 1.559 255 255 255
0.0572491 0.193326 1.911 255 255 255
-0.244832 0.551485 1.466 255 255 255
-0.743865 -0.350047 2.449 255 255 255
0.326499 0.142164 1.978 255 255 255
-0.279287 0.558349 1.459 255 255 255
-0.375722 -0.341889 2.365 255 255 255
0.419775 -0.452622 1.313 255 255 255
0.102236 -0.524295 2.136 255 255 255
0.142515 0.15083 0.586 255 255 255
-0.0191212 -0.23512 2.099 255 255 255
0.524527 0.10383 1.247 255 255 255
-0.750814 -0.184438 2.42 255 255 255
0.446647 0.21901 1.7 255 255 255
0.34591 -0.335294 1.81 255 255 255
-0.523257 0.262636 1.81 255 255 255
-0.0114531 0.227094 0.664 255 255 255
-0.140576 -0.0845912 2.181 255 255 255
0.46294 -0.281666 1.229 255 255 255
-0.764962 -0.265376 2.44 255 255 255
-0.591201 0.43358 1.575 255 255 255
0.0242676 0.289168 1.774 255 255 255
-0.702272 -0.779348 2.755 255 255 255
0.370223 -0.54613 1.473 255 255 255
-0.0661147 0.11927 1.972 255 255 255
-0.754078 -0.545243 2.684 255 255 255
-0.492297 0.254357 1.165 255 255 255
-0.465644 0.557774 1.47 255 255 255
0.380715 -0.455131 1.505 255 255 255
-0.0192222 0.247143 0.635 255 255 255
0.385844 -0.456947 1.487 255 255 255
-0.452426 0.136619 1.991 255 255 255
0.0667903 -0.729466 1.917 255 255 255
0.552632 0.121106 1.108 255 255 255
-0.572181 -0.128597 1.299 255 255 255
0.0939889 -0.215444 2.107 255 255 255
0.0338196 -0.58442 1.997 255 255 255
-0.145104 -0.0168574 2.143 255 255 255
0.0848136 -0.129614 2.051 0 0 0
0.188039 -0.589815 2.085 255 255 255
0.466271 -0.405343 1.222 255 255 255
-0.723674 0.123341 1.887 255 255 255
0.262757 0.15048 0.637 255 255 255
-0.100826 -0.161555 2.166 255 255 255
0.123889 0.360276 1.714 255 255 255
-0.253675 -0.839213 2.53 255 255 255
0.0945449 0.217216 0.657 255 255 255
0.192783 0.0983514 0.622 255 255 255
0.48693 0.0725927 1.345 255 255 255
0.460971 -0.14922 1.372 255 255 255
0.387648 0.192112 1.899 255 255 255
-0.638915 -0.221734 2.356 255 255 255
0.467769 0.127685 1.629 255 255 255
-0.563016 -0.37304 2.392 255 255 255
-0.730423 -0.387239 1.805 255 255 255
0.0157717 0.242761 0.629 255 255 255
0.203154 -0.174835 2.294 255 255 255
0.297448 -0.506269 1.876 255 255 255
-0.905544 -0.640847 2.719 255 255 255
0.0618586 0.215637 0.662 255 255 255
0.103258 -0.725706 1.899 255 255 255
0.29096 0.116743 0.597 255 255 255
0.258006 0.199955 0.682 255 255 255
-0.21473 0.362866 1.7 255 255 255
-0.535367 -0.302248 2.356 255 255 255
0.414454 0.253798 1.853 255 255 255
-0.899479 -0.844199 2.649 255 255 255
-0.455035 0.364732 1.018 255 255 255
-0.515 0.506342 1.524 255 255 255
-0.588351 0.306586 1.758 255 255 255
-0.287542 0.529184 1.477 255 255 255
0.265648 0.0950902 0.634 255 255 255
-0.628443 -0.138787 1.239 255 255 255
0.257946 -0.612833 1.923 255 255 255
0.0614432 0.0572946 2.051 255 255 255
-0.26991 -0.17171 2.253 255 255 255
0.268744 0.162152 0.634 255 255 255
-0.604748 -0.225617 1.31 255 255 255
-0.428149 -1.00797 2.695 255 255 255
-0.457659 0.281233 0.981 255 255 255
0.287817 0.203827 1.893 255 255 255
0.381114 0.0678868 1.882 255 255 255
-0.84656 -0.557229 2.743 255 255 255
-0.552424 -0.167416 2.347 255 255 255
0.506895 0.204148 1.473 255 255 255
0.504061 -0.0427436 1.203 255 255 255
0.497358 -0.128667 1.201 255 255 255
-0.425852 0.408682 1.629 255 255 255
-0.65873 -0.360371 1.412 255 255 255
-0.282044 -0.701945 2.768 255 255 255
0.429113 -0.17077 1.547 255 255 255
-0.337343 0.397369 1.637 255 255 255
0.0166493 0.221692 0.664 255 255 255
-0.26444 -0.191392 2.269 255 255 255
0.336196 0.21466 0.659 255 255 255
0.515484 0.185474 1.477 255 255 255
-0.481795 0.19477 1.149 255 255 255
0.472679 -0.479764 1.294 255 255 255
0.28212 -0.256439 2.078 255 255 255
0.0856406 -0.552152 2.071 255 255 255
-0.534397 -0.0161294 1.122 255 255 255
0.240283 -0.70437 1.859 255 255 255
0.416805 -0.0556768 1.567 255 255 255
-0.291056 -0.674918 2.768 255 255 255
0.0558112 0.187662 0.694 255 255 255
-0.515706 -0.926104 2.649 255 255 255
-0.247354 0.375812 1.696 255 255 255
-0.27882 -0.43041 2.572 255 255 255
-0.758392 -0.96366 2.731 255 255 255
-0.5518 0.330128 1.342 255 255 255
-0.587182 -0.150997 1.348 255 255 255
0.379164 -0.21553 1.659 255 255 255
0.304711 0.23689 0.638 255 255 255
0.326868 0.0878348 0.649 255 255 255
0.0160374 0.209446 0.684 255 255 255
0.19514 0.170404 0.578 255 255 255
0.149325 0.111075 0.614 255 255 255
0.480378 -0.284333 1.06 255 255 255
0.42161 -0.405645 1.286 255 255 255
-0.795628 -0.635551 1.935 255 255 255
0.306609 0.24779 1.876 255 255 255
-0.328165 0.318334 1.744 255 255 255
-0.554497 -0.0792543 1.137 255 255 255
-0.541502 -0.352247 2.383 255 255 255
-0.696602 -0.224074 1.339 255 255 255
-0.373973 -1.03443 2.684 255 255 255
0.466886 0.216921 1.547 255 255 255
-0.674849 -0.20261 2.402 255 255 255
-0.0543133 0.40906 1.62 255 255 255
-0.181142 -0.775526 2.338 255 255 255
0.256459 0.233152 0.642 255 255 255
-0.384192 0.15214 1.941 255 255 255
-0.118087 0.435396 1.591 255 255 255
0.312157 -0.588431 1.691 255 255 255
-0.676468 -0.384923 1.435 255 255 255
0.257573 0.0862107 0.637 255 255 255
-0.586824 0.268135 1.456 255 255 255
-0.411877 0.55387 1.466 255 255 255
0.463385 -0.269628 1.16 255 255 255
-0.266421 0.385247 1.677 255 255 255
-0.196181 -0.398738 2.43 255 255 255
0.0316744 0.232425 0.64 255 255 255
-0.188819 0.3692 1.691 255 255 255
-0.00552947 -0.411516 2.128 255 255 255
0.313694 0.177815 0.631 255 255 255
-0.871738 -0.462533 2.519 255 255 255
0.350756 -0.146102 1.917 255 255 255
0.524048 -0.0731201 1.128 255 255 255
-0.648824 -0.339984 1.473 255 255 255
0.214286 -0.648068 2.044 255 255 255
-0.606963 -0.482748 2.561 255 255 255
-0.169067 0.354697 1.714 255 255 255
0.144423 0.161319 0.586 255 255 255
0.147586 -0.255014 2.244 255 255 255
0.0231033 -0.69203 1.917 255 255 255
0.123729 0.170034 1.929 255 255 255
-0.460239 0.37706 1.677 255 255 255
0.243591 0.148505 0.633 0 0 0
-0.410503 -0.434855 2.411 255 255 255
-0.547989 -0.0175712 1.098 255 255 255
0.430679 -0.30811 1.354 255 255 255
0.251726 0.0927712 2.024 255 255 255
0.253109 0.284193 1.779 255 255 255
0.122351 0.231115 0.657 255 255 255
-0.368792 0.253113 1.848 255 255 255
-0.0646591 -0.409587 2.136 255 255 255
-0.237673 0.551485 1.466 255 255 255
0.386219 -0.413449 1.47 255 255 255
-0.0268254 0.224785 0.67 255 255 255
0.449883 -0.187975 1.429 255 255 255
0.161988 0.212248 0.609 255 255 255
-0.287792 -0.67332 2.78 255 255 255
0.0807403 0.265581 1.81 255 255 255
0.098522 0.219753 0.655 255 255 255
-0.279904 0.321172 1.744 255 255 255
0.511908 -0.0115537 1.217 255 255 255
-0.551273 0.542984 1.456 255 255 255
0.202072 0.148827 0.571 255 255 255
-0.874827 -0.592647 2.805 255 255 255
-0.212011 0.426459 1.616 255 255 255
0.509101 -0.223612 1.092 255 255 255
0.425157 0.186284 1.784 255 255 255
0.300817 0.180153 0.632 255 255 255
-0.551018 0.0385407 2.121 255 255 255
0.138337 0.123394 0.601 255 255 255
0.0486691 -0.68806 1.941 255 255 255
-0.201359 0.491349 1.516 255 255 255
-0.371118 -1.00359 2.695 255 255 255
0.0562348 -0.645513 1.985 255 255 255
-0.506309 0.166722 1.189 255 255 255
-0.260747 -0.191392 2.269 255 255 255
0.331036 -0.398175 1.842 255 255 255
0.552019 -0.40553 1.089 255 255 255
-0.818129 -0.710981 1.837 255 255 255
-0.472719 0.228572 1.024 255 255 255
-0.368122 0.416969 1.62 255 255 255
0.324772 -0.316685 1.911 255 255 255
-0.541546 0.55688 1.449 255 255 255
0.482084 0.0335652 1.456 255 255 255
-0.349326 0.175764 1.923 255 255 255
0.488294 -0.247066 1.126 255 255 255
-0.647479 -0.257334 2.402 255 255 255
0.414412 -0.308362 1.494 255 255 255
-0.56205 -0.503566 2.604 255 255 255
0.525435 -0.0387517 1.143 255 255 255
0.531034 0.036679 1.176 255 255 255
-0.520361 0.0878286 1.222 255 255 255
0.0286158 0.200635 0.692 255 255 255
-0.387674 0.473383 1.571 255 255 255
0.170947 -0.67452 2.004 255 255 255
0.48366 -0.0433146 1.342 255 255 255
-0.477586 -0.720457 2.805 255 255 255
-0.4371 -0.115557 2.303 255 255 255
-0.482933 -0.90233 2.707 255 255 255
0.122907 0.194672 0.703 255 255 255
-0.554305 0.10034 2.044 255 255 255
-0.824506 -0.537813 1.575 255 255 255
-0.718341 -0.0279059 2.189 255 255 255
-0.109688 0.228471 1.893 255 255 255
0.285344 0.220759 0.658 255 255 255
-0.500173 0.551485 1.466 255 255 255
0.528193 -0.127241 1.059 255 255 255
-0.877021 -0.32466 2.499 255 255 255
0.198415 0.117508 0.627 255 255 255
-0.518333 -0.799224 2.731 0 0 0
0.14435 -0.727182 1.911 255 255 255
-0.790933 -0.359479 2.459 255 255 255
0.431476 -0.212509 1.422 255 255 255
-0.283288 -0.0234318 2.107 255 255 255
-0.857516 -0.225568 2.356 255 255 255
-0.469022 -0.0595276 2.173 255 255 255
0.446366 -0.390415 1.291 255 255 255
0.306056 -0.210331 2.057 255 255 255
-0.559398 -0.0340202 1.11 255 255 255
-0.250254 0.526862 1.484 255 255 255
0.511596 -0.137252 1.158 255 255 255
0.256133 0.240288 0.636 255 255 255
-0.435641 0.0418537 2.114 255 255 255
0.496519 -0.155879 1.185 255 255 255
0.278597 -0.345142 2.004 255 255 255
-0.190207 -0.271576 2.356 255 255 255
-0.0456806 -0.489828 2.064 255 255 255
0.456047 -0.237899 1.319 255 255 255
-0.278299 0.339083 1.734 255 255 255
-0.596593 0.289168 1.774 255 255 255
0.533782 0.102072 1.137 255 255 255
-0.717289 -0.400722 1.724 255 255 255
0.268705 0.183232 0.654 255 255 255
0.470932 -0.0555676 1.375 255 255 255
0.532793 -0.00330657 1.108 255 255 255
-0.781475 -0.0666181 2.064 255 255 255
-0.667099 -0.336053 1.543 255 255 255
-0.475224 0.354441 1.116 255 255 255
0.389367 -0.317132 1.668 255 255 255
-0.700854 -0.446326 1.551 255 255 255
-0.205887 0.492839 1.513 255 255 255
-0.952103 -0.87821 2.411 255 255 255
-0.688818 -0.622432 2.755 255 255 255
0.428004 -0.0246925 1.543 255 255 255
-0.504617 0.123626 1.242 255 255 255
0.0892382 -0.473506 2.158 255 255 255
-0.461468 0.276812 0.904 255 255 255
0.218359 -0.673651 2.051 255 255 255
-0.81181 -0.518628 2.099 255 255 255
-0.0968883 0.264957 1.826 255 255 255
-0.302201 -0.999359 2.593 255 255 255
-0.649905 -0.270069 2.411 255 255 255
0.196115 -0.0237543 2.136 255 255 255
-0.493084 -0.262061 2.374 255 255 255
-0.531258 -0.899031 2.684 255 255 255
-0.233641 0.467078 1.567 255 255 255
0.190147 0.0747043 2.071 255 255 255
-0.308031 0.397369 1.637 255 255 255
-0.107457 0.439466 1.587 255 255 255
0.316252 -0.308067 1.935 255 255 255
-0.543991 -0.0942336 1.162 255 255 255
0.523596 -0.0590049 1.139 255 255 255
0.251618 -0.529173 1.997 255 255 255
-0.372159 -0.86861 2.768 255 255 255
0.122165 0.231831 0.656 255 255 255
0.524712 -0.38355 1.162 255 255 255
-0.372159 -0.74699 2.768 255 255 255
0.503004 -0.0260852 1.249 255 255 255
-0.232587 0.395155 1.65 255 255 255
0.482438 0.101089 1.509 255 255 255
0.447017 -0.27657 1.299 255 255 255
0.0111366 0.105213 2.01 255 255 255
0.497259 0.117965 1.445 255 255 255
-0.263759 0.21923 1.893 255 255 255
-0.00187235 -0.680667 1.929 255 255 255
-0.341926 -0.642424 2.707 255 255 255
-0.469093 0.502698 1.528 255 255 255
-0.457733 0.200334 0.891 255 255 255
-0.46371 -0.276878 2.402 255 255 255
0.186889 0.111208 0.626 255 255 255
0.134594 -0.737299 1.905 255 255 255
-0.380503 -0.381299 2.347 255 255 255
-0.712438 -0.397664 1.456 255 255 255
-0.346882 -0.491228 2.519 255 255 255
0.512895 0.166251 1.456 255 255 255
-0.464782 -0.143392 2.329 255 255 255
0.0172318 -0.656185 1.959 255 255 255
0.53392 0.120739 1.213 0 0 0
0.411088 -0.0131209 1.668 255 255 255
-0.304606 -0.107391 2.212 255 255 255
0.0918055 -0.239265 2.136 255 255 255
-0.0740706 -0.0680059 2.107 0 0 0
0.188626 0.110014 0.625 255 255 255
0.263234 0.132553 0.621 255 255 255
-0.100475 0.330618 1.734 255 255 255
-0.866602 -0.474656 2.54 255 255 255
0.119173 0.0213531 2.128 255 255 255
-0.170155 -0.0274215 2.151 255 255 255
0.41594 -0.473538 1.342 255 255 255
-0.713006 -0.0719113 2.228 255 255 255
-0.33381 0.289168 1.774 255 255 255
-0.649642 0.10626 2.03 255 255 255
-0.062015 0.373596 1.686 255 255 255
0.12023 0.212474 0.669 255 255 255
-0.111403 -0.0311375 2.166 255 255 255
0.245068 -0.480067 2.051 255 255 255
0.449441 -0.00709725 1.539 255 255 255
0.256601 0.174147 0.664 255 255 255
0.494195 0.0971633 1.416 255 255 255
0.5736 -0.465421 1.239 255 255 255
-0.0327318 0.336262 1.734 255 255 255
-0.676068 -0.200951 1.316 255 255 255
-0.591387 -0.173041 2.32 255 255 255
-0.561272 -0.0244531 1.387 255 255 255
-0.736862 -0.463392 1.516 255 255 255
-0.816527 -0.590112 2.793 255 255 255
-0.459047 0.460377 1.579 255 255 255
-0.438509 0.235578 1.876 255 255 255
-0.377403 0.277056 1.789 255 255 255
0.462064 -0.282353 1.232 255 255 255
0.171403 0.103553 0.629 255 255 255
-0.352127 -0.597656 2.684 255 255 255
-0.321375 0.564309 1.456 255 255 255
-0.0270676 -0.287948 2.189 255 255 255
0.482465 -0.192681 1.198 255 255 255
-0.758392 -0.76367 2.731 255 255 255
-0.286085 -0.23707 2.356 255 255 255
-0.328053 0.0970142 2.044 255 255 255
-0.943976 -0.516119 2.582 255 255 255
-0.454717 0.378017 0.992 255 255 255
-0.537592 -0.0676832 1.194 255 255 255
0.498557 -0.181848 1.154 255 255 255
0.474664 -0.208277 1.198 255 255 255
-0.0678131 -0.636719 1.929 255 255 255
-0.064871 -0.39698 2.143 255 255 255
0.36574 -0.521229 1.484 255 255 255
0.103289 -0.473506 2.158 255 255 255
0.182283 0.179179 0.579 255 255 255
-0.488116 0.21789 1.096 255 255 255
-0.56157 0.47594 1.571 255 255 255
0.290899 -0.498535 1.893 255 255 255
0.0479245 0.0637516 2.044 255 255 255
-0.638607 0.303272 1.739 255 255 255
-0.2793 0.247767 1.853 255 255 255
-0.409923 0.0814447 2.071 255 255 255
0.0428159 0.224767 0.651 255 255 255
0.517339 -0.030173 1.171 255 255 255
-0.0972687 -0.609681 1.953 255 255 255
-0.101517 0.441269 1.575 255 255 255
0.156801 0.161189 0.572 255 255 255
-0.301982 0.261986 1.826 255 255 255
-0.766451 -0.584331 1.753 255 255 255
-0.754325 -0.375939 1.473 255 255 255
-0.0132868 0.234276 0.648 255 255 255
-0.337397 0.374331 1.677 255 255 255
0.451761 -0.161236 1.505 255 255 255
-0.459372 0.230148 0.883 255 255 255
0.469905 -0.0666099 1.372 255 255 255
0.471762 -0.0469225 1.384 255 255 255
-0.923248 -0.782438 2.719 255 255 255
-0.547037 -0.826685 2.719 255 255 255
-0.51208 -0.131512 2.32 255 255 255
0.319328 -0.0400172 2.078 255 255 255
0.0228906 0.222562 0.657 255 255 255
0.203265 0.117205 0.62 255 255 255
0.51134 -0.243461 1.012 255 255 255
-0.498339 -1.03867 2.695 255 255 255
0.184931 0.208194 0.603 255 255 255
-0.00487069 0.233242 0.651 255 255 255
0.293047 -0.611745 1.758 255 255 255
0.315219 0.211764 0.66 255 255 255
0.179572 0.199623 0.595 255 255 255
-0.40478 0.497592 1.52 255 255 255
0.270512 0.209208 0.669 255 255 255
0.437605 -0.214513 1.39 255 255 255
0.504281 -0.00797335 1.278 255 255 255
0.486434 0.0446967 1.362 255 255 255
0.293207 0.28075 1.794 255 255 255
0.48202 0.0670575 1.463 255 255 255
-0.131474 -0.235701 2.269 255 255 255
0.473079 -0.329992 1.194 255 255 255
-0.536302 0.206252 1.887 255 255 255
0.0465623 0.240071 0.63 255 255 255
-0.577076 -0.0515384 1.387 255 255 255
-0.136205 0.300864 1.758 255 255 255
-0.883782 -0.472787 2.53 255 255 255
0.434565 0.211491 1.729 255 255 255
-0.470669 0.215622 0.995 255 255 255
0.0697147 -0.228289 2.099 255 255 255
-0.94032 -0.85733 2.572 255 255 255
-0.51966 0.343836 1.249 255 255 255
-0.309987 -0.15508 2.278 255 255 255
0.424803 -0.410962 1.283 255 255 255
-0.212863 -0.0626285 2.158 255 255 255
0.515628 -0.174284 1.106 255 255 255
0.407319 0.241084 1.848 255 255 255
0.354199 -0.541657 1.528 255 255 255
-0.661679 -0.254375 2.411 255 255 255
0.40765 -0.178216 1.591 255 255 255
0.522554 0.0981345 1.252 255 255 255
-0.716659 -0.426949 2.479 255 255 255
-0.127155 0.446395 1.575 255 255 255
0.382099 -0.286576 1.696 255 255 255
0.557826 0.102703 1.104 255 255 255
0.456047 -0.248631 1.319 255 255 255
0.295509 0.175764 1.923 255 255 255
-0.805418 -0.725548 2.755 255 255 255
0.293885 0.133705 0.599 255 255 255
0.380263 -0.338877 1.629 255 255 255
-0.918822 -0.693944 2.719 255 255 255
-0.703531 -0.267689 1.396 255 255 255
-0.472539 0.261284 1.842 255 255 255
0.284158 -0.322095 2.044 255 255 255
0.519294 -0.171966 1.048 255 255 255
-0.180535 0.47594 1.571 255 255 255
0.334112 -0.181547 1.929 255 255 255
-0.777079 -0.0711367 2.204 255 255 255
-0.472121 0.211071 1.012 255 255 255
-0.723886 -0.075537 2.228 255 255 255
0.328645 -0.167942 1.991 255 255 255
-0.347706 0.449796 1.587 255 255 255
-0.459331 0.270674 0.995 255 255 255
-0.753747 0.0144272 2.128 255 255 255
0.296016 -0.528786 1.848 255 255 255
-0.856339 -0.196385 2.374 255 255 255
-0.934758 -0.909962 2.615 255 255 255
0.261212 0.112341 0.621 255 255 255
0.501256 -0.151124 1.178 255 255 255
-0.710479 0.152956 1.837 255 255 255
0.471604 -0.178954 1.252 255 255 255
0.094764 0.195559 0.698 255 255 255
-0.413662 -0.788927 2.805 255 255 255
0.251676 0.0614305 2.078 255 255 255
0.230692 0.232469 0.643 255 255 255
-0.444382 0.291613 1.789 255 255 255
-0.833966 -0.73256 2.731 255 255 255
0.527686 -0.145156 1.09 255 255 255
-0.950892 -0.839068 2.469 255 255 255
0.0766944 0.191289 0.699 255 255 255
-0.421919 -0.388072 2.365 255 255 255
0.0434078 0.22143 0.66 255 255 255
-0.434028 0.395155 1.65 255 255 255
0.537618 0.0828908 1.208 255 255 255
0.4806 -0.273582 1.1 255 255 255
-0.555933 0.493943 1.494 255 255 255
-0.540292 -0.0639635 2.204 0 0 0
0.40506 -0.113489 1.591 255 255 255
0.479967 -0.229544 1.187 255 255 255
-0.0840397 -0.463976 2.099 255 255 255
0.501058 0.14942 1.477 255 255 255
0.292272 -0.514013 1.882 255 255 255
0.447873 -0.113102 1.484 255 255 255
-0.742559 -0.391007 1.865 255 255 255
-0.00536317 0.0778106 2.064 255 255 255
0.277376 -0.657474 1.805 255 255 255
0.402231 -0.488912 1.425 255 255 255
-0.237186 0.552737 1.463 255 255 255
0.0575918 0.327796 1.734 255 255 255
0.180748 -0.219632 2.294 255 255 255
0.144693 0.167505 0.591 255 255 255
0.484053 0.0322742 1.4 255 255 255
-0.297665 0.071093 2.064 255 255 255
0.370564 -0.41146 1.633 255 255 255
0.243646 0.203888 0.673 255 255 255
-0.660591 0.209917 1.865 255 255 255
-0.696901 -0.334479 1.429 255 255 255
0.383936 -0.197699 1.668 255 255 255
0.131493 -0.737299 1.905 255 255 255
-0.919864 -0.563177 2.44 255 255 255
0.409153 -0.234179 1.567 255 255 255
0.27212 0.130552 0.607 255 255 255
0.380707 -0.401928 1.555 255 255 255
0.544745 0.0619379 1.114 255 255 255
-0.459613 0.268984 1.032 255 255 255
-0.0591076 0.298851 1.763 255 255 255
0.511739 -0.276525 1.05 255 255 255
0.339124 -0.214444 1.887 255 255 255
0.0215097 0.211852 0.681 255 255 255
-0.407053 0.123659 1.991 255 255 255
-0.449667 0.329866 0.988 255 255 255
0.213327 0.131308 0.584 255 255 255
0.409741 -0.404092 1.322 255 255 255
0.362055 -0.496806 1.551 255 255 255
-0.324284 0.169505 1.923 255 255 255
0.000438991 0.223027 0.668 255 255 255
0.490732 -0.177091 1.185 255 255 255
-0.28311 -0.41006 2.499 255 255 255
-0.522564 0.113256 2.037 255 255 255
0.241788 0.200693 0.677 255 255 255
-0.153094 -0.194396 2.261 0 0 0
0.481006 0.0944055 1.52 255 255 255
-0.631409 0.0144814 2.136 255 255 255
-0.763911 -0.773589 2.719 255 255 255
0.174209 -0.664736 2.004 255 255 255
-0.698079 0.143992 1.876 255 255 255
-0.0295642 0.360276 1.714 255 255 255
0.116417 0.266315 1.815 255 255 255
0.0124658 0.323082 1.739 255 255 255
-0.197715 -0.350047 2.449 255 255 255
-0.3255 -0.283511 2.392 255 255 255
-0.494349 0.156962 1.094 255 255 255
-0.159062 -0.271895 2.294 255 255 255
0.32212 -0.525168 1.7 255 255 255
0.503872 -0.246939 1.055 255 255 255
-0.262709 0.0348575 2.107 255 255 255
0.0141791 -0.620704 1.978 255 255 255
0.471943 -0.222479 1.201 255 255 255
-0.43005 0.469628 1.567 255 255 255
0.469415 -0.120018 1.345 255 255 255
0.000438334 0.223779 0.667 255 255 255
0.371016 0.00975344 1.893 255 255 255
0.440353 -0.20783 1.406 255 255 255
0.258315 -0.434223 2.024 255 255 255
0.0598838 0.214128 0.664 255 255 255
0.424944 -0.539138 1.393 255 255 255
-0.00921743 -0.286896 2.181 255 255 255
0.429183 0.214427 1.753 255 255 255
0.290699 0.20791 0.658 255 255 255
0.432891 -0.282531 1.327 255 255 255
-0.711782 -0.148888 2.356 255 255 255
-0.0427225 0.223714 0.68 255 255 255
0.315332 -0.630551 1.65 255 255 255
0.291679 0.202079 0.653 255 255 255
0.475348 -0.0661244 1.362 255 255 255
0.300143 -0.467729 1.893 255 255 255
0.46859 -0.194006 1.244 255 255 255
0.441111 0.267929 1.826 255 255 255
0.430094 0.0384524 1.668 255 255 255
-0.135704 -0.410867 2.278 255 255 255
-0.467603 0.349119 1.714 255 255 255
0.00825549 0.209753 0.685 255 255 255
0.018041 -0.0428349 2.051 255 255 255
-0.650673 -0.452974 2.489 255 255 255
0.40659 0.0236412 1.779 255 255 255
-0.643485 0.0650304 2.085 255 255 255
0.516693 -0.139696 1.132 255 255 255
-0.115447 0.363933 1.705 255 255 255
-0.324551 0.362218 1.71 255 255 255
-0.644324 0.303462 1.724 255 255 255
0.489117 0.0395839 1.339 255 255 255
0.0800857 -0.292443 2.196 255 255 255
-0.644336 0.29472 1.659 255 255 255
0.0179794 -0.0227312 2.044 255 255 255
0.102236 -0.0758939 2.136 255 255 255
0.187129 0.138316 0.648 255 255 255
0.115257 0.206908 1.893 255 255 255
0.181064 0.101183 0.627 0 0 0
-0.016228 0.210252 0.683 255 255 255
0.500087 -0.415286 1.222 255 255 255
-0.21367 0.0677342 2.064 255 255 255
0.28897 0.0993636 0.622 255 255 255
-0.78373 -0.278311 2.449 255 255 255
0.157066 -0.0595276 2.173 255 255 255
-0.570777 0.333287 1.748 255 255 255
-0.183308 0.266895 1.799 255 255 255
0.371471 -0.375173 1.637 255 255 255
-0.746005 -0.193109 2.43 255 255 255
0.239847 0.240564 0.634 255 255 255
0.51281 0.0980414 1.305 255 255 255
-0.798341 -0.158018 2.03 255 255 255
-0.356835 -0.507753 2.561 255 255 255
-0.626842 -0.321223 2.383 255 255 255
0.315256 -0.0787346 2.03 255 255 255
0.268568 0.140735 0.617 255 255 255
0.265323 -0.430792 1.978 255 255 255
0.00142344 -0.341319 2.166 255 255 255
-0.596865 0.332739 1.524 255 255 255
-0.401855 0.54453 1.473 255 255 255
0.398919 -0.508682 1.366 255 255 255
-0.547094 -0.0755538 1.137 255 255 255
0.421558 -0.115386 1.547 255 255 255
-0.105822 -0.673337 1.935 255 255 255
0.361685 -0.203869 1.744 255 255 255
0.340032 -0.356209 1.842 255 255 255
-0.00902725 -0.454775 2.136 255 255 255
-0.664578 -0.382988 1.52 255 255 255
-0.240271 -0.769976 2.519 255 255 255
0.0358416 0.231384 0.64 255 255 255
0.205921 -0.0663854 2.166 255 255 255
-0.300536 0.545813 1.47 255 255 255
0.31743 0.106993 2.044 255 255 255
-0.774011 0.0275216 2.071 255 255 255
-0.335749 0.291232 1.769 255 255 255
-0.469789 0.250996 1.007 255 255 255
0.503233 0.125344 1.422 255 255 255
0.233125 -0.694738 1.978 255 255 255
0.0577883 0.170034 1.929 255 255 255
0.415291 -0.232713 1.524 255 255 255
-0.133558 0.233269 1.882 255 255 255
0.204904 0.127304 0.625 255 255 255
0.160201 0.193813 0.595 255 255 255
-0.806984 -0.505678 1.532 255 255 255
-0.0544059 -0.414417 2.143 255 255 255
-0.120359 0.364772 1.696 255 255 255
0.500826 0.135831 1.435 255 255 255
0.421907 -0.0888271 1.567 255 255 255
0.168315 0.224981 0.614 255 255 255
-0.00810171 0.190813 1.917 255 255 255
-0.294254 0.269268 1.815 255 255 255
-0.168894 0.05844 2.092 255 255 255
0.531448 0.062176 1.152 255 255 255
0.0921523 0.203657 0.687 255 255 255
0.250115 0.193326 1.911 255 255 255
-0.872904 -0.947265 2.66 255 255 255
0.173486 0.140799 1.959 255 255 255
0.392877 -0.0219142 1.719 255 255 255
-0.759174 -0.533701 1.633 255 255 255
-0.878849 -0.346307 2.244 255 255 255
-0.0103558 0.291232 1.769 255 255 255
0.388822 -0.377203 1.547 255 255 255
-0.727194 -0.519607 1.682 255 255 255
0.297485 0.167987 0.625 255 255 255
-0.506451 0.482501 1.551 255 255 255
0.192387 0.234738 0.624 255 255 255
0.048922 0.235405 0.634 255 255 255
0.256871 0.202391 0.679 255 255 255
0.528561 -0.372807 1.158 255 255 255
-0.725298 -0.110596 2.278 255 255 255
0.0656346 -0.209097 2.078 255 255 255
-0.0938006 0.155778 1.947 255 255 255
0.36886 0.230206 1.882 255 255 255
0.175126 0.334322 1.724 255 255 255
0.258983 0.208268 0.673 255 255 255
-0.640408 0.240608 1.677 255 255 255
0.0333855 -0.343683 2.181 255 255 255
-0.439902 0.539892 1.48 255 255 255
-0.942599 -0.542444 2.649 255 255 255
0.499268 -0.045333 1.22 255 255 255
0.357885 -0.0856798 1.826 255 255 255
-0.557352 -0.129667 1.229 255 255 255
0.128796 0.190216 1.911 255 255 255
0.522543 -0.40645 1.196 255 255 255
0.383638 -0.217704 1.655 255 255 255
0.0615517 0.240584 0.626 255 255 255
0.15907 -0.685082 1.978 255 255 255
0.496032 -0.0604826 1.289 255 255 255
0.46035 -0.178504 1.357 255 255 255
-0.138861 -0.220931 2.269 255 255 255
0.500993 0.0238585 1.313 255 255 255
-0.588249 0.364599 1.502 255 255 255
0.349923 -0.225957 1.831 255 255 255
-0.460867 0.287618 1.009 255 255 255
0.504533 0.120672 1.369 255 255 255
0.341289 0.245519 1.882 255 255 255
0.127879 -0.129352 2.158 255 255 255
0.488416 -0.277842 1.055 255 255 255
0.515731 -0.320572 1.114 255 255 255
0.14784 0.14194 0.577 0 0 0
0.104599 0.225457 0.653 255 255 255
-0.222487 0.317422 1.739 255 255 255
-0.337117 -0.128167 2.261 0 0 0
0.449101 0.166028 1.668 255 255 255
0.522274 0.00221084 1.165 255 255 255
-0.0820441 -0.409587 2.136 255 255 255
-0.715123 -0.295191 1.419 255 255 255
0.311116 0.196011 0.647 255 255 255
0.17001 0.309351 1.283 255 255 255
-0.173407 0.417999 1.624 255 255 255
0.245334 -0.279576 2.236 255 255 255
0.312892 0.231062 0.642 255 255 255
0.530769 0.0591874 1.167 255 255 255
0.523947 -0.0221847 1.152 255 255 255
-0.275089 0.360276 1.714 255 255 255
-0.497986 0.222652 1.87 255 255 255
-0.676884 0.187106 1.911 255 255 255
0.446958 -0.271476 1.305 255 255 255
0.544928 -0.0369209 1.089 255 255 255
0.192795 0.191548 0.591 255 255 255
-0.576048 -0.0995626 1.158 255 255 255
0.19359 0.14978 0.652 255 255 255
-0.460214 0.210956 0.893 255 255 255
0.210657 0.131912 0.618 255 255 255
0.140281 -0.298835 2.244 255 255 255
-0.403217 0.567484 1.452 255 255 255
-0.305002 0.426699 1.607 255 255 255
-0.208038 0.555974 1.459 255 255 255
-0.251384 0.376339 1.686 255 255 255
0.536901 0.0315106 1.128 255 255 255
0.063072 0.210654 1.899 255 255 255
0.40789 -0.413031 1.33 255 255 255
0.520196 -0.0802999 1.152 255 255 255
0.141327 0.151602 0.589 255 255 255
-0.597066 -0.0255964 1.137 255 255 255
-0.673453 -0.281839 2.411 255 255 255
-0.457708 0.28324 0.988 255 255 255
-0.103629 -0.422965 2.151 255 255 255
-0.331956 0.3692 1.691 255 255 255
-0.202528 0.451239 1.583 255 255 255
-0.907727 -0.343106 2.347 255 255 255
0.296346 -0.143439 2.107 255 255 255
0.207601 0.159342 0.627 255 255 255
-0.463555 0.224639 0.938 255 255 255
-0.172059 0.55957 1.456 255 255 255
-0.0630449 0.360276 1.714 255 255 255
0.144297 0.234825 1.87 255 255 255
0.395367 -0.0832433 1.659 255 255 255
0.277646 0.22295 0.655 255 255 255
0.001292 -0.645733 1.966 255 255 255
0.385904 -0.54637 1.442 255 255 255
0.370501 -0.123561 1.815 255 255 255
-0.072559 0.0274285 2.064 255 255 255
-0.486234 0.497507 1.535 255 255 255
-0.553605 -0.00292828 2.158 255 255 255
-0.0289455 0.253798 1.853 255 255 255
-0.539702 0.315168 1.758 255 255 255
-0.401386 0.446873 1.595 255 255 255
-0.55388 0.407125 1.655 255 255 255
0.38247 -0.127543 1.71 255 255 255
-0.25149 0.164774 1.941 255 255 255
0.0671686 0.207959 0.672 255 255 255
-0.136042 0.178335 1.917 255 255 255
-0.691046 -0.968908 2.66 255 255 255
0.0860487 0.173173 1.929 255 255 255
0.548207 -0.300025 1.092 255 255 255
-0.516727 0.34936 1.729 255 255 255
-0.397993 0.325912 1.739 255 255 255
0.520086 -0.166783 1.104 255 255 255
0.312121 0.0762035 0.658 255 255 255
0.525478 -0.109292 1.104 255 255 255
-0.599124 -0.109598 1.185 255 255 255
0.426894 -0.127311 1.539 255 255 255
-0.681597 0.118709 2.017 255 255 255
-0.00184323 0.216834 1.899 255 255 255
0.290297 0.0984952 0.636 255 255 255
-0.380765 0.485034 1.543 255 255 255
-0.29196 0.550356 1.463 255 255 255
0.254601 0.1327 0.673 255 255 255
-0.280397 -0.360672 2.44 255 255 255
-0.403655 0.334401 1.739 255 255 255
-0.853861 -0.354335 2.479 255 255 255
-0.388033 0.300864 1.758 255 255 255
-0.729772 -0.375073 1.789 255 255 255
0.402847 -0.426815 1.419 255 255 255
-0.322906 0.268527 1.81 255 255 255
-0.691795 -0.422564 1.52 255 255 255
0.236784 0.220424 0.657 255 255 255
-0.435423 0.334864 0.864 0 0 0
-0.0737499 0.258286 1.842 255 255 255
0.317959 0.0741744 0.659 255 255 255
0.0681614 -0.427853 2.158 255 255 255
0.27347 -0.100917 2.228 255 255 255
-0.253244 -0.0726552 2.143 0 0 0
0.438977 -0.198658 1.439 255 255 255
-0.0313042 -0.129905 2.004 255 255 255
0.248028 0.206078 0.673 255 255 255
-0.293065 0.261986 1.826 255 255 255
0.348565 0.100684 2.051 255 255 255
-0.905496 -0.458861 2.499 255 255 255
0.452079 0.103039 1.659 255 255 255
-0.275758 0.0940088 2.051 255 255 255
-0.244835 0.261269 1.821 255 255 255
0.0729663 0.190468 0.696 255 255 255
0.167109 0.143987 1.959 255 255 255
0.147584 0.148256 0.576 255 255 255
-0.0775004 -0.448601 2.107 255 255 255
0.29101 0.293113 1.763 255 255 255
0.067705 0.221156 0.656 255 255 255
0.161716 0.145049 0.56 255 255 255
0.220941 0.0837092 2.044 255 255 255
0.497357 -0.15421 1.187 255 255 255
0.514018 0.133436 1.319 255 255 255
0.0712328 0.215733 0.659 255 255 255
0.416381 -0.22835 1.528 255 255 255
0.175961 0.109345 0.627 255 255 255
0.454998 0.188403 1.65 255 255 255
0.0882456 0.381605 1.673 255 255 255
-0.0515487 0.41594 1.616 255 255 255
0.414818 0.18066 1.815 255 255 255
0.0999595 0.40636 1.599 255 255 255
-0.374292 -0.35209 2.356 255 255 255
0.50542 -0.242066 1.02 255 255 255
-0.564196 0.324672 1.763 255 255 255
0.53392 0.0753381 1.213 255 255 255
-0.141092 -0.0670904 2.189 255 255 255
0.528424 -0.0504584 1.114 255 255 255
0.192783 0.104425 0.622 255 255 255
0.104359 0.351908 1.714 255 255 255
0.271304 -0.330761 2.099 255 255 255
0.163007 -0.0415578 2.158 255 255 255
-0.346237 -0.420455 2.374 255 255 255
-0.147135 -0.0524552 2.173 255 255 255
0.33517 -0.445636 1.865 255 255 255
-0.581592 -0.0605668 1.387 255 255 255
0.312191 0.150058 0.61 255 255 255
0.459964 -0.175627 1.369 255 255 255
-0.509338 0.134331 1.229 255 255 255
-0.496892 0.154963 1.145 255 255 255
0.168398 0.09865 0.637 255 255 255
0.167107 -0.301099 2.261 255 255 255
0.0538032 0.230376 0.643 255 255 255
0.481306 0.0670176 1.412 255 255 255
0.265387 0.198554 0.681 255 255 255
-0.644074 0.149902 1.953 255 255 255
-0.57319 -0.358964 2.402 255 255 255
0.142161 0.183508 0.609 255 255 255
-0.182507 -0.0666 2.173 255 255 255
-0.854566 -0.929605 2.684 255 255 255
0.00126769 -0.680667 1.929 255 255 255
0.226886 -0.604023 2.099 255 255 255
-0.647503 -0.317762 1.47 255 255 255
-0.775476 0.0039036 2.057 255 255 255
-0.462025 0.507612 1.513 255 255 255
-0.45391 0.33876 0.937 255 255 255
-0.625539 0.167414 1.935 255 255 255
-0.069629 0.225391 1.893 255 255 255
-0.667511 -0.361392 1.416 255 255 255
-0.0907333 0.362218 1.71 255 255 255
-0.805418 -0.730031 2.755 255 255 255
-0.595229 -0.0658942 1.13 255 255 255
0.120412 0.222772 0.664 255 255 255
-0.652722 0.241185 1.826 255 255 255
-0.478089 0.381437 1.11 255 255 255
-0.00996612 0.240005 0.638 255 255 255
-0.0129115 0.209446 0.684 255 255 255
0.18849 0.178335 1.917 255 255 255
0.392716 -0.326732 1.583 255 255 255
-0.533203 0.0102145 1.215 255 255 255
0.505797 -0.124489 1.162 255 255 255
0.347941 -0.456344 1.691 255 255 255
0.444255 -0.288313 1.267 255 255 255
0.504071 -0.234538 1.085 255 255 255
0.501214 0.00248221 1.308 255 255 255
0.3758 -0.290872 1.705 255 255 255
0.199638 0.196418 0.6 255 255 255
0.265404 0.218535 1.887 255 255 255
0.450979 -0.277855 1.257 255 255 255
-0.937166 -0.848621 2.383 255 255 255
-0.189742 -0.437724 2.449 255 255 255
-0.324307 0.440187 1.599 255 255 255
-0.42461 -0.308149 2.402 255 255 255
0.392125 -0.517965 1.422 255 255 255
0.26006 -0.419293 2.064 255 255 255
0.28153 0.154287 0.619 255 255 255
0.153788 -0.354715 2.228 255 255 255
0.083595 0.220818 0.655 255 255 255
0.415605 -0.442751 1.348 255 255 255
-0.572058 -0.123053 2.303 255 255 255
-0.218227 0.204473 1.899 255 255 255
-0.559268 0.407125 1.655 255 255 255
0.0789748 0.395155 1.65 255 255 255
-0.406213 0.233269 1.882 255 255 255
0.324085 -0.0559938 2.044 255 255 255
-0.433522 0.0814447 2.071 255 255 255
-0.640889 0.227309 1.7 255 255 255
0.506185 -0.0197156 1.232 255 255 255
0.347721 -0.264444 1.789 255 255 255
0.100807 -0.631658 1.972 255 255 255
0.451663 -0.426125 1.242 255 255 255
-0.851254 -0.882334 2.66 255 255 255
-0.380503 -0.358383 2.347 255 255 255
-0.229329 0.307686 1.748 255 255 255
0.36601 0.000513462 1.899 255 255 255
0.453219 -0.150309 1.47 255 255 255
-0.338863 0.50881 1.502 255 255 255
0.408421 0.256813 1.853 255 255 255
0.532527 -0.012233 1.1 255 255 255
0.458314 -0.29597 1.222 255 255 255
-0.360323 -0.407316 2.365 255 255 255
0.460244 -0.303297 1.196 255 255 255
