ply
format ascii 1.0
comment Created by Open3D
element vertex 1297
property double x
property double y
property double z
property uchar red
property uchar green
property uchar blue
end_header
-0.560792 0.0993186 1.322 255 255 255
0.198032 -1.16046 3.011 255 255 255
-0.0509156 -0.184609 1.222 255 255 255
0.369194 0.118153 0.755 255 255 255
-0.701284 -0.115898 1.348 255 255 255
0.362598 -0.222879 1.106 255 255 255
-0.667093 0.52376 1.616 255 255 255
0.0387681 0.102993 0.902 255 255 255
-0.686342 -0.134434 1.336 255 255 255
0.839033 -0.907556 2.572 255 255 255
-0.764351 0.39561 1.71 255 255 255
-0.0429547 -0.265172 1.419 255 255 255
0.40379 0.0190903 0.891 255 255 255
0.30613 0.0540556 0.827 255 255 255
0.0471973 0.134424 0.868 255 255 255
0.389976 -0.0461627 0.92 255 255 255
0.370212 -0.0214118 0.887 255 255 255
-0.0710294 -0.0409483 1.102 255 255 255
0.299347 0.0659978 0.842 255 255 255
0.223835 0.243573 0.726 255 255 255
0.274435 0.210365 0.687 255 255 255
0.0436175 -0.0479469 1.098 0 0 0
-0.343111 -0.256425 1.409 255 255 255
0.452728 0.0381525 0.896 255 255 255
-0.026124 0.0805164 0.967 255 255 255
-0.46894 -0.0926317 1.429 255 255 255
0.277254 -0.0422374 1.089 255 255 255
0.544184 -0.603918 1.997 255 255 255
-0.282101 0.492717 1.327 255 255 255
-0.0886899 0.21875 0.98 255 255 255
0.133597 0.0552641 0.939 0 0 0
0.364768 -0.15938 1.055 255 255 255
-0.431075 -0.196535 1.375 255 255 255
0.25032 0.0940196 0.779 255 255 255
0.318738 -0.278518 1.26 255 255 255
0.291252 -0.401356 1.524 255 255 255
0.310367 0.0112069 0.961 255 255 255
-0.245518 -0.285896 1.442 255 255 255
0.733498 -0.619814 2.017 255 255 255
0.291598 0.130334 0.727 255 255 255
-0.26929 -0.966188 2.561 255 255 255
-0.27986 0.247988 1.189 255 255 255
0.122878 0.308678 0.835 255 255 255
-0.14505 0.0371177 1.029 0 0 0
-0.249853 0.120546 1.252 255 255 255
0.360243 0.0547093 0.837 255 255 255
0.479925 -0.173009 1.044 255 255 255
-0.580194 0.0370697 1.327 255 255 255
0.190721 0.163743 0.779 0 0 0
0.135448 -0.0346969 1.075 255 255 255
0.0354803 0.264123 0.858 255 255 255
0.468865 -0.827442 2.707 255 255 255
-0.312816 0.0596779 1.302 255 255 255
0.183892 0.067007 0.873 255 255 255
-0.546764 -0.695614 2.459 255 255 255
-0.00832623 0.129649 0.914 255 255 255
0.0651223 -0.0769275 1.13 255 255 255
0.18091 -0.0628221 1.141 255 255 255
0.796802 -0.527662 1.887 255 255 255
-0.685211 0.386507 1.603 255 255 255
-0.492668 -0.18271 1.372 255 255 255
0.284773 0.0374316 0.914 255 255 255
0.325457 0.176368 0.703 255 255 255
-0.410623 0.300758 1.239 255 255 255
-0.839677 0.429411 1.769 255 255 255
-0.357435 0.249448 1.196 255 255 255
-0.845357 -0.377407 2.42 255 255 255
0.167267 -0.172272 1.278 255 255 255
0.24529 -0.153685 1.262 255 255 255
-0.0904966 0.28754 1.057 255 255 255
0.225497 0.0206972 0.966 255 255 255
-0.683191 -0.0267102 1.387 255 255 255
0.375192 -0.0395627 0.906 255 255 255
0.206902 0.0735139 0.834 255 255 255
0.352092 -0.916021 2.831 255 255 255
0.240896 0.160429 0.724 255 255 255
0.0119149 0.27096 0.871 255 255 255
0.293526 -0.957253 2.844 255 255 255
-0.165706 0.258343 1.149 255 255 255
-0.095653 0.218485 0.986 255 255 255
0.396698 0.067608 0.845 255 255 255
0.0468053 -0.0404653 1.089 255 255 255
-0.0390408 0.317413 0.937 255 255 255
-0.336103 0.132086 1.327 255 255 255
0.293887 -0.111683 1.147 255 255 255
-0.0847 -0.269893 1.384 255 255 255
-0.561254 0.575257 1.563 255 255 255
0.10997 0.190031 0.81 255 255 255
0.521029 -0.0860926 1.106 255 255 255
0.516872 -0.0564771 1.057 255 255 255
-0.558092 0.271702 1.425 255 255 255
0.292338 0.260316 0.695 255 255 255
0.332592 0.234565 0.706 255 255 255
0.144695 0.00854995 1.017 255 255 255
0.386261 0.0946551 0.806 255 255 255
1.01307 -0.792749 2.196 0 0 0
0.413619 0.0679218 0.832 0 0 0
-0.853034 -0.432023 2.253 255 255 255
0.117844 0.33924 0.868 255 255 255
0.49352 -0.17131 1.044 255 255 255
-0.478247 0.523368 1.583 255 255 255
0.23295 0.0552641 0.939 0 0 0
0.406319 -0.147794 1.034 255 255 255
0.149956 -0.870983 3.133 255 255 255
0.410407 -0.2071 1.062 255 255 255
-0.0851028 0.150702 0.994 255 255 255
-0.402287 0.256956 1.232 255 255 255
-0.670252 -0.174853 1.313 255 255 255
-0.553361 -0.140323 1.33 255 255 255
-0.114289 -0.958967 2.743 255 255 255
-0.177286 0.0299463 1.072 255 255 255
-0.077933 0.283927 1.05 255 255 255
0.319985 -0.216977 1.203 255 255 255
0.03639 0.293808 0.88 255 255 255
-0.789332 0.506697 1.646 255 255 255
0.170698 0.170342 0.792 0 0 0
-0.286317 0.178728 1.26 255 255 255
-0.234234 -0.71659 2.844 255 255 255
0.195361 0.244915 0.73 255 255 255
-0.760371 -0.753664 2.261 255 255 255
-0.406205 0.2048 1.244 255 255 255
0.357684 -0.19389 1.075 255 255 255
-0.142875 0.339432 1.002 255 255 255
-0.44156 0.111463 1.313 255 255 255
-0.37282 0.236224 1.208 255 255 255
0.661167 -0.494349 1.81 255 255 255
0.0228837 0.224766 0.857 255 255 255
0.718582 -0.7128 2.181 255 255 255
-0.308787 0.061417 1.294 255 255 255
0.318817 0.183673 0.696 255 255 255
0.0952679 -0.184243 1.289 255 255 255
-0.0345925 -0.348039 1.563 255 255 255
-0.302417 0.233486 1.194 255 255 255
-0.163393 0.0737578 1.05 255 255 255
0.332651 0.0835621 0.826 255 255 255
-0.610621 0.554679 1.599 255 255 255
0.157248 -0.319275 1.477 0 0 0
-0.93228 -0.553086 2.181 255 255 255
-0.829597 -0.795421 2.136 255 255 255
0.0514775 -0.104852 1.154 255 255 255
-0.916775 -0.633599 2.051 255 255 255
0.195737 0.219639 0.745 255 255 255
-0.0657418 -0.189193 1.239 255 255 255
-0.209128 0.0578688 1.141 255 255 255
0.131228 0.298486 0.811 255 255 255
0.484367 -0.518097 1.821 255 255 255
-0.397993 -0.0802607 1.339 255 255 255
-0.770162 -0.74533 2.236 255 255 255
0.28818 0.0385783 0.906 255 255 255
0.209937 -0.00134202 0.989 255 255 255
-0.389067 -0.939875 2.449 255 255 255
-0.0878816 -0.999029 2.755 255 255 255
0.308207 0.035768 0.84 255 255 255
0.0594623 -0.264286 1.333 255 255 255
-0.421716 -0.746254 2.55 255 255 255
0.300756 -0.252263 1.262 255 255 255
0.0120918 -0.116724 1.16 255 255 255
-0.185416 0.303334 1.089 255 255 255
-0.586033 -0.283741 1.265 255 255 255
0.380893 0.0986059 0.817 255 255 255
0.0709354 0.0280467 1.004 255 255 255
0.349934 -0.106035 1.089 255 255 255
0.351678 -0.0927858 1.1 255 255 255
-0.640999 -0.155267 1.31 255 255 255
0.209473 0.114156 0.778 255 255 255
-0.299696 0.173733 1.239 255 255 255
0.0768485 0.188193 0.837 0 0 0
0.0871224 0.225818 0.806 255 255 255
-0.253402 -0.0889074 1.192 255 255 255
0.143039 0.0382251 0.972 255 255 255
-0.941436 -0.684303 2.004 255 255 255
0.271399 -0.0853132 1.196 255 255 255
-0.883201 0.424983 1.799 255 255 255
0.104249 -0.239274 1.351 255 255 255
-0.700912 0.506697 1.646 255 255 255
-0.623636 0.343909 1.599 255 255 255
-0.576727 0.0865413 1.324 255 255 255
0.240521 0.126815 0.741 255 255 255
-0.92873 -0.521143 2.181 255 255 255
0.112659 0.198347 0.801 255 255 255
-0.305075 -0.199209 1.333 255 255 255
0.272003 0.112519 0.719 255 255 255
0.352178 0.193011 0.697 255 255 255
-0.16766 -0.155917 1.247 0 0 0
-0.221644 -0.258071 1.381 255 255 255
-0.510137 0.122704 1.319 255 255 255
-0.159402 -0.132144 1.215 255 255 255
-0.642056 -0.595718 2.411 255 255 255
0.564963 -0.229475 1.167 255 255 255
0.0351403 -0.135212 1.173 255 255 255
0.431931 0.0537863 0.866 255 255 255
0.163419 0.282431 0.764 255 255 255
0.396577 -0.201915 1.062 255 255 255
-0.136351 0.336171 1.002 255 255 255
-0.665761 -0.593631 2.356 255 255 255
-0.31196 -0.876472 2.604 255 255 255
-0.381 -0.690645 2.672 255 255 255
-0.439902 0.566424 1.539 255 255 255
-0.530538 -0.130784 1.366 255 255 255
-0.742127 -0.474247 2.392 255 255 255
0.301628 -0.198149 1.232 255 255 255
0.358765 -0.195276 1.073 255 255 255
0.204368 -0.459483 1.734 255 255 255
-0.345272 -0.243919 1.39 255 255 255
0.301119 0.158195 0.73 255 255 255
0.0422132 0.0953349 0.913 0 0 0
0.360666 0.146897 0.745 255 255 255
0.944476 -0.841553 2.374 255 255 255
0.0698688 0.172796 0.835 255 255 255
-0.473788 0.0363541 1.473 255 255 255
0.296603 -0.160831 1.165 255 255 255
0.298965 -0.310604 1.327 255 255 255
0.218526 0.241875 0.728 255 255 255
-0.14887 0.276242 1.094 255 255 255
0.278248 0.248842 0.714 0 0 0
-0.0292419 0.0835772 0.966 255 255 255
-0.99364 -0.503164 1.959 255 255 255
0.597115 -0.579292 1.947 255 255 255
0.124301 0.221201 0.776 255 255 255
0.400923 0.0488718 0.854 255 255 255
-0.0868225 -0.161218 1.196 255 255 255
-0.712542 -0.0808808 1.387 255 255 255
0.238062 0.241225 0.719 255 255 255
-0.705627 -0.447498 2.374 255 255 255
0.486207 -0.026411 1.025 0 0 0
0.176552 -0.0147925 1.029 255 255 255
-0.537209 -0.110777 1.366 255 255 255
0.0579616 0.138783 0.86 255 255 255
0.419443 -0.184255 1.05 255 255 255
-0.0512428 0.175606 0.937 255 255 255
0.0527616 0.250199 0.844 255 255 255
-0.188735 0.346937 1.098 255 255 255
-0.490236 -0.532759 2.561 255 255 255
0.319394 0.00177816 0.937 255 255 255
0.285548 -1.11408 2.953 255 255 255
0.212905 0.280992 0.725 255 255 255
-0.538872 0.550517 1.587 255 255 255
-0.378298 -0.113361 1.294 255 255 255
0.314747 -0.224702 1.213 255 255 255
0.241285 -0.0727735 1.182 255 255 255
0.390622 -0.0445684 0.918 255 255 255
-0.0263805 0.151625 0.921 255 255 255
-0.3472 0.311078 1.201 255 255 255
-0.53782 -0.246558 1.308 255 255 255
-0.610127 -0.243553 1.281 255 255 255
-0.312235 0.159893 1.257 255 255 255
-0.094168 -0.289483 1.425 255 255 255
0.0406863 -0.191043 1.225 255 255 255
-0.295179 -0.17933 1.299 255 255 255
-0.321284 0.33233 1.229 255 255 255
0.254736 0.0836628 0.777 255 255 255
0.0251852 0.133336 0.889 255 255 255
0.548706 -0.657386 2.128 255 255 255
-0.292056 0.488437 1.333 255 255 255
0.0283699 0.0588171 0.947 255 255 255
0.735983 -0.668922 2.099 255 255 255
-0.00875438 0.0690698 0.961 255 255 255
0.116385 -0.938785 3.055 255 255 255
0.0527258 -0.296919 1.384 255 255 255
-0.555223 0.0550826 1.345 255 255 255
-0.597475 0.0327508 1.327 255 255 255
0.809809 -0.595377 1.719 255 255 255
-0.040387 -0.0407997 1.098 255 255 255
0.325139 0.0498368 0.824 255 255 255
0.531813 -0.75655 2.449 0 0 0
0.226277 -0.0593157 1.145 255 255 255
-0.712559 0.0767376 1.466 255 255 255
0.827837 -0.553301 1.71 255 255 255
-0.790629 0.573937 1.539 255 255 255
0.296877 0.0948197 0.765 0 0 0
0.34173 0.098786 0.797 255 255 255
-0.620771 -0.291012 1.252 255 255 255
0.0395417 0.0900773 0.92 255 255 255
0.354401 -0.0788691 1.081 255 255 255
0.0246732 -0.198529 1.222 255 255 255
0.162678 -0.340245 1.528 255 255 255
0.398609 0.0433635 0.855 255 255 255
-0.00482214 -0.0702492 1.141 255 255 255
0.396861 0.00606783 0.895 255 255 255
-0.162395 0.354429 0.963 255 255 255
0.167155 0.141874 0.806 255 255 255
-0.628659 0.587433 1.535 255 255 255
0.113539 -0.399678 1.607 255 255 255
0.807785 -0.503089 1.842 255 255 255
-0.395581 -0.948333 2.44 255 255 255
-0.637965 -0.251795 1.27 255 255 255
0.559264 -0.235172 1.167 255 255 255
-0.544504 -0.0151467 1.362 255 255 255
-0.236881 -0.0923977 1.187 255 255 255
-0.835804 -0.763154 2.143 255 255 255
-0.312373 0.263739 1.173 255 255 255
-0.011747 0.0852848 0.95 255 255 255
-0.000926954 0.0624222 0.955 255 255 255
0.0758274 -0.272856 1.354 255 255 255
-0.0127617 0.160532 0.912 255 255 255
0.415761 -0.110936 1.02 255 255 255
-0.0344651 0.190854 0.937 255 255 255
-0.0599372 0.203632 0.954 255 255 255
-0.116798 0.0104959 1.046 255 255 255
0.0164654 0.163349 0.887 0 0 0
0.202305 0.198189 0.77 255 255 255
0.097986 0.303549 0.855 255 255 255
-0.0654555 0.342827 0.944 255 255 255
0.300536 0.230947 0.709 255 255 255
0.296575 0.0291086 0.887 255 255 255
0.2355 -0.0470009 1.118 255 255 255
0.177994 0.104736 0.845 255 255 255
-0.248284 -0.915872 2.695 255 255 255
0.451203 -0.463225 1.686 255 255 255
0.17456 -0.952765 3.117 255 255 255
-0.102331 0.361958 0.93 255 255 255
0.373284 -0.0781528 1.004 255 255 255
-0.794447 -0.823344 2.173 255 255 255
0.220689 -0.0528343 1.126 255 255 255
-0.582622 -0.093659 1.313 255 255 255
0.462397 -0.143032 1.024 255 255 255
-0.061907 -0.0733794 1.132 255 255 255
0.207063 0.0178621 0.983 255 255 255
-0.630266 0.387012 1.616 255 255 255
-0.767645 -0.568254 2.411 255 255 255
0.0953785 -0.350474 1.487 255 255 255
-0.132039 0.290147 1.073 255 255 255
-0.703542 -0.527056 2.42 255 255 255
0.0739577 0.121571 0.867 255 255 255
0.134774 -0.0934552 1.176 255 255 255
0.217908 0.10697 0.781 0 0 0
0.28172 0.114084 0.729 255 255 255
-0.298881 -0.119103 1.244 255 255 255
0.0399877 0.0474703 0.967 255 255 255
-0.0812411 0.0220042 1.027 255 255 255
-0.844279 -0.794112 2.078 255 255 255
-0.560511 -0.915335 2.365 255 255 255
0.533217 -0.609967 2.017 255 255 255
-0.391526 -0.0151467 1.362 255 255 255
-0.0746361 0.322126 0.984 255 255 255
0.0249019 0.154723 0.879 255 255 255
-0.38788 -0.19617 1.357 255 255 255
0.687684 -0.482567 1.81 255 255 255
0.82182 -0.514046 1.664 255 255 255
0.804132 -0.457211 1.607 255 255 255
-0.564952 -0.807309 2.32 255 255 255
0.519429 -1.04306 2.695 255 255 255
-0.122466 0.299347 1.081 255 255 255
0.0471003 -0.0905149 1.139 255 255 255
-0.60506 -0.530994 2.42 255 255 255
-0.565073 -0.0989766 1.327 255 255 255
0.258636 -0.16048 1.267 255 255 255
0.0605688 -0.244803 1.31 255 255 255
0.178361 0.171609 0.786 255 255 255
-0.17767 -0.00323794 1.085 255 255 255
-0.658755 0.34783 1.547 255 255 255
0.0375265 0.0153489 1.029 255 255 255
0.349858 0.113202 0.789 255 255 255
0.32869 0.0368255 0.833 255 255 255
-0.0311219 -0.0859239 1.152 255 255 255
0.500575 -0.158959 1.041 255 255 255
-0.572735 -0.229854 1.286 255 255 255
-0.703026 0.52242 1.62 255 255 255
0.209868 0.0926255 0.835 255 255 255
0.349919 -0.242656 1.185 0 0 0
0.0785641 0.0736887 0.921 255 255 255
-0.390525 0.0320437 1.39 255 255 255
0.539154 -0.916502 2.684 255 255 255
-0.190557 -0.0622164 1.13 255 255 255
0.286124 -0.220794 1.27 255 255 255
-0.602789 -0.281946 1.257 255 255 255
-0.663334 -0.777211 2.244 255 255 255
0.0416717 0.205759 0.842 255 255 255
0.549635 -0.118589 1.124 255 255 255
0.329804 -0.231285 1.196 0 0 0
-0.123254 0.270153 1.043 255 255 255
-0.908859 -0.670109 2.071 255 255 255
-0.534519 0.204373 1.348 255 255 255
-0.573487 -0.187561 1.283 255 255 255
0.181067 0.21931 0.765 255 255 255
0.255013 0.108898 0.759 0 0 0
-0.785227 0.423343 1.744 255 255 255
0.61192 -0.269844 1.239 255 255 255
0.370878 -0.149795 1.048 255 255 255
-0.626679 0.0354627 1.348 255 255 255
0.324286 0.266993 0.686 255 255 255
-0.9041 -0.441436 2.173 255 255 255
-0.442189 0.554263 1.547 255 255 255
0.00259802 -0.0644521 1.137 255 255 255
-0.404155 -0.0959416 1.345 255 255 255
-0.0123026 -0.960855 2.911 255 255 255
0.207244 0.278178 0.73 255 255 255
0.401006 -0.19981 1.06 255 255 255
0.470622 -0.0127355 0.999 255 255 255
0.317909 -0.310171 1.316 255 255 255
0.341604 -1.13749 2.939 255 255 255
-0.313889 0.388409 1.289 255 255 255
0.377248 -0.194002 1.066 255 255 255
0.494917 -0.0970667 1.108 255 255 255
0.450794 -0.852555 2.731 255 255 255
0.845884 -0.931845 2.593 255 255 255
0.000588169 0.180843 0.895 255 255 255
-0.949953 -0.544428 2.189 255 255 255
-0.565529 -0.874448 2.338 255 255 255
-0.294394 0.474366 1.324 255 255 255
0.843825 -0.977891 2.626 255 255 255
-0.954126 -0.641727 2.024 255 255 255
0.0793841 -0.364513 1.505 255 255 255
0.345443 0.128432 0.765 0 0 0
-0.951151 -0.740409 1.997 255 255 255
0.408124 -0.999141 2.743 255 255 255
0.198008 0.240492 0.731 255 255 255
-0.718721 0.589761 1.509 255 255 255
0.340695 -0.00540915 0.867 255 255 255
0.324326 -0.00289474 0.97 255 255 255
0.279487 0.100713 0.772 0 0 0
-0.256627 0.370736 1.198 255 255 255
0.285554 0.0696883 0.871 255 255 255
-0.590539 0.343911 1.587 255 255 255
0.239065 0.223593 0.715 255 255 255
0.264082 -1.11531 2.982 255 255 255
0.762849 -0.799057 2.374 255 255 255
-0.187316 0.356346 1.013 255 255 255
0.344278 -0.154103 1.066 255 255 255
-0.111306 -0.944759 2.78 255 255 255
-0.575818 0.569421 1.575 255 255 255
0.37663 -0.0553853 0.924 255 255 255
0.165216 0.0672391 0.895 255 255 255
-0.20427 -0.0574524 1.145 255 255 255
-0.85232 0.476019 1.719 255 255 255
0.243837 0.151326 0.755 255 255 255
-0.848154 0.166937 1.705 255 255 255
0.0740153 0.00194326 1.024 255 255 255
0.278892 -0.216544 1.294 255 255 255
0.859025 -0.651832 1.882 255 255 255
0.229369 0.17088 0.76 255 255 255
0.185991 0.230207 0.74 255 255 255
-0.184711 0.125128 1.128 255 255 255
0.490135 -0.201695 1.07 255 255 255
0.322151 0.218337 0.691 255 255 255
-0.751008 0.328892 1.668 255 255 255
0.348393 -0.214844 1.13 255 255 255
0.0586196 0.254934 0.811 255 255 255
0.016522 -0.901795 2.982 255 255 255
0.272199 0.18018 0.687 255 255 255
0.0318373 0.162191 0.873 255 255 255
0.0831355 0.257018 0.793 0 0 0
0.359964 -0.080101 1.051 255 255 255
-0.405504 0.430068 1.435 255 255 255
-0.546866 0.141042 1.33 255 255 255
-0.566373 0.536465 1.599 255 255 255
0.330589 -0.0188173 0.901 255 255 255
-0.605375 -0.059608 1.316 255 255 255
-0.0122514 -0.0869602 1.141 255 255 255
0.110326 0.200149 0.803 255 255 255
0.385376 -0.104441 1.055 255 255 255
0.401115 0.0808306 0.799 0 0 0
0.223266 0.206334 0.728 255 255 255
-0.00685509 -0.13117 1.171 255 255 255
0.383791 -0.100146 1.046 0 0 0
0.533111 -0.195333 1.083 255 255 255
-0.598191 -0.088841 1.305 255 255 255
-0.122035 0.330636 1.005 255 255 255
0.501882 -0.981657 2.695 255 255 255
-0.427838 0.203334 1.26 255 255 255
0.827452 -0.5287 1.659 255 255 255
0.169559 0.103554 0.858 255 255 255
-0.119701 -0.0154106 1.072 255 255 255
0.850204 -0.859679 2.459 255 255 255
-0.0804612 0.332322 0.958 255 255 255
0.238234 0.253035 0.716 255 255 255
0.190476 0.164798 0.778 255 255 255
1.10124 -0.944447 2.43 255 255 255
0.100367 0.205086 0.807 255 255 255
0.112349 -0.0554955 1.106 255 255 255
-0.234111 -0.245762 1.375 255 255 255
0.129413 -0.993863 3.011 255 255 255
0.0687552 -0.268853 1.345 255 255 255
0.325457 0.228992 0.703 255 255 255
-0.786558 0.321466 1.686 255 255 255
0.48403 -0.887547 2.743 255 255 255
0.383596 -0.245749 1.12 255 255 255
-0.357481 0.110944 1.359 255 255 255
-1.09149 0.146462 2.085 255 255 255
-0.317285 0.478578 1.348 255 255 255
0.772699 -0.492755 1.837 255 255 255
0.559187 -0.252724 1.187 255 255 255
0.0583998 -0.132178 1.18 255 255 255
0.558045 -0.50024 1.81 255 255 255
0.228794 0.264921 0.723 255 255 255
0.394244 -0.0370182 0.916 255 255 255
-0.309781 -0.0319252 1.239 255 255 255
0.49488 -0.109881 1.092 0 0 0
0.436433 -0.0313079 0.97 255 255 255
0.267768 -0.0707301 1.18 255 255 255
0.318285 -0.122769 1.096 255 255 255
-0.705242 -0.705943 2.347 255 255 255
0.0911254 0.254101 0.784 255 255 255
0.606171 -0.88443 2.615 255 255 255
0.269767 0.265979 0.704 255 255 255
-0.938973 -0.765032 1.985 255 255 255
-0.691609 -0.11975 1.342 255 255 255
0.489515 -0.0196042 1.018 255 255 255
0.135874 -0.0852895 1.169 0 0 0
0.284344 -0.0794528 1.089 255 255 255
-0.182657 -0.218537 1.281 255 255 255
-0.503736 0.0116353 1.384 255 255 255
-0.0172909 0.174652 0.916 255 255 255
0.382469 0.0895848 0.832 255 255 255
-0.548686 0.589727 1.528 255 255 255
-0.200638 0.279207 1.135 255 255 255
-0.542287 -0.0151467 1.362 255 255 255
-0.0308273 -0.96634 2.871 255 255 255
-1.00359 0.24688 1.966 255 255 255
-0.615503 0.1321 1.372 255 255 255
0.288406 0.26669 0.691 255 255 255
0.519666 -0.26194 1.185 0 0 0
0.332073 -0.831448 2.857 255 255 255
0.0452185 0.0464187 0.978 255 255 255
-0.741319 -0.581768 2.402 255 255 255
0.177105 -0.00302307 1.013 255 255 255
0.283258 0.191637 0.684 255 255 255
-0.283562 0.0507415 1.239 255 255 255
0.0105092 0.255661 0.872 255 255 255
-0.138306 -0.271403 1.336 255 255 255
0.0645863 0.196365 0.837 255 255 255
0.32177 -0.102476 1.108 255 255 255
0.315935 0.0743324 0.828 255 255 255
-0.214989 0.232205 1.239 255 255 255
0.0455733 0.291278 0.864 255 255 255
-0.654489 -0.268692 1.262 255 255 255
-0.559366 0.526353 1.624 255 255 255
0.0607157 0.1875 0.84 255 255 255
0.233084 0.131842 0.756 255 255 255
0.316489 -0.033734 0.995 255 255 255
0.173177 -0.0608584 1.139 255 255 255
0.0833323 0.0649069 0.924 255 255 255
-0.0990373 -0.0172031 1.075 255 255 255
0.360314 0.112306 0.757 255 255 255
0.28867 -0.0093322 0.983 255 255 255
-0.0148555 0.363941 0.951 255 255 255
-0.489662 0.545505 1.595 255 255 255
-0.698158 -0.0969403 1.359 255 255 255
0.319581 0.00732252 0.871 255 255 255
-0.072133 0.331441 0.951 255 255 255
-0.673295 -0.423856 2.329 255 255 255
0.317842 0.0354699 0.833 255 255 255
0.0574288 0.208731 0.832 255 255 255
-0.627317 0.412047 1.664 255 255 255
0.903419 -0.72433 2.173 255 255 255
0.23145 0.184711 0.679 255 255 255
-0.690489 -0.593495 2.402 255 255 255
0.174014 0.286855 0.756 255 255 255
-0.0517897 0.117378 0.947 255 255 255
-0.418805 -0.169671 1.357 255 255 255
-0.260684 0.125915 1.265 255 255 255
-0.102098 0.0377743 1.002 255 255 255
0.67752 -0.765779 2.32 255 255 255
-0.567092 0.0265694 1.342 255 255 255
-0.0633095 0.365425 0.935 255 255 255
-0.565085 0.591271 1.532 255 255 255
0.185528 0.100967 0.848 0 0 0
-0.547158 -0.145304 1.336 255 255 255
0.478653 -0.0669872 1.06 255 255 255
0.0504729 -0.296919 1.384 255 255 255
-0.828205 0.547934 1.587 255 255 255
-0.619977 0.55085 1.603 255 255 255
0.488052 -0.0435536 1.036 255 255 255
-0.490634 0.244957 1.342 255 255 255
0.181154 0.0730067 0.86 255 255 255
-0.0324203 0.0553384 0.967 255 255 255
0.406551 0.0341745 0.869 255 255 255
-0.415666 0.36096 1.319 255 255 255
0.181662 0.261016 0.742 255 255 255
-0.588107 -0.204264 1.283 255 255 255
0.0990345 0.231726 0.786 255 255 255
0.244223 0.131589 0.734 255 255 255
-0.0441656 -0.282144 1.459 255 255 255
0.494448 -0.260638 1.162 255 255 255
-0.129025 0.307002 1.077 255 255 255
-0.101385 0.128185 0.995 255 255 255
0.429897 -0.101967 1.03 255 255 255
-0.674133 -0.102279 1.342 255 255 255
-0.54512 0.586459 1.539 255 255 255
-0.500306 -0.00654386 1.419 255 255 255
-0.565589 -0.578537 2.489 255 255 255
-0.281197 0.217627 1.203 255 255 255
0.0957321 -0.134121 1.215 255 255 255
-0.473763 -0.139982 1.369 255 255 255
-0.0379292 -0.301068 1.494 255 255 255
0.29743 0.0113701 0.975 255 255 255
-0.0786974 0.343335 0.937 255 255 255
0.344964 -0.185832 1.079 255 255 255
-0.00698805 0.092968 0.934 0 0 0
0.138728 0.247943 0.765 255 255 255
0.376739 0.00023848 0.882 255 255 255
0.608287 -0.538581 1.893 255 255 255
-0.376196 -0.0192489 1.339 255 255 255
-0.172854 0.31927 1.077 255 255 255
-0.288286 0.260586 1.176 255 255 255
-0.101283 0.221875 0.994 255 255 255
0.197257 -0.138758 1.257 255 255 255
-0.112373 0.354386 0.938 255 255 255
-0.272119 -0.0364415 1.189 255 255 255
0.461407 -1.03077 2.768 255 255 255
-0.312085 -0.213364 1.354 255 255 255
0.00272826 -0.166778 1.194 255 255 255
0.28649 -0.105116 1.178 255 255 255
-0.171364 0.270721 1.162 255 255 255
-0.0870158 -0.0390839 1.1 255 255 255
0.568085 -0.102661 1.11 255 255 255
-0.271312 0.0923897 1.257 255 255 255
0.333624 -0.301551 1.262 255 255 255
0.246802 0.0686956 0.895 255 255 255
0.45579 -0.0222421 0.988 255 255 255
-0.688906 -0.449195 2.383 255 255 255
-0.96464 -0.723708 1.978 255 255 255
0.867513 -0.953102 2.582 255 255 255
-0.102055 -0.270375 1.375 255 255 255
0.295538 0.0308965 0.897 255 255 255
0.0456683 -0.292751 1.375 0 0 0
0.296224 -0.163565 1.171 255 255 255
0.814506 -0.377313 1.612 255 255 255
0.246117 0.11447 0.747 255 255 255
0.275522 -0.214629 1.308 255 255 255
0.707088 -0.378253 1.583 255 255 255
-0.822295 0.510611 1.616 255 255 255
-0.18743 -0.127703 1.192 255 255 255
-0.637219 0.424084 1.607 255 255 255
0.136299 0.295173 0.802 255 255 255
0.541652 -0.0913266 1.104 255 255 255
0.310907 -0.245252 1.237 255 255 255
0.284598 -0.00292459 0.98 255 255 255
-0.0977512 0.12767 0.991 255 255 255
-0.731499 0.277939 1.579 255 255 255
-0.683086 -0.570436 2.489 255 255 255
0.46555 -0.27246 1.156 255 255 255
0.119699 -0.176845 1.281 255 255 255
0.282735 -0.348302 1.419 255 255 255
0.318801 0.235714 0.706 255 255 255
-0.813552 -0.796589 2.158 255 255 255
-0.539897 0.186408 1.345 255 255 255
0.238567 0.255722 0.717 255 255 255
-0.600637 -0.187561 1.283 255 255 255
-0.465808 -0.0186507 1.463 255 255 255
-0.463419 -0.12072 1.378 255 255 255
-0.00385856 0.126536 0.913 255 255 255
0.21666 0.0708578 0.851 255 255 255
-0.230882 0.255914 1.227 255 255 255
-0.586674 0.0219535 1.327 255 255 255
0.106754 -0.0535986 1.104 255 255 255
0.803895 -0.444892 1.591 255 255 255
-0.585727 0.542909 1.595 255 255 255
0.142511 0.218805 0.772 255 255 255
0.367211 0.00875999 0.873 255 255 255
-0.719573 0.480763 1.677 255 255 255
0.222346 0.210203 0.725 255 255 255
-0.0751125 0.309883 1.012 255 255 255
0.124135 -0.029257 1.068 255 255 255
-0.539876 -0.206903 1.313 255 255 255
0.424894 -0.111153 1.022 255 255 255
0.248681 0.10797 0.77 255 255 255
-0.228417 0.402191 1.154 255 255 255
-0.554926 0.150713 1.339 255 255 255
-0.189423 -0.0104619 1.102 255 255 255
0.24002 0.168927 0.669 255 255 255
-0.21247 -0.0367626 1.139 255 255 255
-0.0229648 -0.0616658 1.12 255 255 255
0.00217301 0.0621607 0.951 255 255 255
-0.797984 -0.784446 2.173 255 255 255
-0.548655 -0.104697 1.345 255 255 255
0.222073 -0.109305 1.203 255 255 255
-0.889678 -0.443061 2.181 255 255 255
0.147902 -0.314735 1.456 255 255 255
-0.340662 0.0594601 1.345 255 255 255
-0.207875 0.138741 1.198 255 255 255
-0.102331 0.360444 0.93 255 255 255
0.34161 -0.0880513 1.108 0 0 0
0.0616028 -0.0516144 1.1 255 255 255
-0.058897 -0.0502772 1.11 255 255 255
0.214094 0.112054 0.781 0 0 0
-0.0884849 -0.248043 1.339 255 255 255
-0.0464448 -0.283933 1.456 255 255 255
-0.386453 0.2346 1.22 255 255 255
-0.339049 -0.0267535 1.281 255 255 255
0.252774 0.109698 0.756 255 255 255
-0.171311 -0.278549 1.339 255 255 255
0.638179 -0.670096 2.092 255 255 255
-0.116829 0.363157 0.937 255 255 255
0.156536 0.287016 0.773 255 255 255
0.683086 -0.60352 1.985 255 255 255
-0.496362 -0.598491 2.593 255 255 255
-0.26833 0.276848 1.156 255 255 255
0.310756 0.236863 0.706 255 255 255
-0.403229 -0.225335 1.387 255 255 255
0.310261 -0.122751 1.112 255 255 255
-0.208951 0.340499 1.13 255 255 255
-0.679034 -0.586638 2.489 255 255 255
0.698098 -0.823665 2.459 255 255 255
-0.0881593 -0.230595 1.302 255 255 255
-0.0486593 0.251468 0.977 255 255 255
-0.0378359 0.238618 0.945 255 255 255
-0.487728 0.0916704 1.305 255 255 255
0.272652 0.102233 0.774 255 255 255
0.814934 -0.520084 1.748 255 255 255
-0.577738 0.286089 1.463 255 255 255
0.353709 -1.07758 2.844 255 255 255
0.250602 0.205806 0.683 255 255 255
0.19927 0.00995408 0.992 255 255 255
0.816466 -0.731997 2.196 255 255 255
0.329825 0.242264 0.705 255 255 255
-0.41045 0.182394 1.257 255 255 255
-0.585469 -0.161419 1.291 255 255 255
-0.453075 0.147411 1.291 255 255 255
0.0443373 -0.380134 1.48 255 255 255
0.117834 -0.0065072 1.043 255 255 255
0.309206 0.0370907 0.839 255 255 255
0.354941 -0.17416 1.072 255 255 255
-0.250886 -0.138563 1.237 255 255 255
-0.294316 -0.0196036 1.225 255 255 255
0.264998 0.202689 0.68 255 255 255
0.222679 -0.302119 1.419 255 255 255
0.531745 -0.561008 1.917 255 255 255
-0.146551 -0.04405 1.09 255 255 255
-0.0374076 0.0217899 1.017 255 255 255
-1.06701 0.200814 2.051 255 255 255
0.246478 0.148876 0.687 255 255 255
-0.887851 -0.681425 2.085 255 255 255
-0.561538 -0.501579 2.489 255 255 255
0.915219 -0.674562 2.064 255 255 255
0.251516 0.265109 0.714 255 255 255
-0.788242 0.532527 1.595 255 255 255
0.38339 -0.168601 1.059 255 255 255
0.191479 0.0503035 0.961 255 255 255
0.070309 -0.148571 1.22 255 255 255
-0.394424 0.150086 1.278 255 255 255
0.136227 0.231368 0.772 255 255 255
-0.608083 -0.0869167 1.308 255 255 255
0.128837 0.161882 0.821 255 255 255
-0.10899 -0.225459 1.273 255 255 255
-0.161619 0.342765 1.007 255 255 255
-0.0450455 0.149365 0.935 255 255 255
0.00514167 0.323425 0.928 255 255 255
0.368659 0.144278 0.744 255 255 255
0.195355 0.0532088 0.957 0 0 0
-0.538391 0.594061 1.52 255 255 255
0.486564 -0.0578668 1.051 255 255 255
-0.585372 0.56343 1.587 255 255 255
-0.208938 0.216075 1.239 255 255 255
0.445362 -0.11504 1.027 255 255 255
-0.312562 -0.954132 2.54 255 255 255
0.255156 -0.153442 1.26 255 255 255
-0.611179 0.219756 1.419 255 255 255
0.0594305 0.137544 0.861 255 255 255
-0.285536 0.470425 1.313 255 255 255
-0.556245 -0.831982 2.347 255 255 255
0.165741 0.211697 0.769 255 255 255
0.1592 0.158845 0.799 255 255 255
0.236049 0.239217 0.72 0 0 0
0.268196 0.237717 0.712 255 255 255
0.834365 -0.535272 1.646 255 255 255
0.219683 0.248793 0.724 255 255 255
0.0776989 0.057276 0.947 255 255 255
-0.567133 0.529019 1.616 255 255 255
0.419885 0.0664879 0.831 255 255 255
0.10131 0.332546 0.884 255 255 255
0.266026 0.0758586 0.845 255 255 255
-0.47491 0.0221359 1.484 255 255 255
0.247942 -0.113408 1.205 255 255 255
-0.0545795 -0.175643 1.215 255 255 255
0.250936 0.113689 0.719 255 255 255
0.188742 0.0504081 0.963 0 0 0
0.0755541 -0.186391 1.275 255 255 255
-0.315932 0.292274 1.165 255 255 255
0.0125609 -0.18008 1.205 255 255 255
-0.599654 0.176429 1.387 255 255 255
0.483879 -0.427155 1.612 255 255 255
-0.145556 0.170574 1.057 255 255 255
0.185815 0.223256 0.749 255 255 255
0.0271951 0.26925 0.861 255 255 255
0.302738 0.0426028 0.84 255 255 255
-0.694926 -0.726064 2.338 255 255 255
-0.557881 -0.587269 2.509 255 255 255
-0.158395 0.350042 0.977 255 255 255
0.341374 -0.854695 2.857 255 255 255
-0.821559 -0.57885 2.374 255 255 255
-0.57319 -0.663854 2.402 255 255 255
0.254371 0.233254 0.709 255 255 255
0.316931 -0.106274 1.11 255 255 255
-1.00679 0.128505 1.966 255 255 255
0.579457 -0.836402 2.572 255 255 255
-0.143634 -1.03449 2.707 255 255 255
-0.00522766 0.210956 0.893 255 255 255
0.334934 0.0592951 0.825 255 255 255
0.401844 0.0341352 0.868 255 255 255
-0.149725 -0.22852 1.267 255 255 255
-0.420145 -0.564546 2.672 0 0 0
0.346025 -1.07321 2.857 255 255 255
-0.441882 0.275138 1.289 255 255 255
-0.690169 -0.702475 2.374 255 255 255
-0.102774 -0.105116 1.178 255 255 255
0.307737 0.118433 0.749 255 255 255
-0.0440196 -0.980602 2.818 255 255 255
-0.487206 0.558264 1.587 255 255 255
-0.211125 0.0039551 1.122 255 255 255
-0.00862685 0.356246 0.947 255 255 255
0.249822 0.0248607 0.945 255 255 255
0.142845 0.0955294 0.874 255 255 255
0.261982 0.00833137 0.991 255 255 255
0.0445712 0.24912 0.845 255 255 255
0.209191 -0.426543 1.682 255 255 255
-0.197312 0.0128978 1.106 255 255 255
0.560519 -0.580666 1.941 255 255 255
-0.862714 0.308504 1.769 255 255 255
0.153307 -0.035181 1.09 255 255 255
-0.920606 -0.699788 2.03 255 255 255
-0.348 -0.0374668 1.291 255 255 255
0.218826 0.214922 0.729 255 255 255
0.0645863 0.287624 0.837 255 255 255
0.201874 -0.016483 1.03 255 255 255
0.451509 -0.268941 1.149 255 255 255
0.304861 0.120948 0.742 255 255 255
0.118286 0.20333 0.795 255 255 255
-0.687198 -0.751852 2.312 255 255 255
0.132457 0.256493 0.772 255 255 255
0.192696 0.225982 0.738 255 255 255
-0.846923 -0.512752 2.286 255 255 255
-0.0403063 0.298715 0.931 255 255 255
0.219193 0.00664411 0.98 255 255 255
-0.0230233 0.0712217 0.969 255 255 255
0.723214 -0.391156 1.637 255 255 255
0.360857 0.109902 0.766 255 255 255
-0.367951 -0.725431 2.672 255 255 255
0.492422 -0.00792132 1.007 255 255 255
-0.316596 -0.0987002 1.242 255 255 255
-0.113225 0.313414 1.029 255 255 255
-0.133691 -0.155871 1.215 255 255 255
0.374915 0.120948 0.742 255 255 255
0.312044 -0.957253 2.844 255 255 255
0.0621831 -0.034826 1.079 255 255 255
0.356317 0.156961 0.741 255 255 255
-0.768013 0.212259 1.607 255 255 255
0.168498 -0.0704955 1.145 255 255 255
-0.0642903 -0.326009 1.543 255 255 255
-0.39506 -0.779937 2.593 255 255 255
-0.779028 0.440932 1.724 255 255 255
-0.182294 0.0513074 1.081 255 255 255
-0.587782 -0.55296 2.43 255 255 255
0.051246 -0.895404 3.026 255 255 255
0.27706 0.0393022 0.923 255 255 255
-0.563794 -0.78013 2.499 255 255 255
-0.247258 -0.142819 1.239 255 255 255
0.148702 0.149676 0.82 255 255 255
-0.0310122 0.295285 0.925 255 255 255
0.391032 0.0869681 0.784 255 255 255
-0.310571 0.205881 1.203 255 255 255
-0.659644 -0.752638 2.269 255 255 255
-0.39226 0.313093 1.232 255 255 255
-0.504926 -0.0319448 1.419 255 255 255
-0.617852 0.386161 1.646 255 255 255
-0.0129266 -0.272099 1.419 255 255 255
-0.0775184 0.307955 1.022 255 255 255
-0.377141 0.304586 1.222 255 255 255
-0.0877849 0.331749 0.97 255 255 255
0.138217 0.293701 0.798 255 255 255
0.352335 -0.292852 1.234 255 255 255
0.182311 0.120951 0.781 255 255 255
0.293782 0.0495585 0.866 255 255 255
-0.102251 -0.0136661 1.072 255 255 255
0.428566 -0.985882 2.731 255 255 255
-0.645758 -0.271719 1.257 0 0 0
-0.187619 0.278059 1.169 255 255 255
-1.05561 0.261435 2.004 255 255 255
0.302844 0.172104 0.709 255 255 255
0.739102 -1.00801 2.649 255 255 255
-0.571309 0.36549 1.591 255 255 255
0.31998 -0.0498603 1.027 255 255 255
0.1275 0.30083 0.821 255 255 255
-0.479609 0.565728 1.579 255 255 255
-0.287628 0.342369 1.222 255 255 255
0.615093 -0.480092 1.779 0 0 0
0.210531 0.146433 0.768 255 255 255
0.185093 -1.05785 3.04 255 255 255
-0.196599 -0.262872 1.348 255 255 255
-0.349269 0.192117 1.215 255 255 255
-0.423387 -0.561656 2.638 255 255 255
-0.228698 0.351045 1.165 255 255 255
0.460412 -0.175042 1.046 255 255 255
0.177571 0.0971359 0.863 255 255 255
-0.0218844 -0.913117 2.925 255 255 255
0.0258535 0.199656 0.863 255 255 255
-0.513717 -0.175516 1.351 255 255 255
-0.657473 0.544271 1.599 255 255 255
0.360642 -0.0764615 1.048 255 255 255
0.337681 -0.050006 1.03 255 255 255
-0.59475 -0.790458 2.261 255 255 255
0.136227 0.232624 0.772 255 255 255
0.293778 0.026203 0.938 255 255 255
0.982271 -0.931479 2.469 255 255 255
-0.0918574 0.028354 1.015 255 255 255
-0.887984 0.46042 1.734 255 255 255
0.162526 0.047863 0.975 255 255 255
-0.0108952 -0.17095 1.196 255 255 255
-0.446255 0.584935 1.535 255 255 255
-0.0300755 0.0037013 1.05 255 255 255
-0.68373 -0.102737 1.348 255 255 255
-0.561538 -0.582588 2.489 255 255 255
-0.155218 0.264976 1.114 255 255 255
0.848754 -0.702996 2.151 255 255 255
0.283364 -0.091308 1.173 255 255 255
-0.250843 0.0250894 1.171 255 255 255
0.332729 -0.0290215 1 255 255 255
0.420641 -0.189922 1.053 255 255 255
-0.0596694 0.303313 0.975 255 255 255
-0.560511 -0.642082 2.365 255 255 255
-0.259831 -0.238006 1.369 255 255 255
0.15369 0.132246 0.863 255 255 255
0.227577 -0.399148 1.637 255 255 255
-0.560753 -0.142166 1.327 255 255 255
-0.954584 0.349649 1.882 255 255 255
0.291141 -0.277339 1.283 255 255 255
-0.613196 0.0610988 1.333 255 255 255
0.056681 0.15214 0.841 255 255 255
0.322492 0.123067 0.755 255 255 255
-0.109165 0.0379628 1.007 255 255 255
-0.693356 0.00722878 1.403 255 255 255
0.193277 0.174028 0.774 255 255 255
0.0650367 0.302877 0.861 255 255 255
-0.512993 0.540415 1.603 255 255 255
0.417332 -0.531405 1.826 255 255 255
-0.622101 -0.600408 2.294 255 255 255
0.225634 0.0813365 0.804 255 255 255
0.225894 0.0284094 0.961 255 255 255
0.275065 -0.220225 1.316 255 255 255
-0.893371 0.48069 1.696 255 255 255
-0.270679 0.275442 1.158 255 255 255
-0.60974 -0.594917 2.392 255 255 255
0.315252 -0.305455 1.305 255 255 255
0.148624 -0.28132 1.396 255 255 255
0.00458187 -0.13117 1.171 255 255 255
-0.247993 0.0891557 1.213 255 255 255
0.235231 0.180061 0.674 255 255 255
-0.202751 -0.729164 2.857 255 255 255
0.00836551 -0.125025 1.167 255 255 255
0.186156 -0.0590049 1.139 255 255 255
0.238821 0.127842 0.747 255 255 255
0.255295 -0.24069 1.359 0 0 0
-0.482412 -0.109746 1.381 255 255 255
0.257725 -0.16877 1.283 255 255 255
-0.102944 -0.0390129 1.098 255 255 255
0.0546953 0.087367 0.923 255 255 255
-0.0636378 0.108391 0.963 255 255 255
0.814989 -0.717258 2.173 255 255 255
0.276557 0.267119 0.698 255 255 255
0.285567 -0.94768 2.857 255 255 255
-0.650673 -0.50968 2.489 255 255 255
0.100784 0.00194516 1.025 255 255 255
-0.06 0.12614 0.955 255 255 255
0.321685 0.251706 0.69 255 255 255
-0.183074 -0.0560977 1.118 255 255 255
-1.03226 -0.543452 1.978 255 255 255
0.707037 -0.515139 1.853 255 255 255
-0.481207 0.0499231 1.384 255 255 255
-0.193761 -0.078221 1.149 0 0 0
0.687489 -0.459827 1.779 255 255 255
-0.683703 -0.441953 2.365 255 255 255
0.741248 -0.597059 1.985 255 255 255
-0.15386 -0.160316 1.234 255 255 255
-0.514921 -0.0995796 1.396 255 255 255
0.256953 0.00195275 1.029 255 255 255
0.368772 -0.300814 1.242 255 255 255
0.254645 0.263578 0.713 255 255 255
0.0715692 0.185912 0.839 255 255 255
0.0435535 0.281687 0.852 255 255 255
-0.950832 -0.658195 2.024 255 255 255
0.160932 0.230213 0.764 255 255 255
-0.624756 -0.676705 2.42 255 255 255
-0.25275 0.0155614 1.171 255 255 255
-0.674752 -0.200161 1.297 255 255 255
-0.218066 0.0935311 1.169 255 255 255
-0.252358 0.393792 1.215 255 255 255
0.199018 -1.15639 3.026 255 255 255
0.38772 -0.266468 1.171 255 255 255
0.163103 0.0522991 0.969 255 255 255
-0.6162 -0.663854 2.402 255 255 255
0.36592 0.109025 0.796 255 255 255
-0.336042 -0.909204 2.53 255 255 255
-0.51942 0.244892 1.366 255 255 255
-0.10322 0.289444 1.064 255 255 255
-0.488757 0.0327122 1.419 255 255 255
-0.0480079 -0.308183 1.505 255 255 255
0.281297 0.0836628 0.777 255 255 255
0.746951 -0.547823 1.893 255 255 255
0.00629965 -0.0700029 1.137 255 255 255
0.50485 -0.101218 1.114 255 255 255
0.858546 -0.957162 2.593 255 255 255
-0.446614 -0.0392285 1.432 255 255 255
-0.31496 0.179011 1.22 255 255 255
1.0104 -0.931479 2.469 255 255 255
-0.142418 -0.160746 1.222 255 255 255
0.0642568 -0.191942 1.257 255 255 255
0.428221 -0.137763 1.022 255 255 255
0.532142 -0.17566 1.06 255 255 255
-0.639845 -0.181444 1.299 255 255 255
0.143041 0.018062 0.994 255 255 255
-0.585162 0.517246 1.637 255 255 255
-0.144761 -0.177088 1.225 255 255 255
-0.62325 -0.261491 1.257 255 255 255
-1.01617 -0.626667 1.997 255 255 255
-0.109238 -0.920227 2.844 255 255 255
-0.0558578 0.212041 0.964 255 255 255
-0.868436 -0.534285 2.236 255 255 255
-0.0468844 -0.114019 1.171 255 255 255
0.202884 0.213505 0.749 255 255 255
-0.0557423 -0.878608 2.953 255 255 255
-0.388439 0.230629 1.22 255 255 255
0.42622 0.0564087 0.863 255 255 255
0.116372 0.311736 0.847 255 255 255
-0.329335 0.342624 1.252 255 255 255
-0.169691 0.289022 1.102 255 255 255
0.209524 -0.307627 1.456 255 255 255
0.229967 -0.0255638 1.059 255 255 255
-0.0122477 -1.00372 2.898 255 255 255
-0.033221 0.36472 0.945 255 255 255
-0.960702 -0.726075 1.876 255 255 255
-0.224438 -0.840707 2.78 255 255 255
0.21791 0.113276 0.772 255 255 255
0.358545 -0.0554084 1.037 255 255 255
0.0131735 0.048841 0.963 255 255 255
-0.517153 0.52639 1.616 255 255 255
0.284407 -0.0864039 1.11 255 255 255
0.176249 0.166917 0.788 0 0 0
-0.252287 -0.134211 1.234 255 255 255
0.867513 -0.9489 2.582 255 255 255
0.13154 0.225669 0.774 255 255 255
0.452384 -0.40097 1.532 255 255 255
-0.0867208 0.244521 0.994 255 255 255
-0.387068 -0.148308 1.324 255 255 255
-0.773971 0.364124 1.719 255 255 255
-0.306681 0.061417 1.294 255 255 255
-0.381344 -0.880384 2.53 255 255 255
0.34808 -0.0502973 1.036 255 255 255
0.81016 -0.447807 1.583 255 255 255
-1.08782 0.0715752 2.078 255 255 255
0.133331 0.149065 0.824 255 255 255
-0.328577 -0.152778 1.289 255 255 255
-0.0583997 0.0137807 1.037 255 255 255
-1.03233 -0.647703 1.972 255 255 255
-0.519688 0.0967262 1.316 255 255 255
0.130709 0.175503 0.816 0 0 0
0.00991323 0.0652559 0.951 255 255 255
0.360804 -0.0633536 1.029 255 255 255
-0.641631 -0.256979 1.265 255 255 255
-0.424977 -0.599233 2.731 255 255 255
-0.490397 -0.798671 2.519 255 255 255
-0.320257 0.193296 1.21 255 255 255
-0.584464 0.0541407 1.322 255 255 255
-0.742463 -0.754658 2.356 255 255 255
-0.0325883 0.128476 0.927 255 255 255
-0.135505 -0.814003 2.911 255 255 255
1.01832 -0.907699 2.459 255 255 255
-0.613678 0.460041 1.642 255 255 255
-0.60133 0.52376 1.616 255 255 255
-0.565678 -0.234586 1.289 255 255 255
-0.536509 0.183808 1.342 255 255 255
-0.0157653 0.294748 0.914 255 255 255
0.285438 0.0814113 0.792 255 255 255
0.128306 0.27786 0.801 255 255 255
-0.564454 -0.213941 1.291 255 255 255
-0.0894254 0.0252973 1.025 255 255 255
0.0191813 0.0543655 0.95 255 255 255
-0.897875 -0.361362 2.392 0 0 0
0.12126 0.292543 0.824 255 255 255
-0.284002 -0.0906229 1.215 255 255 255
-0.823694 -0.633673 2.253 255 255 255
0.305648 0.0082473 0.981 255 255 255
-0.329491 0.182231 1.215 255 255 255
0.230274 0.11568 0.763 255 255 255
-0.270245 -0.178226 1.291 255 255 255
0.284432 -0.26023 1.281 0 0 0
-0.817847 0.494408 1.677 255 255 255
0.251431 0.221299 0.704 255 255 255
-0.609144 0.506591 1.637 255 255 255
-0.664044 -0.182282 1.305 255 255 255
-0.460804 0.454701 1.509 255 255 255
-0.666418 0.371122 1.571 255 255 255
0.256707 -0.888219 2.953 255 255 255
-0.18549 0.229216 1.192 255 255 255
0.361572 -0.0637846 1.036 255 255 255
-0.481579 0.0423332 1.432 255 255 255
0.0683125 0.122982 0.867 255 255 255
0.167733 0.292467 0.761 255 255 255
0.137022 0.151378 0.822 255 255 255
-0.595181 0.446171 1.65 255 255 255
0.394861 0.0869681 0.784 255 255 255
0.136034 -0.109782 1.187 0 0 0
-0.737432 0.37775 1.668 255 255 255
-0.730957 -0.601299 2.356 255 255 255
-0.096051 0.319823 1.007 255 255 255
-0.641856 0.416768 1.599 255 255 255
-0.682716 -0.465963 2.43 255 255 255
0.261242 0.253939 0.712 255 255 255
-0.553134 0.488209 1.629 255 255 255
-0.146456 -0.281045 1.351 255 255 255
0.325699 -0.0636571 1.062 255 255 255
-0.354151 0.161636 1.239 255 255 255
0.375421 0.152548 0.743 255 255 255
-0.143514 0.122637 1.03 255 255 255
-0.627368 0.0755598 1.359 255 255 255
-0.130114 0.11116 1.017 255 255 255
0.686002 -0.433138 1.753 0 0 0
0.226503 -0.131453 1.227 255 255 255
-0.491507 -0.124933 1.375 255 255 255
-0.366588 0.164709 1.247 255 255 255
0.139188 0.154824 0.819 255 255 255
0.353321 -0.101181 1.094 255 255 255
-0.425286 -0.201449 1.378 255 255 255
0.141978 -0.184957 1.294 255 255 255
-0.173694 0.345565 1.03 255 255 255
-0.151719 0.36858 0.955 255 255 255
-0.132508 -0.324727 1.491 255 255 255
0.00372497 0.076169 0.952 255 255 255
-0.556105 -0.181677 1.316 255 255 255
-0.259295 0.484273 1.31 255 255 255
-0.246052 0.25486 1.194 255 255 255
-0.308215 0.351966 1.249 255 255 255
-0.648595 0.485559 1.629 255 255 255
0.138462 0.302267 0.807 255 255 255
0.274626 -0.879226 2.939 255 255 255
0.161599 0.16384 0.798 255 255 255
-0.119591 0.127082 1.012 255 255 255
-0.0278249 -0.0442925 1.096 255 255 255
-0.171818 0.353072 0.981 255 255 255
-0.754753 -0.574313 2.42 255 255 255
0.0682174 0.0813589 0.923 255 255 255
0.367668 0.15355 0.742 255 255 255
0.288667 0.202987 0.681 255 255 255
0.315721 -0.00262616 0.88 255 255 255
0.0604989 0.151417 0.837 255 255 255
-0.873373 -0.770443 2.051 255 255 255
0.393821 -1.01726 2.768 255 255 255
0.146335 0.141882 0.837 255 255 255
-0.642596 -0.830931 2.261 255 255 255
0.0244858 0.318099 0.917 255 255 255
-0.0809627 0.358159 0.928 255 255 255
0.328068 -0.205137 1.169 255 255 255
0.108444 0.147682 0.839 255 255 255
0.455335 0.0258399 0.925 255 255 255
0.2289 -0.290295 1.429 0 0 0
0.220916 0.145861 0.765 255 255 255
0.165852 0.136165 0.819 255 255 255
-0.799196 -0.599747 2.365 255 255 255
-0.961723 -0.538198 2.136 0 0 0
0.183133 -0.0851436 1.167 255 255 255
0.108716 -0.00140715 1.037 255 255 255
-0.650083 -0.0864087 1.333 255 255 255
-0.0429649 0.258598 0.923 255 255 255
-0.0829595 -0.0967036 1.169 255 255 255
-0.565678 -0.274441 1.289 255 255 255
-0.0318842 -0.341197 1.555 255 255 255
-0.43587 0.00739365 1.435 255 255 255
-0.112634 0.187959 1.039 255 255 255
0.93224 -0.788987 2.278 255 255 255
0.156991 0.161849 0.801 255 255 255
-0.0950238 -0.25458 1.339 255 255 255
0.0838175 0.337436 0.897 255 255 255
0.274285 0.269391 0.698 255 255 255
0.253798 0.0850365 0.778 0 0 0
-0.0599383 -0.0318076 1.096 255 255 255
-0.704745 0.498695 1.655 255 255 255
0.155848 -0.921551 3.149 255 255 255
1.08992 -0.943861 2.449 255 255 255
-0.0456236 0.333129 0.947 255 255 255
0.332442 -0.00908536 0.957 255 255 255
0.318571 0.250545 0.693 255 255 255
-0.324677 -0.859521 2.604 255 255 255
-0.575807 -0.786402 2.303 255 255 255
-0.353035 0.517384 1.412 255 255 255
0.358772 -0.0577886 0.991 255 255 255
-0.852474 -0.393413 2.374 255 255 255
0.105988 0.18437 0.82 255 255 255
0.42831 -0.273392 1.152 255 255 255
0.32889 0.176368 0.703 255 255 255
0.893231 -0.844041 2.392 255 255 255
0.0436907 -0.220053 1.254 255 255 255
-0.0288438 0.0264918 1.007 255 255 255
-0.114105 0.170722 1.037 255 255 255
0.810097 -0.469543 1.794 255 255 255
0.0185756 0.317643 0.92 255 255 255
0.313288 -0.22705 1.215 0 0 0
-0.285204 -0.810731 2.755 255 255 255
-0.771692 0.511919 1.637 255 255 255
-0.1139 0.354386 0.938 255 255 255
-0.0166378 -0.156405 1.189 255 255 255
-0.518366 -0.0354295 1.375 255 255 255
0.375271 -0.336705 1.345 255 255 255
0.0492163 0.287907 0.854 255 255 255
0.0361463 0.213726 0.841 255 255 255
-0.843524 -0.638267 2.181 255 255 255
0.226022 -0.389218 1.607 255 255 255
-0.331164 0.100821 1.342 255 255 255
0.217807 -0.189169 1.294 255 255 255
0.823389 -0.563442 1.724 255 255 255
-0.349648 0.298105 1.196 255 255 255
-0.441233 0.178781 1.275 255 255 255
0.181034 -1.11776 3.055 255 255 255
0.0905069 0.00193946 1.022 255 255 255
-0.0264951 0.307327 0.925 255 255 255
-0.0163394 0.00709157 1.046 255 255 255
0.215266 0.242207 0.729 255 255 255
-0.210157 -0.0974481 1.178 255 255 255
-0.902084 -0.623659 2.143 255 255 255
-0.539457 -0.876322 2.374 255 255 255
-0.800296 -0.747475 2.189 255 255 255
0.0237169 -0.0262397 1.087 255 255 255
0.156499 0.113989 0.863 255 255 255
0.169511 0.239678 0.747 255 255 255
-0.189624 0.154838 1.158 255 255 255
0.331177 0.129724 0.758 255 255 255
0.192777 0.119557 0.772 255 255 255
-0.46691 -0.0494652 1.459 255 255 255
0.488109 -0.65399 2.151 255 255 255
-0.253714 0.298056 1.158 255 255 255
-0.00674863 0.249778 0.902 255 255 255
-0.0374115 0.0763442 0.974 255 255 255
-0.55059 0.538959 1.591 255 255 255
0.173395 -0.329519 1.513 255 255 255
0.360013 -0.0496176 1.022 0 0 0
0.0610359 0.00363079 1.03 255 255 255
-0.723389 0.278376 1.567 255 255 255
0.27354 0.26864 0.699 255 255 255
-0.530399 0.111717 1.316 255 255 255
0.209046 0.254906 0.728 255 255 255
-0.537489 -0.158704 1.339 255 255 255
0.328678 0.242264 0.705 255 255 255
0.0846436 -0.270652 1.354 255 255 255
-0.271347 0.297082 1.169 255 255 255
0.0351007 -0.209356 1.239 255 255 255
0.263491 0.0945534 0.773 255 255 255
-0.477479 -0.00440777 1.477 255 255 255
0.213353 0.211794 0.743 255 255 255
0.264785 0.145245 0.691 255 255 255
0.793467 -0.956772 2.615 255 255 255
0.207941 -0.312357 1.445 255 255 255
-0.252447 -0.168461 1.265 255 255 255
-0.265488 0.00615193 1.194 255 255 255
-0.861877 0.451723 1.744 255 255 255
0.800002 -0.472602 1.71 255 255 255
0.290484 -0.20092 1.262 0 0 0
0.302349 -0.923784 2.884 255 255 255
0.0634504 0.192968 0.84 255 255 255
-0.741202 -0.77053 2.204 255 255 255
-0.47935 -0.910111 2.402 255 255 255
-0.715299 0.525087 1.612 255 255 255
0.531403 -0.076257 1.094 255 255 255
0.497495 -0.823774 2.695 255 255 255
0.048455 -0.00483296 1.048 255 255 255
0.342754 0.186533 0.694 255 255 255
0.0512843 -0.241252 1.291 255 255 255
-0.565239 -0.0127974 1.348 255 255 255
-0.47641 -0.073208 1.459 0 0 0
0.247942 -0.0977207 1.205 255 255 255
-0.234909 -0.0183873 1.149 255 255 255
-0.327683 0.259553 1.18 255 255 255
-0.438759 0.577441 1.535 255 255 255
-0.824324 -0.440712 2.338 255 255 255
-0.096235 0.0567691 0.992 0 0 0
0.400311 -0.217772 1.072 255 255 255
0.130139 -0.18822 1.302 255 255 255
0.156178 0.0383431 0.975 255 255 255
-0.596124 0.0391405 1.324 255 255 255
0.185566 0.28382 0.748 255 255 255
-0.105303 -0.0464123 1.104 255 255 255
-0.0253855 -0.0799514 1.147 255 255 255
0.293692 -0.129439 1.139 255 255 255
-0.290328 0.343209 1.225 255 255 255
0.0541355 0.248825 0.844 255 255 255
-0.543322 -0.8261 2.374 255 255 255
0.541093 -0.981976 2.672 255 255 255
-0.564205 -0.610106 2.519 255 255 255
0.765695 -0.621965 2.024 255 255 255
-0.567862 -0.776063 2.499 255 255 255
0.143423 -0.943132 3.102 255 255 255
-0.875477 -0.418216 2.181 255 255 255
0.299679 0.0202901 0.947 255 255 255
-0.433048 -0.784156 2.593 0 0 0
0.0490852 -0.148415 1.187 255 255 255
0.134182 0.311519 0.821 255 255 255
-0.00376558 0.201784 0.891 255 255 255
-0.878849 -0.506983 2.244 255 255 255
0.906852 -0.628355 1.789 255 255 255
-0.54007 -0.021796 1.362 255 255 255
0.19152 0.186141 0.772 255 255 255
0.0258368 0.311913 0.912 255 255 255
-0.662828 -0.590688 2.489 0 0 0
0.459685 -0.928107 2.731 255 255 255
-0.178013 -0.264656 1.324 255 255 255
0.389243 0.0870039 0.796 255 255 255
0.547043 -0.0931232 1.104 255 255 255
0.565628 -0.554396 1.905 255 255 255
-0.134176 -0.0598432 1.12 255 255 255
0.0597919 0.254305 0.809 255 255 255
