ply
format ascii 1.0
comment Created by Open3D
element vertex 1301
property double x
property double y
property double z
property uchar red
property uchar green
property uchar blue
end_header
-0.0543642 0.151653 1.057 255 255 255
-1.09175 0.215041 2.092 255 255 255
-0.474969 -0.401859 2.269 255 255 255
-0.828694 0.554281 1.583 255 255 255
-0.555007 -0.00658998 1.429 255 255 255
-0.741103 0.512054 1.646 255 255 255
0.252083 0.109376 0.849 255 255 255
0.40722 0.0380435 0.83 255 255 255
-0.216548 0.185725 1.225 255 255 255
-0.0454582 0.0122448 1.05 255 255 255
0.310194 -0.109305 1.203 255 255 255
0.0710702 0.194 0.902 0 0 0
-0.203548 0.104719 1.336 255 255 255
0.607356 -1.05397 2.818 255 255 255
0.256118 0.19342 0.766 255 255 255
-0.74465 0.43229 1.769 255 255 255
-0.409287 -0.0315171 1.4 255 255 255
-1.05329 0.143081 2.189 255 255 255
-0.972232 -0.196166 2.121 255 255 255
-0.392177 -0.0717027 1.429 255 255 255
0.389678 -0.432376 1.705 255 255 255
0.379109 -0.0952035 1.198 255 255 255
-0.734127 0.437533 1.744 255 255 255
0.268061 0.132721 0.754 255 255 255
-0.496777 0.406715 1.758 255 255 255
-0.363361 0.168415 1.324 255 255 255
0.0119915 0.0812286 0.995 255 255 255
-0.445678 0.246884 1.429 255 255 255
0.993437 -0.977891 2.626 255 255 255
-0.898403 -0.625572 1.953 255 255 255
0.42757 -0.102061 1.066 255 255 255
-1.03193 0.302455 1.953 255 255 255
0.386265 -0.21303 1.273 0 0 0
0.0789332 0.140619 0.908 255 255 255
0.544403 -0.810368 2.898 255 255 255
0.878121 -0.54541 1.917 255 255 255
-0.647657 -0.696001 2.253 255 255 255
-1.10361 -0.137943 2.128 255 255 255
-0.237217 -0.614299 2.719 255 255 255
-0.204173 -0.931218 2.479 255 255 255
0.143529 0.0701691 0.934 255 255 255
-0.103367 0.0240396 1.122 255 255 255
0.715627 -1.05211 2.707 255 255 255
0.231625 0.0752708 0.904 255 255 255
0.155191 0.0669136 0.931 255 255 255
0.0709126 0.259477 0.9 255 255 255
-0.252503 0.0524015 1.39 255 255 255
-0.503904 0.559884 1.599 255 255 255
-0.271809 -0.151333 1.351 255 255 255
-0.560369 -0.0904926 1.396 255 255 255
-0.334838 0.183977 1.297 255 255 255
-0.570399 0.300423 1.603 255 255 255
0.25185 0.245597 0.725 255 255 255
0.367644 0.0677222 0.864 255 255 255
-0.448458 -0.321703 1.302 255 255 255
0.323873 0.0146628 0.983 0 0 0
0.310632 0.0933473 0.784 255 255 255
0.302488 -0.174351 1.278 255 255 255
0.01131 -0.0138318 1.085 255 255 255
-1.01403 0.0770174 2.236 255 255 255
0.166225 0.0646383 0.942 255 255 255
-1.12399 -0.0739436 2.181 255 255 255
-0.151608 -0.0401757 1.185 255 255 255
0.765687 -0.813694 2.593 255 255 255
-0.354861 -0.0933397 1.477 255 255 255
-0.495281 -0.317749 1.286 255 255 255
0.170745 0.326428 0.864 255 255 255
-0.704501 0.42144 1.784 255 255 255
-0.176319 -0.808671 2.604 255 255 255
-0.0196504 0.183239 1.041 255 255 255
-0.877257 -0.730333 1.887 255 255 255
0.311474 -0.0663794 1.171 255 255 255
-0.446853 -0.284472 1.316 255 255 255
0.692243 -1.05235 2.719 255 255 255
0.27638 0.175827 0.76 255 255 255
-0.660353 -0.734499 2.151 255 255 255
0.349635 0.147347 0.701 255 255 255
-0.525875 0.32419 1.579 255 255 255
-0.789486 -0.760864 1.991 255 255 255
-0.0153083 -1.01635 2.615 255 255 255
-0.31196 -0.558654 2.604 255 255 255
0.247338 0.19861 0.762 255 255 255
-0.476443 -0.804525 2.312 255 255 255
0.260829 0.275851 0.727 255 255 255
-0.400247 0.121553 1.354 255 255 255
-0.181456 0.22214 1.217 255 255 255
1.07288 -1.03907 2.719 255 255 255
0.0897977 0.180059 0.884 255 255 255
-0.32601 -0.0188292 1.477 255 255 255
0.427484 -0.0199458 0.886 255 255 255
0.0902856 -0.0137554 1.079 255 255 255
-0.0591175 -0.208394 1.27 255 255 255
-0.51946 -0.691316 2.286 255 255 255
-0.939152 0.397527 1.794 255 255 255
0.499409 -1.13384 2.967 255 255 255
0.100065 0.108588 0.912 255 255 255
-0.845778 0.392015 1.865 255 255 255
-0.424081 0.245157 1.419 255 255 255
-0.564914 -0.0927643 1.396 255 255 255
0.122392 0.252047 0.841 255 255 255
0.249998 0.131881 0.778 255 255 255
0.270905 0.170089 0.762 255 255 255
0.15761 0.147682 0.839 255 255 255
0.384697 -0.268253 1.31 255 255 255
-0.279248 -0.853495 2.43 255 255 255
-0.418968 -0.242993 1.372 255 255 255
0.315219 0.169876 0.66 255 255 255
0.189239 0.312827 0.828 255 255 255
1.14195 -0.956985 2.604 255 255 255
-0.46442 -0.128486 1.342 255 255 255
0.0760608 0.142253 0.909 255 255 255
0.930231 -0.501681 1.859 255 255 255
-0.262247 0.257365 1.215 255 255 255
-0.852642 -0.601308 2.01 255 255 255
0.122538 0.192057 0.842 255 255 255
-0.416311 -0.0902981 1.393 255 255 255
0.225894 0.0518673 0.961 255 255 255
-0.15555 0.190046 1.281 255 255 255
-0.32631 -0.158645 1.396 255 255 255
0.472506 -0.827267 3.011 255 255 255
-0.455821 -0.108236 1.362 255 255 255
0.250879 0.28765 0.736 255 255 255
-0.871351 0.46472 1.729 255 255 255
-0.371573 0.0624281 1.362 255 255 255
-1.03048 0.229424 2.099 255 255 255
0.972397 -0.91461 2.604 0 0 0
0.108077 0.322576 0.917 255 255 255
0.242025 0.14201 0.785 255 255 255
-0.419479 -0.0655033 1.396 255 255 255
-0.389433 -0.0250173 1.419 255 255 255
0.00821565 0.363515 0.934 255 255 255
-0.160219 0.159261 1.302 255 255 255
-0.839986 -0.60356 2.051 255 255 255
-0.101722 0.0313989 1.124 255 255 255
0.337964 -0.212702 1.336 255 255 255
-0.188911 0.173536 1.267 255 255 255
0.113161 -0.0395814 1.114 255 255 255
-0.28559 -0.0555676 1.375 255 255 255
0.0783553 0.0826255 0.955 255 255 255
-0.10068 0.0885751 1.154 255 255 255
0.189696 0.219803 0.78 255 255 255
0.381586 0.0464812 0.836 255 255 255
-0.537653 0.274652 1.532 255 255 255
0.381114 0.0778928 0.809 255 255 255
-0.202487 0.282117 1.178 255 255 255
0.12151 0.327945 0.895 255 255 255
-0.295071 -0.889085 2.43 255 255 255
-0.268598 -0.167463 1.357 255 255 255
-0.135192 0.264592 1.16 255 255 255
-0.32794 -0.794872 2.469 255 255 255
-0.398661 -0.483529 2.459 255 255 255
0.198435 -0.0717268 1.135 255 255 255
-0.490902 -0.272766 1.291 255 255 255
-0.99398 -0.675059 1.887 255 255 255
0.463298 -0.0526913 0.957 255 255 255
0.145383 -0.892459 2.844 255 255 255
0.371646 -0.0400788 1.128 0 0 0
0.214133 0.164986 0.81 255 255 255
-0.348035 -0.694425 2.469 255 255 255
0.33001 0.214773 0.666 255 255 255
0.243224 -0.324115 1.445 255 255 255
0.385122 -0.218879 1.283 0 0 0
-1.11054 -0.148332 2.128 0 0 0
-0.55571 0.173559 1.52 255 255 255
0.0461259 0.321786 0.932 255 255 255
0.101219 -0.31765 1.539 255 255 255
-0.0301186 -0.720457 2.805 255 255 255
0.0300013 0.00373302 1.059 255 255 255
0.452395 -0.124702 1.024 255 255 255
0.383674 -0.0948857 1.194 255 255 255
-0.381155 -0.0868542 1.449 255 255 255
0.867995 -0.467924 1.799 255 255 255
0.18828 -0.091548 1.152 255 255 255
-0.708111 0.459093 1.729 255 255 255
-0.0770949 0.326921 1.062 255 255 255
-0.036174 0.321786 1.029 255 255 255
-0.648392 -0.381345 2.42 255 255 255
-0.579668 0.588508 1.551 255 255 255
0.174942 0.325178 0.857 255 255 255
0.222263 -0.091308 1.173 255 255 255
0.146757 0.0648442 0.945 255 255 255
0.938564 -1.08048 2.78 255 255 255
0.410581 -0.134513 1.09 255 255 255
-0.0732907 0.0415679 1.057 255 255 255
0.593414 -0.820533 2.884 255 255 255
-0.487475 0.183195 1.422 255 255 255
0.304337 -0.930406 2.996 255 255 255
-0.0220011 -0.00669437 1.073 255 255 255
0.381094 0.02665 0.954 255 255 255
0.0967448 -0.17195 1.203 255 255 255
0.501115 -0.143851 1.018 255 255 255
0.726166 -0.960591 2.649 255 255 255
-0.165404 0.275918 1.16 255 255 255
0.306894 0.121274 0.744 255 255 255
0.341323 -0.384885 1.633 255 255 255
-0.00896326 -0.118598 1.198 255 255 255
-0.224349 -0.947354 2.479 255 255 255
-0.0742771 -0.0618861 1.124 255 255 255
-1.01611 -0.5017 1.941 255 255 255
0.322932 0.0610495 0.934 0 0 0
0.321412 0.0458503 0.934 255 255 255
0.604394 -0.449837 1.677 255 255 255
0.281329 -0.339355 1.524 255 255 255
0.213517 -0.129631 1.21 255 255 255
-0.604316 0.435585 1.714 255 255 255
-0.31626 0.0922933 1.412 255 255 255
0.202308 -0.251343 1.345 255 255 255
-0.367462 -0.0732612 1.509 255 255 255
0.265081 0.107104 0.842 255 255 255
0.00405364 0.0255688 1.036 255 255 255
0.119797 0.253717 0.842 255 255 255
-0.257343 0.171717 1.239 255 255 255
0.228713 0.169053 0.792 255 255 255
0.0534706 0.0139003 1.046 255 255 255
0.299281 0.187608 0.698 255 255 255
0.396768 -0.88568 3.149 255 255 255
0.0533081 0.311843 0.925 255 255 255
-0.930129 -0.253107 2.051 255 255 255
-0.470502 0.0915095 1.366 255 255 255
-0.050634 0.316694 1.051 255 255 255
-0.0648735 -0.0298323 1.089 255 255 255
0.345791 -0.378641 1.629 255 255 255
-0.106764 0.18906 1.247 255 255 255
0.908398 -0.97805 2.615 255 255 255
-0.146321 -0.0761505 1.205 255 255 255
-0.16275 0.333138 1.196 255 255 255
0.467808 -0.078689 1.055 255 255 255
0.351199 -0.287164 1.425 255 255 255
-0.134478 -0.939711 2.459 255 255 255
0.137226 -0.057917 1.118 255 255 255
0.0513841 0.363182 0.945 255 255 255
-0.841299 -0.603987 2.03 255 255 255
-0.289003 0.152523 1.281 255 255 255
-0.520218 0.451039 1.668 255 255 255
1.06189 -0.680713 2.136 255 255 255
-0.618908 0.175647 1.607 255 255 255
0.467581 -0.149081 1.043 255 255 255
-0.410476 -0.15694 1.381 255 255 255
-1.13454 0.0845964 2.244 255 255 255
-0.632867 0.491574 1.686 255 255 255
-0.558635 0.214257 1.528 255 255 255
-0.950493 0.334314 1.917 255 255 255
-0.246908 -0.222596 1.384 255 255 255
0.291732 -0.979339 2.967 255 255 255
0.179103 0.162502 0.831 255 255 255
0.236706 0.291123 0.748 255 255 255
-0.11968 0.368596 1.104 255 255 255
0.587117 -0.906807 2.831 255 255 255
0.317501 0.133331 0.724 0 0 0
-0.763973 0.580936 1.551 255 255 255
0.21355 0.0923068 0.884 0 0 0
-0.996218 0.176172 2.158 255 255 255
-0.0256162 0.0643098 1.009 255 255 255
-0.281275 -0.782274 2.519 255 255 255
0.21055 0.292903 0.782 255 255 255
-0.883389 -0.566846 2.051 255 255 255
0.203925 0.159404 0.822 255 255 255
-0.180316 0.282346 1.171 255 255 255
0.405689 -0.0139731 0.972 255 255 255
0.441514 -0.0153559 0.871 255 255 255
-0.422249 -0.835638 2.244 255 255 255
-0.466455 -0.274456 1.299 255 255 255
0.347995 -0.296033 1.412 0 0 0
0.0196629 -0.923257 2.743 255 255 255
0.159221 0.0423254 0.994 255 255 255
-0.896042 -0.719646 1.941 255 255 255
-0.897254 -0.549717 2.037 255 255 255
0.176467 0.294241 0.825 255 255 255
0.056393 -0.908271 2.793 255 255 255
0.182288 0.180593 0.815 255 255 255
-0.526369 0.346705 1.612 255 255 255
-0.268568 0.00494564 1.403 255 255 255
0.878828 -0.602774 2.004 255 255 255
-0.20091 0.269154 1.18 255 255 255
0.507826 -0.267278 1.158 255 255 255
-0.249234 -0.105587 1.302 255 255 255
-1.13585 0.0543954 2.204 255 255 255
-0.473474 0.466593 1.705 255 255 255
0.031619 0.108703 0.952 255 255 255
1.1315 -0.995077 2.649 255 255 255
0.120744 -0.178562 1.208 255 255 255
0.477825 -1.0468 2.953 0 0 0
0.403298 0.0229527 0.93 255 255 255
0.458709 -0.15802 1.046 255 255 255
0.0506773 0.230786 0.932 255 255 255
0.632626 -1.02627 2.768 255 255 255
-0.822779 -0.636225 2.017 255 255 255
0.240911 0.0306906 0.984 255 255 255
0.694542 -0.873677 2.66 255 255 255
-0.805836 0.552077 1.599 255 255 255
0.373403 0.0830563 0.821 255 255 255
0.41815 -1.1088 2.939 255 255 255
-0.290313 0.222661 1.242 255 255 255
-0.308143 0.278535 1.257 255 255 255
-0.127493 -0.0793414 1.194 255 255 255
-0.382735 0.144176 1.339 255 255 255
0.0540573 0.213954 0.938 255 255 255
0.174054 -0.193216 1.252 255 255 255
0.024128 -0.909866 2.743 255 255 255
-0.269749 -0.116515 1.33 255 255 255
0.296093 0.10376 0.776 0 0 0
-0.174316 0.429776 1.281 255 255 255
0.278562 0.123614 0.766 255 255 255
0.748862 -0.426291 1.714 255 255 255
-1.08342 -0.31226 2.136 255 255 255
-0.0613844 0.218471 1.09 255 255 255
0.449498 -0.0375298 1.01 255 255 255
0.273009 -0.316897 1.466 0 0 0
0.0402771 0.0731742 0.974 255 255 255
0.356642 -0.939722 3.026 0 0 0
-0.334838 0.221968 1.297 255 255 255
-0.741409 -0.725406 2.037 255 255 255
0.227267 0.24631 0.745 255 255 255
-0.506079 -0.0640957 1.366 255 255 255
-0.00620529 0.00546151 1.06 255 255 255
0.0464533 -1.03485 2.743 255 255 255
-0.00450517 0.307336 1.066 255 255 255
0.210693 -0.116259 1.194 255 255 255
-0.500313 0.0522884 1.387 255 255 255
0.36756 0.0766665 0.854 255 255 255
0.116215 0.288581 0.856 255 255 255
-0.20125 0.290768 1.182 255 255 255
0.473203 -0.125258 1.015 255 255 255
0.236747 0.164104 0.793 255 255 255
0.25386 0.242902 0.724 255 255 255
0.199295 0.102406 0.872 255 255 255
-0.122827 0.271444 1.225 255 255 255
-0.763035 -0.727363 2.024 255 255 255
-0.858581 0.260751 2.024 255 255 255
0.713712 -0.436427 1.71 255 255 255
-0.276008 -0.00877193 1.406 255 255 255
-0.833101 0.471845 1.714 255 255 255
-0.93117 -0.0235096 2.114 255 255 255
-0.0407186 0.0747497 1.017 255 255 255
-0.380075 -0.0281738 1.463 255 255 255
0.405737 0.0733948 0.803 255 255 255
-0.96954 -0.33309 2.071 255 255 255
0.381114 0.0647277 0.809 255 255 255
-0.061032 0.243659 1.116 255 255 255
-0.169472 0.282067 1.162 255 255 255
0.290538 0.125525 0.755 255 255 255
-0.0167456 -0.00494364 1.072 255 255 255
-0.477627 -0.737244 2.374 255 255 255
-0.225158 0.481451 1.375 255 255 255
0.312468 0.266737 0.697 255 255 255
-0.971978 0.0320851 2.151 255 255 255
-0.657874 -0.518998 2.383 255 255 255
-0.177345 -0.881797 2.499 255 255 255
0.249096 0.224488 0.745 255 255 255
-0.503741 -0.152508 1.342 255 255 255
0.216515 0.156528 0.814 255 255 255
-0.726794 -0.737245 2.024 255 255 255
0.0533081 0.323885 0.925 255 255 255
-0.0294529 -0.758098 2.743 255 255 255
0.3677 -0.054242 1.156 255 255 255
0.110912 -0.0967503 1.147 0 0 0
0.277817 -0.0170271 1.064 255 255 255
0.740327 -0.917966 2.638 255 255 255
-0.171865 0.465087 1.31 255 255 255
0.286897 -0.245655 1.362 255 255 255
0.208947 -0.0581242 1.122 255 255 255
0.338179 0.149994 0.687 255 255 255
0.463817 -0.154616 1.046 255 255 255
-0.563282 0.564585 1.583 255 255 255
0.435042 -0.415365 1.587 255 255 255
0.353 0.0826342 0.873 255 255 255
0.111802 -0.127903 1.176 255 255 255
-0.506166 0.20318 1.449 255 255 255
-0.434186 -0.664964 2.479 255 255 255
0.206408 0.276765 0.776 255 255 255
0.349488 0.130607 0.703 255 255 255
-1.07095 -0.0958938 2.196 255 255 255
-0.447742 -0.135943 1.351 255 255 255
0.424894 -0.0413019 1.022 255 255 255
-0.409175 0.563674 1.595 255 255 255
-0.460346 -0.217255 1.324 255 255 255
0.467442 -0.550531 1.935 255 255 255
-0.768264 0.493145 1.682 255 255 255
-0.0971747 -0.0329394 1.135 255 255 255
0.822938 -0.857831 2.561 255 255 255
0.0243479 -0.819061 2.768 255 255 255
-0.561962 0.509468 1.655 255 255 255
-0.864028 -0.485463 1.991 255 255 255
-0.123903 -0.194128 1.299 255 255 255
0.374745 0.0514386 0.874 255 255 255
0.166874 -0.225813 1.275 0 0 0
-0.376716 0.586991 1.547 255 255 255
-0.137374 -0.20695 1.327 255 255 255
-0.648062 0.313687 1.734 255 255 255
0.0487382 0.162644 0.924 255 255 255
0.119257 0.144312 0.868 255 255 255
0.0849953 -0.17195 1.203 255 255 255
0.0899947 0.00886942 1.055 255 255 255
-0.312213 -0.0599072 1.425 255 255 255
0.373129 0.101353 0.758 255 255 255
-0.963886 -0.519534 2.01 255 255 255
0.229698 0.0290893 0.984 255 255 255
0.213546 0.29685 0.779 255 255 255
0.126767 0.298324 0.852 255 255 255
1.17177 -0.933465 2.54 255 255 255
0.317709 -0.0745706 1.18 0 0 0
0.393143 0.0372678 0.91 255 255 255
0.178727 0.0878254 0.897 255 255 255
-0.52212 0.3404 1.607 255 255 255
-0.476939 -0.0571326 1.359 255 255 255
-0.659631 0.592557 1.555 255 255 255
-0.0182319 0.313342 1.057 255 255 255
0.335372 0.0713278 0.91 0 0 0
-0.0556926 -0.0824599 1.156 255 255 255
-0.0264212 0.331302 0.978 0 0 0
0.0863979 -0.665657 2.884 0 0 0
0.120992 0.348124 0.902 255 255 255
0.622818 -0.884785 2.805 255 255 255
-0.700272 -0.545863 2.269 255 255 255
0.3008 0.160728 0.753 255 255 255
-0.0339405 0.285982 1.064 0 0 0
0.210338 -0.381224 1.513 255 255 255
-0.98767 -0.511176 1.941 255 255 255
-0.321532 0.178231 1.286 255 255 255
0.156431 0.303691 0.84 255 255 255
0.0348278 0.253576 0.955 255 255 255
-0.418127 0.0274009 1.384 255 255 255
-0.379224 0.116108 1.342 255 255 255
0.241339 0.11154 0.855 255 255 255
0.277005 -0.0608584 1.139 255 255 255
0.152875 0.255343 0.78 255 255 255
-0.0551872 -0.0189172 1.073 255 255 255
-0.501561 -0.321935 1.286 255 255 255
0.277107 0.00839862 0.999 255 255 255
0.453928 -0.0854289 1.075 255 255 255
0.180459 0.223481 0.784 255 255 255
0.483835 -0.082718 1.02 0 0 0
-0.775135 0.507929 1.65 255 255 255
0.161882 0.087521 0.909 255 255 255
-0.242236 0.132526 1.31 255 255 255
-0.569744 0.464137 1.686 255 255 255
0.273096 0.0883369 0.833 255 255 255
0.308544 0.160878 0.748 255 255 255
-0.209781 -0.0786151 1.244 255 255 255
0.0389125 0.1932 0.941 255 255 255
0.394114 -0.0893229 1.124 255 255 255
0.276286 0.206067 0.753 255 255 255
-0.881643 -0.447398 2.024 255 255 255
-0.497786 0.243734 1.466 255 255 255
0.362501 -0.0650795 1.182 255 255 255
-0.451387 0.0735102 1.362 255 255 255
0.0846585 0.13736 0.906 255 255 255
0.963185 -0.520139 1.882 255 255 255
-1.01635 -0.501663 1.991 255 255 255
0.0316807 -0.292605 1.452 255 255 255
0.163713 0.118339 0.864 255 255 255
-0.0414319 0.341319 0.957 255 255 255
0.414599 -0.160384 1.135 255 255 255
-0.515916 -0.14034 1.351 255 255 255
0.132348 0.0154682 1.037 0 0 0
0.315658 0.163753 0.739 255 255 255
-0.405596 -0.0681149 1.403 255 255 255
0.108118 0.0625529 0.957 255 255 255
0.00714689 0.0911266 0.997 255 255 255
0.10669 -0.370525 1.583 255 255 255
-0.92719 -0.696365 1.87 255 255 255
0.140594 0.051141 0.977 255 255 255
-0.0793756 -0.202271 1.297 255 255 255
0.173481 -0.088817 1.141 255 255 255
0.268272 -1.03642 2.871 255 255 255
0.456926 -0.938705 3.071 255 255 255
-0.0781838 0.0984387 1.077 255 255 255
-0.855837 -0.588589 2.057 255 255 255
0.221172 0.246414 0.749 255 255 255
-0.947433 -0.0308069 2.143 255 255 255
0.269546 -0.19364 1.31 255 255 255
-0.201424 -0.133069 1.281 255 255 255
0.319648 0.154311 0.667 255 255 255
0.24839 0.130203 0.832 0 0 0
-0.0478975 -0.194474 1.247 255 255 255
-0.110531 -0.190831 1.291 255 255 255
-0.783709 0.528688 1.607 255 255 255
0.0426756 0.264606 0.923 255 255 255
-0.928426 -0.631609 1.923 255 255 255
-0.761316 -0.654409 2.064 255 255 255
0.16336 -0.135121 1.189 255 255 255
-0.909927 0.324956 1.917 255 255 255
0.315578 -0.34982 1.571 255 255 255
0.386121 -0.0552481 1.034 255 255 255
-0.558564 0.323093 1.599 255 255 255
0.108524 -0.134326 1.182 255 255 255
0.208383 -0.167718 1.275 255 255 255
-0.0247341 0.164604 1.041 255 255 255
0.572707 -0.810368 2.898 255 255 255
-0.484683 -0.565853 2.469 255 255 255
0.29417 0.00664411 0.98 255 255 255
0.647983 -0.955001 2.719 255 255 255
-0.702252 -0.454623 2.312 255 255 255
0.283462 0.0905178 0.816 255 255 255
-0.550306 -0.360814 2.338 255 255 255
-0.970202 -0.443642 2.037 255 255 255
-0.947815 0.156996 2.136 255 255 255
0.217197 -0.023953 1.064 255 255 255
-0.968179 -0.147456 2.166 255 255 255
-0.421716 0.175666 1.381 255 255 255
-0.489584 -0.801393 2.303 255 255 255
0.196061 -0.377444 1.498 255 255 255
0.0615557 -0.0908409 1.167 255 255 255
0.985309 -0.692494 2.151 255 255 255
-0.842037 0.294489 1.985 255 255 255
0.424647 -0.197038 1.189 255 255 255
0.243875 0.176563 0.791 255 255 255
-0.588311 0.440327 1.7 255 255 255
-0.965863 -0.658693 1.929 255 255 255
0.359893 0.0897072 0.797 0 0 0
-0.923452 -0.253107 2.051 255 255 255
-0.96954 -0.366792 2.071 255 255 255
0.161695 0.18818 0.825 255 255 255
-0.708875 0.406964 1.81 255 255 255
0.416541 -0.186598 1.222 255 255 255
-0.864028 -0.699304 1.991 255 255 255
-0.552969 -0.120195 1.372 255 255 255
-0.15962 0.261831 1.173 255 255 255
0.175008 0.186536 0.812 255 255 255
0.349684 -0.407926 1.673 255 255 255
0.342578 0.227469 0.678 255 255 255
-0.554915 -0.621346 2.374 255 255 255
-0.0829795 -0.0014845 1.094 255 255 255
0.74706 -0.554769 1.917 255 255 255
0.994565 -0.805389 2.44 0 0 0
-0.494725 0.0566798 1.384 255 255 255
-0.507119 -0.135943 1.351 255 255 255
0.193394 0.0213185 0.995 255 255 255
0.209449 -0.118598 1.198 255 255 255
0.245309 0.135556 0.84 255 255 255
0.649238 -0.95004 2.743 255 255 255
0.62814 -1.15899 2.982 255 255 255
0.266078 -1.01787 2.898 255 255 255
0.647017 -0.414117 1.633 255 255 255
-0.034432 0.0370456 1.027 255 255 255
-0.319653 0.563919 1.539 255 255 255
0.215951 -0.276684 1.362 255 255 255
0.293518 0.200098 0.706 255 255 255
0.0223641 0.0303014 1.025 255 255 255
-0.462535 0.308531 1.591 255 255 255
0.520376 -0.253011 1.128 0 0 0
-0.418403 -0.056578 1.4 255 255 255
0.210402 0.22122 0.763 255 255 255
-0.80441 -0.639219 2.037 255 255 255
0.0477939 -0.0485583 1.112 255 255 255
-0.0123653 0.324109 1 255 255 255
0.0556434 0.345596 0.939 255 255 255
0.18251 0.0629044 0.939 255 255 255
-0.370457 -0.82367 2.356 255 255 255
0.228151 0.253087 0.74 255 255 255
0.00408103 0.27864 1.043 255 255 255
-0.503542 -0.230407 1.313 255 255 255
0.146897 -0.26944 1.359 255 255 255
-1.09395 -0.117991 2.143 255 255 255
0.13283 -0.360138 1.528 255 255 255
-0.951222 -0.547334 2.004 255 255 255
-0.496977 0.0521753 1.384 255 255 255
0.283462 0.0931737 0.816 255 255 255
-0.0598076 0.316552 1.062 255 255 255
0.0512983 0.253655 0.916 255 255 255
-0.0866962 0.143532 1.143 255 255 255
-0.0426425 -0.124031 1.213 255 255 255
-0.73217 0.588778 1.532 255 255 255
-0.843876 0.52771 1.612 255 255 255
0.949428 -0.754453 2.32 255 255 255
-0.874344 0.0302802 2.03 255 255 255
-0.464081 0.382959 1.691 255 255 255
-0.141604 0.360015 1.182 255 255 255
-0.130128 0.231487 1.257 255 255 255
-0.241471 0.207079 1.21 255 255 255
0.0223679 0.332487 0.954 255 255 255
0.118289 0.223612 0.822 255 255 255
0.367843 0.00354972 1.007 255 255 255
-0.575337 -0.466243 2.411 255 255 255
-0.480655 -0.396763 2.261 255 255 255
-0.235233 -0.840413 2.509 255 255 255
0.0448672 -0.0173631 1.085 255 255 255
0.487762 -0.22346 1.1 255 255 255
1.19756 -0.888066 2.449 255 255 255
0.194198 -0.0982686 1.165 255 255 255
-0.228745 -0.0586115 1.294 255 255 255
-0.364057 0.0566798 1.384 255 255 255
-0.824 -0.713654 2.004 255 255 255
-0.632334 0.419822 1.753 255 255 255
0.254898 0.207843 0.755 255 255 255
-0.150618 0.0475061 1.208 255 255 255
-0.0499273 -0.155917 1.247 255 255 255
-0.58639 0.526612 1.633 255 255 255
0.194629 -0.304908 1.4 255 255 255
-0.467187 0.552224 1.607 255 255 255
-0.36373 0.566529 1.567 255 255 255
0.361286 -0.0266018 1.102 255 255 255
-0.0907569 -0.739338 2.707 255 255 255
0.114223 0.172772 0.862 255 255 255
-0.0139511 0.324759 0.997 255 255 255
0.160595 0.225818 0.806 255 255 255
0.130248 0.06505 0.948 255 255 255
0.30503 0.200709 0.652 255 255 255
0.496218 -0.148176 1.025 255 255 255
-0.0900335 0.185758 1.187 255 255 255
-0.405504 0.257262 1.435 255 255 255
0.159004 0.173529 0.832 255 255 255
-0.221417 -0.00391835 1.313 255 255 255
0.302192 0.0097835 0.975 255 255 255
0.144106 0.172175 0.832 255 255 255
0.444131 -0.31552 1.348 255 255 255
0.116176 0.216635 0.826 255 255 255
0.310148 0.15802 0.746 255 255 255
0.448936 -0.261666 1.229 255 255 255
0.483975 -0.672858 2.449 0 0 0
-0.0350061 -0.699494 2.831 255 255 255
0.284808 -0.882557 3.102 255 255 255
-0.24041 0.528873 1.412 255 255 255
0.282129 0.251518 0.715 255 255 255
0.289967 0.0254132 0.966 255 255 255
-0.223887 -0.667401 2.615 255 255 255
0.00526356 0.346552 0.95 255 255 255
-0.00508417 -0.121051 1.203 0 0 0
-1.04593 -0.00297985 2.196 255 255 255
-0.677266 -0.455607 2.356 255 255 255
-1.11743 0.0397763 2.189 255 255 255
-0.653471 0.569738 1.583 255 255 255
-0.189064 0.266781 1.178 255 255 255
-0.242553 -0.955718 2.459 255 255 255
-0.147406 0.264289 1.167 255 255 255
0.00385018 0.131572 0.984 255 255 255
-0.619015 -0.700944 2.269 255 255 255
-0.314494 -0.170795 1.384 255 255 255
0.0196211 0.00544606 1.057 255 255 255
0.132974 -0.209013 1.249 255 255 255
-0.894029 0.430625 1.774 255 255 255
0.308947 0.167917 0.665 255 255 255
0.169741 0.308249 0.845 255 255 255
0.257663 -1.08251 2.857 255 255 255
-0.273874 -0.821562 2.489 255 255 255
-0.981269 -0.0976405 2.236 255 255 255
-0.337803 -0.143765 1.406 255 255 255
0.367156 -0.0154106 1.072 255 255 255
0.496144 -0.0825558 1.018 255 255 255
-0.130956 0.259722 1.265 255 255 255
-0.085862 -0.937015 2.561 255 255 255
1.22782 -0.936538 2.43 255 255 255
-0.281464 0.055922 1.422 255 255 255
0.28182 -0.14524 1.26 255 255 255
-0.518708 -0.567148 2.44 0 0 0
-0.505612 -0.30638 1.291 255 255 255
0.334417 -0.145816 1.265 255 255 255
0.231639 0.139113 0.845 255 255 255
0.0223914 0.149452 0.955 0 0 0
-0.53986 -0.0787937 1.39 255 255 255
-0.466951 0.278632 1.513 255 255 255
-0.426059 -0.207517 1.359 255 255 255
-1.00314 0.0218047 2.173 255 255 255
-0.378593 -0.830862 2.312 255 255 255
0.14258 0.166559 0.831 255 255 255
-1.09774 0.120682 2.236 255 255 255
0.292854 0.036191 0.96 255 255 255
-0.196665 0.307169 1.201 255 255 255
0.268269 -0.867961 3.086 255 255 255
-0.77003 0.450652 1.729 255 255 255
0.240607 0.288743 0.745 255 255 255
-0.213099 -0.926874 2.489 255 255 255
-0.645205 -0.576655 2.365 255 255 255
0.287219 0.216654 0.719 255 255 255
-0.121943 0.268307 1.257 255 255 255
-0.1225 -0.0357059 1.165 255 255 255
-0.541025 -0.0766969 1.393 255 255 255
-0.0853724 0.229373 1.203 255 255 255
-0.213204 -0.00388552 1.302 255 255 255
0.381866 -0.0237533 0.984 255 255 255
-0.0971567 0.249301 1.254 255 255 255
-0.660076 0.546873 1.599 255 255 255
-0.104289 0.0334645 1.132 255 255 255
-0.217013 0.467185 1.366 255 255 255
0.756031 -0.415728 1.705 255 255 255
0.204351 0.21154 0.773 255 255 255
-0.937044 -0.47679 2.037 255 255 255
-0.312753 0.0569838 1.449 255 255 255
0.784606 -0.832217 2.572 255 255 255
-0.00854486 0.363545 0.938 255 255 255
0.326538 0.158276 0.67 255 255 255
0.275669 0.136533 0.748 255 255 255
-0.0289297 0.06273 1.01 255 255 255
-0.0295026 0.213149 1.03 255 255 255
0.153402 0.157093 0.831 255 255 255
0.0356666 0.0750662 0.978 255 255 255
0.172447 0.256161 0.771 255 255 255
-0.491686 -0.82235 2.278 255 255 255
-0.0176282 0.199852 1.022 255 255 255
-0.223959 0.292197 1.18 255 255 255
0.813913 -0.869886 2.572 255 255 255
0.272016 -0.208321 1.322 255 255 255
0.406201 -0.221454 1.239 0 0 0
-0.174829 -0.751417 2.582 255 255 255
-0.147376 0.0137841 1.182 255 255 255
-1.11837 -0.0245995 2.212 255 255 255
-0.0857101 0.119833 1.13 255 255 255
-0.296131 -0.0585619 1.393 255 255 255
-0.823038 0.555682 1.587 255 255 255
0.46463 -0.150923 1.044 255 255 255
-0.318804 -0.904903 2.43 255 255 255
0.094283 0.0380382 1.009 255 255 255
0.681264 -0.614887 2.078 255 255 255
-0.0182664 0.00890304 1.059 255 255 255
0.0240964 0.308341 0.961 255 255 255
0.198426 0.113064 0.856 255 255 255
0.380192 0.0497318 0.845 255 255 255
-0.381661 -0.102861 1.442 255 255 255
0.344749 0.0901574 0.801 255 255 255
-0.793744 0.448885 1.744 255 255 255
0.160999 -0.163779 1.215 255 255 255
-0.185418 0.21818 1.217 255 255 255
0.290718 0.144666 0.746 0 0 0
0.311647 0.17445 0.657 255 255 255
0.121802 0.146798 0.866 255 255 255
0.105739 -0.153177 1.194 255 255 255
0.0315618 -0.105473 1.182 255 255 255
-0.462621 0.0672045 1.369 255 255 255
0.126562 0.0553384 0.967 255 255 255
-0.696236 0.393807 1.831 255 255 255
0.401894 -0.88568 3.149 255 255 255
-0.663444 -0.731997 2.196 255 255 255
-0.481067 -0.238407 1.31 255 255 255
-0.0973892 0.231487 1.257 255 255 255
0.706286 -0.625839 2.092 255 255 255
-0.562591 0.194873 1.532 255 255 255
0.908815 -0.961223 2.604 255 255 255
-0.458269 0.242742 1.432 255 255 255
-0.183782 -0.177798 1.319 255 255 255
-0.920606 -0.534615 2.03 255 255 255
1.17013 -0.953102 2.582 255 255 255
0.251702 0.0245569 0.995 255 255 255
-0.930412 -0.519884 2.037 255 255 255
0.218757 0.198215 0.775 255 255 255
0.202579 -0.116064 1.192 255 255 255
-0.721546 -0.705176 2.085 255 255 255
0.634364 -1.09646 2.857 255 255 255
0.375721 -0.0178947 1.015 0 0 0
-0.86598 0.320464 1.966 255 255 255
0.286305 0.192708 0.744 255 255 255
0.267694 0.268509 0.72 255 255 255
0.390805 -0.134666 1.152 255 255 255
0.116535 0.0886922 0.937 255 255 255
0.285398 -0.444089 1.729 255 255 255
-0.508671 -0.541097 2.43 255 255 255
-0.310182 0.129927 1.327 255 255 255
0.842295 -0.944698 2.582 255 255 255
0.23615 0.232108 0.754 255 255 255
1.05617 -0.711853 2.189 255 255 255
-0.22282 0.231716 1.205 255 255 255
0.21245 0.290281 0.775 255 255 255
0.710724 -1.00372 2.672 255 255 255
-0.445948 -0.816992 2.253 255 255 255
-0.880615 0.123123 2.092 255 255 255
-0.0564662 -0.189896 1.257 255 255 255
0.0926406 0.0363963 1.009 255 255 255
0.127211 -0.0583315 1.126 255 255 255
-0.22208 0.23681 1.201 255 255 255
-0.240235 0.108733 1.359 255 255 255
0.310577 0.17445 0.657 255 255 255
-0.640295 -0.648653 2.347 255 255 255
0.177019 0.0229147 0.994 255 255 255
-0.173332 0.200752 1.244 255 255 255
0.149854 0.210801 0.819 255 255 255
-0.81575 -0.658195 2.024 255 255 255
0.274043 -0.176125 1.291 255 255 255
-0.117189 0.118275 1.208 255 255 255
0.08307 0.215798 0.889 255 255 255
0.00177108 -0.986043 2.695 255 255 255
0.089841 0.361645 0.945 255 255 255
-0.0293308 0.0402701 1.024 255 255 255
1.16155 -0.90574 2.509 255 255 255
-0.191055 -0.111898 1.254 255 255 255
0.635369 -0.858803 2.78 255 255 255
0.0149984 -1.01686 2.707 255 255 255
-1.12917 -0.0138005 2.212 255 255 255
0.279695 0.208629 0.749 255 255 255
0.40183 -0.378041 1.52 255 255 255
-0.531327 -0.262457 1.313 255 255 255
0.268639 -0.203093 1.316 255 255 255
0.238551 -0.0974481 1.178 0 0 0
-0.990984 -0.602189 1.929 255 255 255
0.184224 -0.00311558 1.044 255 255 255
0.328387 0.0774343 0.895 255 255 255
-0.696269 -0.686432 2.143 255 255 255
-1.03032 0.247418 2.078 255 255 255
-0.0137225 -0.222185 1.278 255 255 255
-0.98874 0.112187 2.212 255 255 255
-0.698053 0.221204 1.739 255 255 255
-1.0759 -0.238369 2.128 255 255 255
0.133729 -0.163847 1.201 255 255 255
-0.587709 0.588964 1.539 255 255 255
-0.78765 0.416949 1.815 255 255 255
0.0874113 0.175291 0.889 255 255 255
0.35163 -0.0100822 1.062 255 255 255
-0.806494 -0.509842 1.985 255 255 255
0.581724 -1.02629 2.805 255 255 255
-0.150481 0.274692 1.147 255 255 255
0.0724581 0.198184 0.901 255 255 255
-0.505319 0.340625 1.646 255 255 255
0.446729 -0.0807774 1.083 255 255 255
0.738129 -0.795065 2.615 255 255 255
0.0744065 -0.0428192 1.104 255 255 255
0.448939 -0.035256 0.909 255 255 255
0.866773 -0.622645 2.037 255 255 255
0.451817 -0.191247 1.07 255 255 255
-0.209197 -0.809463 2.54 255 255 255
0.326668 -0.44 1.724 255 255 255
0.337428 -0.0226183 1.083 0 0 0
0.19028 0.259825 0.767 255 255 255
-0.496742 0.109421 1.396 255 255 255
-0.252773 0.196395 1.217 255 255 255
0.319966 0.24203 0.701 255 255 255
0.548367 -0.352094 1.425 255 255 255
-0.6658 0.261105 1.686 0 0 0
0.49948 -0.912705 2.939 255 255 255
0.348981 -0.250786 1.416 0 0 0
-0.100425 0.277977 1.13 255 255 255
0.00874342 0.0520308 0.994 255 255 255
0.28639 0.088862 0.813 0 0 0
-0.55334 0.0546258 1.449 255 255 255
0.36367 -0.115369 1.205 255 255 255
-0.146174 -0.263864 1.412 255 255 255
0.497101 -0.970236 2.925 255 255 255
0.795316 -0.579675 1.959 255 255 255
0.424866 -0.0203736 0.905 255 255 255
0.400509 0.0720881 0.803 255 255 255
0.129882 -0.0244708 1.087 255 255 255
-0.368436 -0.0709932 1.513 255 255 255
-0.305761 0.122111 1.336 255 255 255
-0.460393 -0.0842867 1.369 255 255 255
1.07975 -0.982145 2.649 255 255 255
-0.0621066 -0.145771 1.247 255 255 255
-0.55375 -0.722435 2.244 255 255 255
0.365942 0.0772052 0.86 255 255 255
-0.488412 -0.168459 1.33 255 255 255
-0.313572 -0.0998649 1.4 255 255 255
-0.987958 -0.562362 1.911 255 255 255
-0.177964 -0.0960563 1.234 255 255 255
0.510453 -0.0931348 1.007 255 255 255
-0.412786 0.119791 1.359 255 255 255
0.256967 -0.858744 3.071 255 255 255
0.883688 -0.782316 2.43 255 255 255
-0.398925 0.0886983 1.357 255 255 255
-0.38041 0.0796886 1.354 255 255 255
-0.566684 0.273974 1.571 0 0 0
0.136381 -0.23313 1.281 255 255 255
0.202864 -0.884008 2.939 0 0 0
0.163219 0.217948 0.806 255 255 255
0.184434 0.131924 0.843 255 255 255
0.0187516 -0.185062 1.225 0 0 0
-0.696026 -0.679385 2.121 255 255 255
-0.315252 0.335187 1.286 255 255 255
0.201972 0.2327 0.764 255 255 255
-1.03343 -0.38862 2.044 255 255 255
-0.534456 -0.15444 1.359 255 255 255
0.0600474 0.263225 0.913 255 255 255
0.191275 0.121811 0.849 255 255 255
0.649901 -0.471726 1.748 255 255 255
-0.00272316 0.283386 1.048 255 255 255
0.367593 -0.115369 1.205 255 255 255
-0.392571 -0.0458967 1.422 255 255 255
0.43529 -0.0253122 0.924 255 255 255
-0.183899 -0.107215 1.247 255 255 255
0.0190271 0.268827 1.025 255 255 255
-0.173665 0.0263964 1.232 255 255 255
-0.150816 0.0216962 1.194 255 255 255
0.000907555 -0.273802 1.381 255 255 255
-0.137671 -0.0167475 1.165 255 255 255
-0.0580055 0.0807336 1.03 255 255 255
0.0163061 -0.133522 1.192 255 255 255
0.0381572 -0.280993 1.429 255 255 255
0.465787 -0.146818 1.039 255 255 255
0.403936 -0.859277 3.165 255 255 255
0.233225 0.248463 0.737 255 255 255
0.0192499 0.290537 1.037 255 255 255
-0.502496 0.264164 1.487 255 255 255
-0.0324731 0.114582 1.018 255 255 255
0.197159 -0.319537 1.435 255 255 255
-0.293037 -0.018128 1.422 255 255 255
0.526204 -1.15413 2.982 255 255 255
0.272003 0.268136 0.719 255 255 255
-0.0339405 -0.00317527 1.064 255 255 255
0.126172 0.172726 0.848 255 255 255
0.261446 0.16122 0.767 255 255 255
-0.29822 0.179721 1.267 255 255 255
0.0623986 0.225324 0.904 255 255 255
-0.755187 0.559671 1.591 255 255 255
-0.35219 -0.0145062 1.528 255 255 255
0.274344 0.243565 0.719 255 255 255
-0.35436 0.422272 1.516 255 255 255
0.0340984 0.287826 0.935 255 255 255
0.499522 -1.05519 2.884 255 255 255
0.300785 0.202831 0.652 255 255 255
0.91515 -1.01676 2.672 255 255 255
-0.894822 -0.457279 2.024 255 255 255
-0.518524 0.0647199 1.412 255 255 255
0.337062 -0.185672 1.299 255 255 255
0.696437 -0.524545 1.865 255 255 255
0.388667 -0.0375298 1.01 255 255 255
0.371939 -0.02195 1.051 255 255 255
-0.884567 0.398675 1.826 255 255 255
0.277184 -0.0151662 1.055 255 255 255
-0.742461 0.504081 1.655 255 255 255
-0.84031 -0.638647 2.004 255 255 255
0.0178109 -0.228476 1.302 255 255 255
0.205752 0.197693 0.788 255 255 255
0.0724885 0.114032 0.92 255 255 255
-0.56062 0.405409 1.659 255 255 255
0.241618 0.141034 0.832 255 255 255
0.189897 0.311694 0.825 255 255 255
0.410052 -0.804703 3.133 255 255 255
0.366754 0.0933632 0.795 255 255 255
0.471528 -0.190726 1.048 255 255 255
0.206134 0.250362 0.761 255 255 255
0.298826 0.185257 0.669 255 255 255
0.0891978 -0.00318123 1.066 255 255 255
0.116486 0.176159 0.858 255 255 255
-0.600667 -0.0871804 1.416 255 255 255
0.0172401 0.298467 1.018 255 255 255
-0.227319 0.0486245 1.348 255 255 255
0.248834 0.267486 0.73 255 255 255
0.190801 -1.04962 2.831 255 255 255
-0.472254 -0.288451 1.286 255 255 255
0.147432 0.243655 0.813 255 255 255
0.747741 -0.787483 2.604 255 255 255
0.140251 -0.114638 1.158 255 255 255
0.0953138 0.232861 0.856 255 255 255
-0.0484702 0.279478 1.079 0 0 0
0.107098 0.206331 0.85 0 0 0
0.0195769 -0.959216 2.731 255 255 255
0.210098 0.212248 0.771 255 255 255
0.180396 0.143244 0.837 255 255 255
-0.262678 -0.00187801 1.384 255 255 255
-0.0612508 0.25 1.12 255 255 255
-0.262968 0.179492 1.237 255 255 255
0.402205 -0.118489 1.106 255 255 255
0.12947 0.0138339 1.041 255 255 255
-0.235847 -0.0211558 1.322 255 255 255
0.459024 -0.488729 1.758 255 255 255
-0.595152 -0.120627 1.403 255 255 255
0.124077 0.0935774 0.925 0 0 0
-0.436477 0.110781 1.357 255 255 255
0.183353 0.188247 0.808 255 255 255
-0.358375 -0.75642 2.303 255 255 255
0.0572434 0.0678572 0.966 255 255 255
0.107101 0.0712209 0.948 255 255 255
0.0312064 0.249476 0.988 255 255 255
-0.463946 -0.636265 2.509 255 255 255
0.138856 0.171026 0.833 255 255 255
0.0113823 -0.229178 1.294 255 255 255
-0.358976 0.094691 1.348 255 255 255
-0.298076 -0.181661 1.381 255 255 255
-0.72114 0.490123 1.7 255 255 255
-0.413595 0.165228 1.369 255 255 255
-0.124482 0.215979 1.262 255 255 255
0.317725 -0.00983536 1.036 255 255 255
0.139372 -0.304969 1.466 255 255 255
-0.0767145 0.0196429 1.081 255 255 255
-0.24132 -0.806276 2.53 255 255 255
-0.348857 0.209271 1.31 255 255 255
-0.519512 0.559671 1.591 255 255 255
0.212911 -0.00141529 1.043 255 255 255
-0.555202 -0.144754 1.372 255 255 255
1.04509 -0.8129 2.392 255 255 255
-0.932823 0.292561 1.972 255 255 255
0.299594 -0.325238 1.516 255 255 255
-0.110379 0.176175 1.242 255 255 255
0.188785 0.2545 0.766 255 255 255
0.344379 0.256923 0.695 255 255 255
-0.947023 -0.617885 1.929 255 255 255
0.305739 0.188168 0.649 255 255 255
0.185606 0.0956146 0.888 0 0 0
0.000801751 -0.182322 1.22 255 255 255
-0.0246598 -0.845062 2.707 255 255 255
-0.473183 0.449531 1.714 255 255 255
0.143267 0.17959 0.835 255 255 255
-0.481257 -0.257545 1.299 255 255 255
-0.8522 0.487528 1.691 255 255 255
0.324885 0.124932 0.73 255 255 255
-0.176954 -0.142259 1.27 255 255 255
0.183848 0.17 0.828 255 255 255
0.571295 -1.05444 2.844 255 255 255
-0.0461342 0.0955399 1.027 255 255 255
-0.108238 -0.106722 1.196 255 255 255
0.0440823 0.264033 0.921 255 255 255
0.811143 -0.543379 1.899 255 255 255
-0.0621158 0.162528 1.072 255 255 255
0.0726993 0.282697 0.904 255 255 255
-0.341718 -0.106808 1.432 0 0 0
0.10765 -0.0119772 1.077 255 255 255
0.440598 -0.484486 1.753 255 255 255
-0.287738 -0.616335 2.615 255 255 255
-0.0446023 -0.055897 1.114 255 255 255
0.096706 -0.0245833 1.092 255 255 255
0.420743 0.00339462 0.963 255 255 255
-0.0280691 0.154143 1.039 255 255 255
-1.05601 -0.135933 2.151 255 255 255
-0.14412 0.0570979 1.203 255 255 255
-0.620109 -0.409779 2.402 255 255 255
0.959848 -0.952943 2.593 255 255 255
0.123199 -0.0137044 1.075 255 255 255
-0.454795 -0.199209 1.333 255 255 255
0.0501363 -0.278276 1.439 255 255 255
0.251558 0.131372 0.775 255 255 255
0.501934 -1.14443 2.982 255 255 255
-0.381727 -0.745647 2.479 255 255 255
0.0679478 -0.67832 2.898 255 255 255
-0.38225 0.458697 1.591 255 255 255
0.146931 -0.315369 1.47 255 255 255
0.289232 0.197015 0.733 255 255 255
-0.0906991 0.207144 1.222 255 255 255
-1.03837 0.158613 2.158 255 255 255
0.157047 0.151236 0.836 255 255 255
-0.922907 0.419077 1.774 255 255 255
-0.347447 -0.908018 2.356 255 255 255
0.0236106 0.0379628 1.007 255 255 255
0.0753914 0.284691 0.901 255 255 255
0.0322833 0.0540428 0.972 255 255 255
-0.281123 0.581468 1.494 255 255 255
0.0278778 -0.144796 1.189 255 255 255
-0.902722 -0.651295 1.935 255 255 255
-0.223845 -0.249546 1.409 255 255 255
-0.01092 0.318034 1.017 255 255 255
0.88484 -0.510757 1.859 255 255 255
0.257366 0.22834 0.734 255 255 255
-0.949187 -0.549753 1.966 255 255 255
0.0210986 0.140314 0.967 255 255 255
-0.513717 -0.142539 1.351 255 255 255
-0.26026 0.145355 1.273 255 255 255
0.010424 0.312717 1 255 255 255
0.0727866 0.0412403 1.007 255 255 255
-0.0275558 0.322292 1.02 255 255 255
0.340604 -0.313222 1.449 0 0 0
-0.110408 0.358686 1.034 255 255 255
0.0226945 -0.0618861 1.124 255 255 255
0.240787 0.0957315 0.863 255 255 255
-0.433308 0.0885022 1.354 255 255 255
-0.00739207 0.325043 0.988 255 255 255
0.871215 -0.583522 1.972 255 255 255
0.0881985 -0.0852526 1.143 255 255 255
-0.840378 -0.757709 1.966 255 255 255
0.171399 0.156115 0.833 255 255 255
0.0972067 0.199128 0.873 255 255 255
-0.193537 0.458165 1.327 255 255 255
0.0462661 -0.26258 1.393 255 255 255
0.142077 0.187968 0.836 255 255 255
0.18089 0.306583 0.833 255 255 255
-0.0243695 -0.239151 1.291 255 255 255
-0.0198562 -0.2975 1.419 255 255 255
-0.457298 0.589508 1.547 255 255 255
0.749784 -0.935157 2.626 255 255 255
0.66356 -0.595615 2.024 255 255 255
-0.198437 0.36179 1.262 255 255 255
-0.208491 0.364485 1.286 255 255 255
0.287951 0.193397 0.742 255 255 255
0.086489 -0.0779486 1.145 255 255 255
-0.70222 0.578201 1.571 255 255 255
-0.296471 -0.0897147 1.384 255 255 255
-0.469306 0.0337874 1.369 255 255 255
0.327526 0.0898523 0.81 255 255 255
0.172132 0.174463 0.83 255 255 255
0.412884 -0.247235 1.247 255 255 255
-0.821895 -0.734944 1.991 255 255 255
-0.189227 -0.096679 1.242 255 255 255
0.350271 0.241951 0.691 255 255 255
0.382175 -0.205234 1.316 255 255 255
-0.423223 -0.242544 1.357 255 255 255
-0.0231237 -0.141206 1.225 255 255 255
0.380776 -0.00604552 0.969 255 255 255
-0.0869996 0.1515 1.147 255 255 255
-0.368206 -0.0397583 1.543 255 255 255
-0.59998 -0.714333 2.253 255 255 255
0.423949 -0.151199 1.07 255 255 255
-0.529712 -0.576655 2.365 255 255 255
0.0297814 -0.738463 2.857 255 255 255
-0.553547 0.396875 1.646 255 255 255
-0.86013 -0.506425 1.997 255 255 255
-0.386311 -0.207723 1.375 255 255 255
1.06367 -0.876556 2.519 255 255 255
0.143713 -0.215972 1.254 255 255 255
-0.0292735 0.322924 1.022 255 255 255
0.196049 0.21461 0.775 255 255 255
0.743758 -0.408014 1.696 255 255 255
-0.579523 0.507999 1.659 255 255 255
-0.0847604 0.0768486 1.094 255 255 255
-0.8465 0.525087 1.612 255 255 255
0.0146645 0.326086 0.958 255 255 255
0.439064 -0.948312 3.086 255 255 255
0.81558 -0.613249 2.017 255 255 255
-0.0112925 -0.929797 2.672 255 255 255
-0.653185 0.49449 1.696 255 255 255
-0.369621 -0.763916 2.303 255 255 255
0.492887 -0.17102 1.032 255 255 255
-0.945236 0.230298 2.107 255 255 255
-0.253567 -0.156175 1.336 255 255 255
-0.376368 -0.117633 1.422 255 255 255
-0.412464 -0.804525 2.312 255 255 255
0.0676195 -0.759521 2.884 255 255 255
-0.140271 0.0389537 1.187 255 255 255
0.467144 -0.349163 1.432 0 0 0
0.180295 0.182572 0.812 255 255 255
-0.248319 0.294465 1.205 255 255 255
-0.268268 0.110253 1.378 255 255 255
-0.965863 -0.523711 1.929 255 255 255
0.708918 -0.90024 2.649 255 255 255
0.212364 0.296204 0.784 255 255 255
-0.461514 -0.320467 1.297 255 255 255
0.675969 -0.827442 2.707 255 255 255
-0.46485 0.113989 1.369 255 255 255
-0.136241 0.338934 1.169 255 255 255
0.499458 -0.0842124 1.018 255 255 255
-0.80382 0.553292 1.595 255 255 255
0.2013 0.0837253 0.9 255 255 255
0.0740194 -0.0860731 1.154 255 255 255
0.414045 -0.298677 1.322 255 255 255
-0.597181 -0.452231 2.42 255 255 255
-0.422893 0.524198 1.659 255 255 255
0.308433 0.173724 0.688 255 255 255
0.157052 0.0152445 1.022 255 255 255
0.313702 0.146253 0.68 255 255 255
-0.059798 0.0859286 1.032 255 255 255
0.24416 0.211809 0.756 255 255 255
0.305699 0.153369 0.747 255 255 255
-0.372787 -0.0869453 1.491 255 255 255
1.14875 -1.0037 2.649 255 255 255
-0.797589 -0.473659 1.917 255 255 255
0.219855 0.0791552 0.898 255 255 255
-0.390244 0.238592 1.381 255 255 255
0.373438 -0.0345355 1.07 0 0 0
-0.883322 0.477424 1.714 255 255 255
0.120114 0.292076 0.854 255 255 255
0.0153074 0.0409536 1 255 255 255
-0.0448745 -0.128717 1.22 255 255 255
0.0156134 -0.760483 2.818 255 255 255
-0.209788 0.0108787 1.294 255 255 255
-0.0964689 0.358358 0.978 255 255 255
0.509686 -0.179417 1.032 255 255 255
-0.540344 0.549475 1.599 255 255 255
0.326975 0.115542 0.754 255 255 255
0.384178 0.0439849 0.896 255 255 255
0.0882248 0.0969012 0.928 255 255 255
0.0430917 0.317236 0.932 255 255 255
0.384691 0.0419722 0.855 255 255 255
-0.0525129 -0.0387286 1.09 255 255 255
-1.11471 -0.180173 2.136 255 255 255
-0.804425 0.345707 1.911 255 255 255
-0.358367 -0.585273 2.572 255 255 255
0.767859 -0.790362 2.572 255 255 255
-0.802571 -0.684545 2.024 255 255 255
0.997711 -0.918063 2.626 0 0 0
0.779706 -0.96507 2.626 255 255 255
0.3304 0.117735 0.737 0 0 0
-0.874137 0.4423 1.763 255 255 255
0.407254 -0.150483 1.13 255 255 255
-0.877006 0.4423 1.763 255 255 255
0.231807 0.243558 0.744 255 255 255
-0.171936 -0.187515 1.327 255 255 255
-0.864826 -0.668987 1.978 255 255 255
0.644773 -0.941112 2.743 255 255 255
1.01481 -0.91379 2.626 255 255 255
0.0848392 0.0735311 0.958 255 255 255
-0.216037 -0.608122 2.731 255 255 255
0.132132 0.156432 0.842 255 255 255
-0.614069 0.104171 1.555 255 255 255
-0.863949 -0.360672 1.947 255 255 255
-0.500027 0.596477 1.539 255 255 255
0.256648 0.10041 0.855 0 0 0
-0.543704 0.272692 1.535 255 255 255
0.271522 0.150324 0.75 255 255 255
-0.538724 0.0538718 1.429 255 255 255
0.243875 0.157254 0.791 255 255 255
-0.563133 0.15377 1.52 255 255 255
-0.372142 0.094691 1.348 255 255 255
0.280823 0.0380285 0.967 255 255 255
-0.26097 -0.214436 1.375 255 255 255
-0.945986 -0.559351 1.966 255 255 255
0.135406 -0.052459 1.118 255 255 255
-0.15174 -0.0927525 1.217 255 255 255
-0.93737 -0.657593 1.935 255 255 255
-0.110831 -0.860691 2.66 255 255 255
0.16853 -1.00353 2.844 255 255 255
-1.16032 0.0148882 2.196 255 255 255
0.160562 -0.237051 1.291 255 255 255
-0.0109952 0.161916 1.024 255 255 255
0.731739 -0.90938 2.638 255 255 255
0.0437764 -0.0283951 1.102 255 255 255
-0.146314 0.0351496 1.189 255 255 255
-0.389082 0.0516099 1.369 255 255 255
0.231411 -0.0690518 1.152 255 255 255
0.00694617 0.326676 0.969 255 255 255
0.454348 -0.240069 1.201 255 255 255
0.153771 0.19136 0.833 255 255 255
0.07292 0.352418 0.945 255 255 255
-0.567607 -0.154021 1.375 255 255 255
0.367899 -0.0692181 1.187 255 255 255
0.270272 -0.210791 1.324 255 255 255
0.312845 -0.0643637 1.169 255 255 255
-0.850403 0.498619 1.682 255 255 255
0.296545 0.197521 0.705 255 255 255
0.113493 -0.682671 2.857 255 255 255
-0.386257 0.579904 1.555 255 255 255
1.14557 -0.952943 2.593 255 255 255
0.338245 -0.299074 1.449 0 0 0
-0.601236 -0.715132 2.244 255 255 255
0.420102 -0.366245 1.463 0 0 0
0.211627 0.303355 0.786 255 255 255
-0.587638 -0.126841 1.396 255 255 255
0.256948 0.0782391 0.856 255 255 255
0.412841 -0.144171 1.096 255 255 255
-0.0998625 -0.111902 1.189 255 255 255
-0.917024 0.357854 1.893 255 255 255
-0.767667 0.480466 1.705 255 255 255
-0.971977 0.215279 2.128 255 255 255
-0.423806 -0.170796 1.366 255 255 255
0.244905 -1.02708 2.871 255 255 255
0.0283699 0.34854 0.947 255 255 255
-0.424782 -0.203543 1.362 255 255 255
-0.682672 0.559671 1.591 255 255 255
-0.975031 -0.612252 1.941 255 255 255
0.397894 0.0903825 0.803 255 255 255
-0.352625 0.57017 1.563 255 255 255
0.0389048 -0.762871 2.844 255 255 255
-0.0475902 -0.177096 1.239 255 255 255
-0.0333244 -0.845702 2.695 255 255 255
-0.357285 0.0422445 1.429 255 255 255
-0.470393 0.449531 1.714 255 255 255
0.271407 0.21784 0.743 255 255 255
-0.193226 0.261473 1.18 255 255 255
-0.542035 -0.100976 1.384 255 255 255
0.274419 0.182765 0.758 255 255 255
0.0633491 -0.146257 1.201 255 255 255
0.0334292 -0.105295 1.18 255 255 255
-0.26482 0.145584 1.275 255 255 255
0.223282 0.24373 0.752 255 255 255
0.0546953 0.123416 0.923 255 255 255
-0.449442 -0.220404 1.33 255 255 255
-0.0388054 0.274978 1.055 255 255 255
-0.04224 0.161667 1.055 255 255 255
0.581783 -0.340653 1.416 255 255 255
-0.509767 0.246062 1.48 255 255 255
0.19871 0.0964038 0.882 255 255 255
0.134378 -0.241189 1.302 255 255 255
-0.63227 -0.733731 2.212 255 255 255
-0.392298 0.0820735 1.357 255 255 255
0.0862314 0.261409 0.877 255 255 255
-0.623383 -0.545051 2.43 0 0 0
0.282133 0.133059 0.749 255 255 255
0.28892 -0.10283 1.196 255 255 255
0.40654 -0.104279 1.108 255 255 255
-0.996838 -0.511263 1.978 255 255 255
-0.362421 -0.882452 2.329 255 255 255
0.304104 0.0678407 0.923 255 255 255
-1.02475 -0.107391 2.212 255 255 255
0.165457 -0.886915 2.871 255 255 255
0.539686 -0.810368 2.898 255 255 255
0.276286 0.131319 0.753 255 255 255
-0.505883 -0.246558 1.308 255 255 255
-0.746939 0.379063 1.876 255 255 255
-1.028 -0.272448 2.151 255 255 255
0.251306 0.201533 0.759 255 255 255
0.14587 0.0900773 0.92 0 0 0
-0.991032 -0.597187 1.923 255 255 255
0.372169 -0.128717 1.22 255 255 255
-0.106975 0.0430145 1.141 255 255 255
-0.751236 -0.698074 2.064 255 255 255
-0.806901 0.257168 1.947 255 255 255
0.0228659 0.0173378 1.048 255 255 255
-0.361286 0.0356631 1.445 255 255 255
-0.481364 0.0743737 1.378 255 255 255
-0.752079 -0.722913 2.03 255 255 255
0.0709126 0.260941 0.9 255 255 255
-1.08139 -0.0597468 2.181 255 255 255
-0.351793 0.1777 1.313 255 255 255
-0.167898 -0.0271272 1.205 255 255 255
-0.23431 -0.239351 1.403 255 255 255
-0.496255 -0.267082 1.294 255 255 255
-0.510076 -0.708667 2.294 255 255 255
0.0562586 0.316017 0.924 255 255 255
0.0400704 0.0917211 0.969 255 255 255
0.343516 -0.254162 1.422 0 0 0
0.363353 0.0628697 0.895 255 255 255
0.0852873 0.222711 0.882 255 255 255
0.00862907 0.110418 0.981 255 255 255
0.117068 -0.957484 2.831 255 255 255
-0.130755 -0.0435122 1.171 255 255 255
-0.96014 -0.0780257 2.196 255 255 255
-0.113018 0.0685652 1.165 255 255 255
0.177852 -0.240539 1.31 255 255 255
-0.0897845 -0.0495626 1.135 255 255 255
0.0231182 0.28748 0.986 255 255 255
-0.193974 0.11507 1.33 255 255 255
0.211491 0.073963 0.906 0 0 0
-0.527968 0.17586 1.477 255 255 255
-0.160717 -0.165364 1.289 255 255 255
-0.525986 -0.577166 2.383 255 255 255
-0.383786 -0.524022 2.519 255 255 255
-0.273942 -0.220344 1.384 255 255 255
0.19111 0.018171 1 255 255 255
0.0138234 -0.0762183 1.147 255 255 255
0.330375 -0.0099113 1.044 255 255 255
