ply
format ascii 1.0
comment Created by Open3D
element vertex 1298
property double x
property double y
property double z
property uchar red
property uchar green
property uchar blue
end_header
-0.448134 0.347812 2.092 255 255 255
-0.522942 0.131197 1.149 255 255 255
-0.500776 -0.87215 2.53 255 255 255
0.513729 0.512895 1.769 255 255 255
-0.135863 0.210135 2.22 255 255 255
0.413866 -0.3672 1.837 255 255 255
0.508574 -0.151799 1.559 255 255 255
0.543305 0.187609 1.494 255 255 255
0.345669 -0.577507 1.941 255 255 255
0.273315 -0.42178 1.966 255 255 255
0.38724 0.613456 1.603 255 255 255
-0.567706 0.191602 2.347 255 255 255
-0.443119 -0.970961 2.53 255 255 255
-0.398519 0.566011 1.729 255 255 255
0.358307 -0.586983 1.941 255 255 255
-0.681115 -0.142769 2.672 255 255 255
0.0547027 -0.602721 1.826 255 255 255
-0.71596 -0.0949857 2.449 255 255 255
-0.109691 0.61469 1.62 255 255 255
0.0500816 0.24042 2.136 255 255 255
0.270827 -0.654895 1.882 255 255 255
-0.184086 0.593962 1.673 255 255 255
0.295912 0.610848 1.603 255 255 255
0.602886 0.163263 1.178 255 255 255
-0.425777 0.452554 1.929 255 255 255
-0.290586 0.0486841 2.459 255 255 255
-0.430055 -0.748148 2.707 255 255 255
-0.368364 -0.77458 2.707 255 255 255
0.611163 0.33909 1.254 255 255 255
-0.238523 0.39582 1.991 255 255 255
0.534899 -0.101414 1.39 255 255 255
-0.730862 -0.464538 2.831 255 255 255
0.542193 -0.0688732 1.289 255 255 255
-0.550754 0.514304 1.794 255 255 255
-0.0859676 -0.630805 2.695 255 255 255
5.36627 -3.89613 12.102 255 255 255
-0.131361 0.0905529 2.402 255 255 255
-0.315882 -0.043529 2.469 255 255 255
0.314073 -0.561714 1.941 255 255 255
0.461084 0.569785 1.682 255 255 255
0.515851 0.344434 1.691 255 255 255
0.249979 0.314666 2.121 255 255 255
-0.369048 0.534107 1.763 255 255 255
0.217198 -0.109034 2.173 255 255 255
0.114469 0.136929 2.044 255 255 255
0.512841 0.032588 1.646 255 255 255
-0.113708 0.244695 2.143 255 255 255
-0.239496 0.608279 1.624 255 255 255
-0.126567 -0.729341 2.719 255 255 255
0.41225 0.0765079 2.121 255 255 255
0.47484 0.525372 1.753 255 255 255
0.500436 0.400981 1.893 255 255 255
-0.577688 -0.182409 1.539 255 255 255
-0.683192 -0.0961038 2.286 255 255 255
-0.388942 0.304868 0.883 255 255 255
-0.687553 -0.264916 2.365 0 0 0
0.331515 -0.11059 2.204 255 255 255
-0.472031 0.231745 0.981 255 255 255
-0.53581 -0.571941 2.707 255 255 255
-0.618248 0.219798 1.215 255 255 255
0.534614 0.44349 1.734 255 255 255
-0.203626 -0.29138 2.805 255 255 255
0.527352 -0.147708 1.4 255 255 255
-0.541297 -0.117772 1.579 255 255 255
-0.650586 -0.179868 1.477 255 255 255
0.283841 -0.110188 2.196 255 255 255
-0.678247 0.178071 2.32 255 255 255
0.324995 0.34769 2.071 255 255 255
-0.169751 0.0746056 2.392 255 255 255
-0.715225 -0.167404 2.719 255 255 255
-0.263426 0.0797452 2.43 255 255 255
0.57955 0.328399 1.362 255 255 255
-0.595883 -0.132138 1.941 255 255 255
-0.673664 -0.593288 2.626 255 255 255
-0.692021 -0.733934 2.303 255 255 255
-0.552131 0.486669 1.789 255 255 255
-0.0181061 -0.479798 2.42 255 255 255
-0.450475 -0.924298 2.572 255 255 255
-0.638877 -0.815475 2.572 255 255 255
-0.735841 -0.533229 2.604 255 255 255
-0.402797 0.375408 1.02 255 255 255
-0.400616 0.531238 1.763 255 255 255
-0.349659 0.564375 1.724 255 255 255
-0.39261 0.1629 2.374 255 255 255
0.0667903 -0.529812 1.917 255 255 255
0.608111 0.335904 1.192 255 255 255
-0.639572 -0.0717079 1.265 255 255 255
0.619561 -0.240891 1.267 255 255 255
-0.513917 0.209242 1.079 255 255 255
-0.0306308 0.192952 2.189 0 0 0
0.557835 0.038904 1.316 255 255 255
0.132346 0.498095 1.831 255 255 255
-0.483878 0.00242528 1.278 255 255 255
0.450973 -0.224317 1.842 255 255 255
0.566646 -0.323442 1.442 255 255 255
-0.47933 0.0603319 1.229 255 255 255
-0.688813 -0.0819815 2.54 255 255 255
0.274959 -0.697195 1.848 255 255 255
-0.161837 -0.262862 2.793 255 255 255
0.197555 -0.317308 2.078 255 255 255
-0.311221 0.267478 2.158 255 255 255
0.189212 -0.612514 1.893 255 255 255
0.532146 -0.636618 1.673 255 255 255
0.524993 -0.642089 1.659 255 255 255
-0.565745 0.0390494 1.252 255 255 255
0.286116 -0.450574 1.966 255 255 255
0.458016 -0.271777 1.799 255 255 255
-0.18281 0.375467 2.057 255 255 255
0.321167 -0.702013 1.837 255 255 255
0.451693 -0.021519 1.935 255 255 255
-0.504004 0.59145 1.705 255 255 255
0.602239 -0.19603 1.244 255 255 255
0.542214 -0.0432711 1.491 255 255 255
0.516357 -0.127726 1.575 255 255 255
-0.533892 0.0531836 1.249 255 255 255
0.517341 -0.148443 1.429 255 255 255
7.56136 -6.13659 17.635 255 255 255
0.501017 -0.262829 1.484 255 255 255
-0.216702 -0.459506 2.857 255 255 255
-0.0420983 -0.170312 2.695 255 255 255
-0.393153 0.297451 0.834 255 255 255
-0.230598 0.592958 1.655 255 255 255
0.0517532 0.370027 2.064 255 255 255
-0.394134 0.388158 1.05 255 255 255
0.257673 0.590972 1.642 255 255 255
0.74001 -0.562964 1.794 255 255 255
-0.404447 0.337788 1.037 255 255 255
0.306481 0.531078 1.753 255 255 255
-0.795574 -0.607341 1.966 255 255 255
0.0661016 0.579935 1.664 255 255 255
-0.482412 0.105998 1.381 255 255 255
-0.445239 -0.729341 2.719 255 255 255
0.503572 -0.0299009 1.696 255 255 255
0.332163 0.528225 1.753 255 255 255
-0.652956 -0.166565 1.445 255 255 255
5.93173 -3.65826 12.858 255 255 255
-0.33871 0.496705 1.848 255 255 255
0.543542 0.29226 1.587 255 255 255
0.481552 -0.627224 1.677 255 255 255
0.570042 -0.0036617 1.227 255 255 255
0.226403 -0.381015 2.004 255 255 255
0.0496391 -0.616639 1.859 255 255 255
0.378646 0.0078538 2.228 255 255 255
0.546933 0.282519 1.62 255 255 255
-0.430508 0.334347 1.299 255 255 255
0.629462 -0.382988 1.52 255 255 255
-0.254737 0.602492 1.637 255 255 255
0.534894 0.0144996 1.445 255 255 255
-0.544451 0.56814 1.71 255 255 255
-0.277161 -0.473454 2.857 255 255 255
0.53445 -0.103967 1.425 255 255 255
-0.102171 -0.0728686 2.66 255 255 255
0.438778 -0.365534 1.691 255 255 255
0.543086 -0.224381 1.354 255 255 255
0.335969 0.596236 1.62 255 255 255
0.331317 0.55994 1.719 255 255 255
0.132735 -0.528341 1.923 255 255 255
-0.548171 0.129102 1.147 255 255 255
-0.713495 -0.482294 1.978 255 255 255
-0.179185 -0.840707 2.78 255 255 255
0.241705 0.47523 1.87 255 255 255
-0.696061 -0.371663 1.815 255 255 255
-0.618732 -0.00540018 1.171 255 255 255
0.24085 0.536783 1.753 255 255 255
0.418676 0.0673076 2.051 255 255 255
0.419388 0.0612235 2.071 255 255 255
-0.416619 0.201155 1.055 255 255 255
-0.050771 0.10888 2.294 255 255 255
-0.543474 0.493611 1.859 255 255 255
0.525511 0.137997 1.595 255 255 255
-0.406228 0.240715 1.012 255 255 255
0.449434 0.481668 1.848 255 255 255
-0.39057 0.28584 0.9 255 255 255
-0.654725 -0.939025 2.489 255 255 255
0.509292 -0.229719 1.473 255 255 255
-0.500481 -0.605461 2.78 255 255 255
-0.485367 0.567661 1.509 255 255 255
0.352135 0.608323 1.563 255 255 255
0.136117 -0.403812 1.972 255 255 255
0.393153 0.221769 2.228 255 255 255
0.329388 0.293956 2.121 255 255 255
-0.480982 0.00461145 2.43 255 255 255
-0.184015 -0.893868 2.593 255 255 255
-0.51422 0.187782 2.347 255 255 255
-0.356719 -0.844384 2.719 255 255 255
-0.412297 0.309416 0.795 255 255 255
0.559017 -0.186357 1.366 255 255 255
-0.680479 -0.152265 1.4 255 255 255
0.0117128 -0.81819 2.114 255 255 255
-0.275801 0.238175 2.212 255 255 255
0.683022 -0.449413 1.696 255 255 255
-0.555278 0.158047 1.182 255 255 255
0.505862 -0.0905051 1.47 255 255 255
-0.510739 0.0726937 2.459 255 255 255
9.42956 -7.95478 22.86 255 255 255
0.453847 0.329852 2.044 255 255 255
0.299886 -0.58413 1.911 255 255 255
0.126095 -0.299388 2.071 255 255 255
-0.175666 0.558764 1.724 255 255 255
-0.467886 0.104837 1.147 255 255 255
-0.684779 -0.312508 2.831 255 255 255
-0.549232 -0.144475 1.509 255 255 255
0.568094 -0.129439 1.139 255 255 255
-0.772221 -0.898521 2.489 255 255 255
0.437246 -0.329403 1.81 255 255 255
-0.200028 -0.86763 2.695 255 255 255
0.552665 -0.190677 1.319 255 255 255
0.593675 -0.261857 1.31 255 255 255
0.517244 -0.151701 1.416 255 255 255
-0.802237 -0.895639 2.374 255 255 255
0.414454 -0.488 1.853 255 255 255
0.379354 -0.364481 1.985 255 255 255
0.318748 0.243796 2.166 255 255 255
-0.0917404 0.49809 1.842 255 255 255
-0.525486 -0.855681 2.53 255 255 255
0.40803 -0.397077 1.865 255 255 255
-0.45086 0.193257 1.005 255 255 255
-0.399748 0.284559 1.004 255 255 255
0.218798 -0.152584 2.189 255 255 255
-0.127883 0.587603 1.686 255 255 255
0.0948294 -0.309847 2.051 255 255 255
-0.690634 -0.0403027 2.286 255 255 255
-0.714483 -0.327779 1.724 255 255 255
-0.132728 -0.792798 2.755 255 255 255
0.407184 -0.673148 1.769 255 255 255
0.277342 0.569469 1.714 255 255 255
-0.661613 -0.129408 1.375 255 255 255
0.472402 -0.411147 1.664 255 255 255
0.350756 -0.660835 1.917 255 255 255
6.40015 -3.75758 13.132 0 0 0
0.575098 0.0060798 1.18 255 255 255
0.681306 -0.561844 1.763 255 255 255
-0.608036 -0.733371 2.638 255 255 255
-0.640363 -0.520057 2.064 255 255 255
0.209948 -0.432694 1.972 255 255 255
-0.652094 -0.72951 2.479 255 255 255
-0.101896 0.217887 2.189 255 255 255
-0.0761912 -0.393192 2.66 255 255 255
0.408453 -0.0913597 2.017 255 255 255
0.243065 0.236843 0.606 255 255 255
-0.409781 0.292907 1.064 255 255 255
0.584627 0.0901286 1.254 255 255 255
-0.548986 0.454787 1.899 255 255 255
0.346472 -0.351256 2.099 255 255 255
0.400592 0.486176 1.831 255 255 255
-0.722441 0.0454093 2.499 255 255 255
-0.477138 -0.394416 2.857 255 255 255
-0.132887 0.603126 1.646 255 255 255
-0.713621 -0.594525 2.54 255 255 255
0.543173 0.0308958 1.442 255 255 255
-0.0415866 -0.658494 2.411 255 255 255
0.503453 -0.163878 1.463 255 255 255
0.246335 0.484535 1.859 255 255 255
0.250008 0.217536 0.599 255 255 255
0.113598 0.437261 1.917 255 255 255
-0.282669 0.132994 2.392 255 255 255
-0.104123 -0.0196578 2.499 255 255 255
-0.0529203 0.594391 1.659 255 255 255
0.00538341 -0.497781 2.356 255 255 255
0.510678 0.156116 1.739 255 255 255
-0.305893 -0.677844 2.78 255 255 255
-0.227836 0.204372 2.236 255 255 255
-0.809966 -0.876322 2.374 255 255 255
7.87713 -6.25138 17.635 255 255 255
0.601421 0.26936 1.198 255 255 255
-0.425532 -0.635563 2.793 255 255 255
0.597062 0.189904 1.201 255 255 255
0.263856 -0.668071 1.876 255 255 255
0.528031 -0.113026 1.452 255 255 255
-0.0143951 -0.427506 2.459 255 255 255
-0.646585 -0.651141 2.356 255 255 255
-0.349766 0.393763 1.997 255 255 255
0.447434 0.139295 2.03 255 255 255
-0.616711 -0.207912 1.524 255 255 255
0.518581 0.170159 1.682 255 255 255
-0.434 0.204272 0.957 255 255 255
-0.491146 0.125587 1.149 255 255 255
-0.34743 0.307468 2.143 255 255 255
0.137695 -0.582296 1.905 255 255 255
0.371313 -0.314983 2.085 255 255 255
-0.547753 0.473925 1.853 255 255 255
-0.535174 0.0471991 1.252 255 255 255
-0.573344 0.359836 1.81 255 255 255
0.457296 0.226873 1.959 255 255 255
0.457081 -0.463785 1.729 255 255 255
0.507614 0.0600232 1.664 255 255 255
0.540667 -0.0482864 1.359 255 255 255
-0.642864 -0.391587 1.959 255 255 255
0.438883 0.583111 1.65 255 255 255
-0.923485 -0.484037 1.959 255 255 255
-0.818252 -0.614742 1.959 255 255 255
0.41225 0.276699 2.121 255 255 255
-0.168647 -0.681066 2.831 255 255 255
0.0635402 0.259441 2.121 255 255 255
0.543372 0.301065 1.579 255 255 255
0.597864 0.381719 1.324 255 255 255
0.621961 -0.212737 1.247 255 255 255
-0.721248 -0.860828 2.509 255 255 255
0.0283941 -0.129719 2.356 255 255 255
-0.0439841 -0.430878 2.55 255 255 255
-0.531351 0.109281 1.135 255 255 255
0.416772 0.591837 1.637 255 255 255
0.00153647 0.0691167 2.338 255 255 255
-0.238264 -0.839222 2.731 255 255 255
-0.367335 0.216393 0.81 255 255 255
-0.781475 -0.691356 2.064 255 255 255
-0.755481 -0.45465 1.929 255 255 255
-0.61506 -0.897574 2.509 255 255 255
0.596524 -0.0424949 1.196 255 255 255
0.534764 0.468318 1.753 255 255 255
0.00157196 -0.0382789 2.392 255 255 255
-0.0577051 0.285607 2.136 255 255 255
-0.625349 -0.939515 2.469 255 255 255
-0.594148 -0.252092 1.784 255 255 255
-0.411049 0.315179 1.081 255 255 255
0.294203 -0.563127 1.935 255 255 255
-0.0373895 -0.138421 2.672 255 255 255
-0.372381 0.213989 0.801 255 255 255
0.461276 0.281002 2.004 255 255 255
0.661667 -0.582204 1.705 255 255 255
0.381664 -0.682952 1.826 255 255 255
0.00674564 0.564375 1.724 255 255 255
10.9552 -8.66159 22.86 0 0 0
0.146296 0.343093 2.024 255 255 255
0.266958 0.557143 1.719 255 255 255
-0.244139 -0.918847 2.604 255 255 255
0.570842 0.37711 1.429 255 255 255
0.439165 -0.364927 1.714 255 255 255
-0.340606 -0.601776 2.805 255 255 255
0.433977 0.222158 2.196 255 255 255
-0.107462 -0.759263 2.684 255 255 255
0.548291 0.345557 1.571 255 255 255
-0.463998 0.620365 1.642 255 255 255
-0.501531 -0.0138891 1.463 255 255 255
-0.489309 -0.66591 2.768 255 255 255
-1.1455 -0.737042 2.244 255 255 255
0.556152 -0.0084787 1.359 255 255 255
0.577594 -0.250783 1.342 255 255 255
-0.248446 -0.116 2.561 255 255 255
-0.641132 -0.592321 2.024 255 255 255
0.464776 0.510016 1.769 255 255 255
0.477349 0.467267 1.887 255 255 255
0.056773 -0.394059 2.004 255 255 255
-0.505709 0.470239 1.899 255 255 255
0.472658 0.000486423 1.799 255 255 255
0.517603 0.054112 1.571 255 255 255
-0.451313 0.225302 1.342 255 255 255
-0.71955 -0.193747 2.489 255 255 255
0.586485 0.147786 1.313 255 255 255
0.199813 0.227323 0.589 255 255 255
-0.138974 0.212977 2.212 255 255 255
0.400491 -0.267673 2.01 255 255 255
-0.515721 -0.0635799 1.456 255 255 255
-0.2632 0.121316 2.392 255 255 255
-0.0874988 -0.173345 2.743 255 255 255
0.0546113 0.563198 1.729 255 255 255
-0.509344 -0.0560526 1.387 255 255 255
-0.650097 -0.584011 2.743 255 255 255
-0.972398 -0.716743 2.099 255 255 255
0.55546 0.382941 1.599 255 255 255
-0.641631 -0.0717079 1.265 255 255 255
0.533786 -0.267114 1.393 255 255 255
-0.424416 0.16887 1.102 255 255 255
-0.712812 -0.604356 2.582 255 255 255
0.573883 0.260107 1.425 255 255 255
0.523915 -0.154874 1.403 255 255 255
0.194979 0.229026 0.586 255 255 255
-0.443672 0.180324 1.034 255 255 255
-0.662343 -0.218976 1.532 255 255 255
-0.420484 0.248555 1.13 255 255 255
-0.725168 -0.472969 1.966 255 255 255
-0.00676633 -0.609505 2.604 255 255 255
0.602509 0.13007 1.208 255 255 255
-0.484006 0.143484 1.128 255 255 255
-0.812567 -0.606503 1.953 255 255 255
0.176817 0.533046 1.769 255 255 255
0.571941 -0.353641 1.48 255 255 255
-0.209197 -0.933465 2.54 255 255 255
-0.491075 0.163517 2.383 255 255 255
0.411736 -0.130748 2.017 255 255 255
-0.603558 0.336461 1.966 255 255 255
0.495143 -0.457347 1.705 255 255 255
0.564731 0.0504556 1.283 255 255 255
-0.514733 0.308778 2.128 255 255 255
-0.545635 0.427749 1.705 255 255 255
-0.579875 -0.532295 2.707 255 255 255
0.392547 -0.334321 1.923 255 255 255
-0.570151 -0.413013 2.857 255 255 255
0.137455 -0.180764 2.143 255 255 255
-0.152312 0.530269 1.779 255 255 255
0.405484 0.200733 2.236 255 255 255
-0.232861 0.583842 1.691 255 255 255
0.241866 0.393763 1.997 255 255 255
0.181826 -0.11257 2.173 255 255 255
-0.587483 -0.105235 2.604 255 255 255
-0.911175 -0.780909 2.173 255 255 255
0.333927 -0.204511 2.173 255 255 255
11.7107 -9.35421 24.688 255 255 255
-0.528523 -0.083304 1.513 255 255 255
0.351964 -0.400494 2.071 255 255 255
0.598628 0.374113 1.262 255 255 255
-0.327249 -0.885173 2.695 255 255 255
-0.377471 0.265041 2.196 255 255 255
0.578619 0.505083 1.491 255 255 255
-0.168294 0.436859 1.929 255 255 255
-0.491431 -0.628081 2.78 255 255 255
0.180538 -0.580462 1.899 255 255 255
0.308386 0.272594 2.143 255 255 255
0.604195 0.433939 1.319 255 255 255
-0.45094 0.29927 1.381 0 0 0
-0.700277 0.127159 2.356 255 255 255
-0.579835 -0.00739313 1.185 255 255 255
0.535896 0.184718 1.595 255 255 255
0.56456 0.0531168 1.297 255 255 255
-0.100011 -0.481558 2.719 255 255 255
-0.598723 0.0292592 2.509 255 255 255
0.533683 -0.134467 1.381 255 255 255
-0.504982 -0.309638 2.805 255 255 255
-0.508911 -0.0385116 1.327 255 255 255
0.529631 -0.25023 1.4 255 255 255
-0.406494 0.289368 0.804 255 255 255
-0.024194 0.55757 1.729 255 255 255
0.452841 0.193528 2.01 255 255 255
-0.246694 0.132494 2.383 0 0 0
-0.414256 0.190052 1.032 255 255 255
0.273698 0.227853 0.583 0 0 0
0.04331 0.397857 1.985 255 255 255
-0.353375 0.288549 2.158 255 255 255
-0.989823 -0.719474 2.107 255 255 255
-0.0449538 0.593475 1.664 255 255 255
-0.509548 -0.300509 2.805 255 255 255
0.564938 0.174903 1.375 255 255 255
0.336003 0.584376 1.646 255 255 255
0.354984 -0.656644 1.923 255 255 255
-0.0874988 -0.356359 2.743 255 255 255
0.225998 -0.416649 1.972 255 255 255
0.388671 0.179541 2.244 255 255 255
-0.546103 0.440932 1.724 255 255 255
-0.583396 -0.220369 2.831 255 255 255
0.541601 -0.182056 1.384 255 255 255
-0.120643 0.57865 1.7 255 255 255
-0.570681 -0.0732282 1.33 255 255 255
0.609781 0.343285 1.247 255 255 255
-0.441615 0.141926 1.192 255 255 255
0.493466 0.119177 1.779 255 255 255
0.0114746 0.364541 2.071 255 255 255
-0.626173 0.240272 2.166 255 255 255
0.587035 0.40709 1.412 255 255 255
0.44016 0.042787 1.997 255 255 255
-0.422689 0.519081 1.821 255 255 255
-0.0721854 -0.638466 2.672 255 255 255
0.528309 0.0327384 1.528 255 255 255
-0.447421 0.120739 1.213 255 255 255
-0.830321 -0.387239 1.805 255 255 255
-0.333113 -0.175475 2.707 255 255 255
0.135146 -0.260018 2.107 255 255 255
-0.508224 0.538314 1.758 255 255 255
-0.662316 -0.568309 2.649 255 255 255
0.400139 -0.692403 1.789 255 255 255
0.429183 -0.36182 1.753 255 255 255
-0.695171 -0.163222 1.416 255 255 255
0.256191 0.225972 0.593 255 255 255
0.578891 0.0137141 1.176 255 255 255
0.455401 0.23419 2.051 255 255 255
-0.00257121 -0.176026 2.649 255 255 255
0.154396 0.133603 2.044 255 255 255
-0.456545 0.514564 1.826 255 255 255
25.0058 -25.4709 65.535 255 255 255
0.636856 -0.404535 1.575 255 255 255
-0.568958 -0.044617 1.316 255 255 255
-0.590302 0.419476 1.826 255 255 255
-0.689898 -0.934664 2.499 255 255 255
0.494589 0.145217 1.815 255 255 255
-0.0134819 -0.632745 2.303 255 255 255
0.140944 -0.051731 2.143 255 255 255
-0.493033 0.0760048 1.452 255 255 255
0.43598 -0.491787 1.769 255 255 255
-0.48057 0.493382 1.429 255 255 255
-0.825261 -0.379041 1.794 255 255 255
-0.131426 0.426942 1.941 255 255 255
-0.22635 -0.19224 2.695 255 255 255
0.155134 -0.282941 2.099 255 255 255
0.551902 0.0356206 1.354 255 255 255
0.0343785 -0.468545 2.03 255 255 255
0.545238 0.321793 1.555 255 255 255
-1.01754 -0.799543 2.166 255 255 255
0.575302 0.0324636 1.234 255 255 255
0.0669853 0.0406304 2.236 255 255 255
-0.41647 0.199439 1.046 255 255 255
-0.492094 -0.132366 2.638 255 255 255
-0.570633 0.157708 1.194 255 255 255
-0.541703 0.108029 1.122 255 255 255
0.218481 0.553539 1.734 255 255 255
-0.325737 -0.216075 2.719 255 255 255
0.172992 0.518694 1.789 255 255 255
-0.251597 -0.53825 2.831 255 255 255
-0.549412 0.454506 1.691 255 255 255
-0.794792 -0.612403 1.972 255 255 255
-0.600995 -0.777042 2.626 255 255 255
0.260508 0.495115 1.831 255 255 255
-0.226224 -0.134328 2.593 255 255 255
-0.0543151 0.11222 2.286 255 255 255
-0.652941 -0.178587 2.755 255 255 255
0.382305 0.320729 2.071 255 255 255
0.0125716 0.118771 2.269 255 255 255
-0.341046 0.612349 1.642 255 255 255
11.7681 -9.68734 26.835 255 255 255
-0.161166 0.565535 1.719 255 255 255
0.275335 -0.397321 2.004 255 255 255
0.549172 -0.171108 1.225 255 255 255
0.530729 -0.386767 1.535 255 255 255
0.270399 0.351216 2.092 255 255 255
0.570809 -0.299351 1.406 255 255 255
-0.502744 -0.378737 2.844 255 255 255
-0.326393 0.44038 1.917 255 255 255
0.431417 -0.517406 1.739 255 255 255
-0.60293 0.230453 2.278 255 255 255
-0.565907 -0.769512 2.768 255 255 255
0.162126 -0.618629 1.865 255 255 255
-0.984239 -0.603325 1.953 255 255 255
-0.544904 -0.433725 2.871 255 255 255
-0.496927 0.157608 1.124 255 255 255
0.234991 0.228801 0.603 255 255 255
-0.0451053 -0.0758913 2.615 255 255 255
18.6569 -17.912 47.478 255 255 255
-0.416763 0.282807 1.12 255 255 255
0.348787 0.0976807 2.294 255 255 255
0.395887 0.467889 1.865 255 255 255
0.398222 -0.402471 1.876 255 255 255
-0.573502 -0.0695678 1.302 255 255 255
0.382709 -0.598412 1.831 255 255 255
0.546933 0.269338 1.62 255 255 255
-0.317565 -0.378737 2.844 255 255 255
6.14364 -4.12087 13.132 255 255 255
0.00518461 -0.656635 2.269 255 255 255
-0.525075 -0.695605 2.743 255 255 255
0.185832 0.201464 2.024 255 255 255
0.0199828 0.4435 1.917 255 255 255
-0.835035 -0.4643 1.917 255 255 255
0.203797 -0.0845912 2.181 255 255 255
0.151069 -0.352031 2.044 255 255 255
15.5979 -13.7999 38.575 255 255 255
-0.332902 0.579271 1.71 255 255 255
0.503468 0.274911 1.794 255 255 255
-0.00827921 0.40221 1.959 255 255 255
-0.125517 0.326304 2.107 255 255 255
-0.620744 -0.885864 2.499 255 255 255
-0.455167 0.0806586 1.234 255 255 255
0.277331 -0.264626 2.173 255 255 255
0.568042 0.0130948 1.305 255 255 255
-0.82146 -0.259098 1.579 255 255 255
-0.880413 -0.832678 2.286 255 255 255
0.550352 -0.637058 1.646 255 255 255
0.579169 0.49654 1.48 255 255 255
0.419901 0.348687 2.057 255 255 255
-0.404901 0.22285 0.977 255 255 255
0.419392 -0.235982 1.991 255 255 255
0.507272 -0.010001 1.603 255 255 255
0.278111 -0.58724 1.911 255 255 255
-0.396266 -0.332456 2.844 255 255 255
-0.428076 -0.211875 2.78 255 255 255
-0.4881 0.220084 1.039 255 255 255
0.18731 -0.560596 1.905 255 255 255
-0.0584256 0.0486841 2.459 255 255 255
8.92198 -7.25974 20.574 255 255 255
0.0667717 0.131298 2.114 255 255 255
0.434563 0.238386 2.181 255 255 255
0.443451 0.522519 1.753 255 255 255
-0.309613 -0.0190363 2.42 255 255 255
0.255118 0.232543 0.595 255 255 255
-0.731812 -0.376121 1.794 255 255 255
-0.0782957 0.588946 1.682 255 255 255
-0.314662 -0.599979 2.818 255 255 255
0.114309 -0.533128 1.929 255 255 255
0.258474 0.580734 1.682 255 255 255
0.519864 -0.192964 1.449 255 255 255
0.359449 0.17589 2.244 255 255 255
0.0410627 -0.694709 1.882 255 255 255
-0.0571216 0.464196 1.887 255 255 255
0.493408 -0.259201 1.505 255 255 255
-0.420023 0.338341 1.154 255 255 255
-0.549599 0.463076 1.744 255 255 255
0.439341 0.529563 1.748 255 255 255
-0.0765349 -0.616725 2.672 255 255 255
0.579619 0.416916 1.422 255 255 255
-0.401346 0.520395 1.805 255 255 255
0.299471 0.551943 1.729 255 255 255
0.533603 -0.154021 1.375 255 255 255
0.0442987 0.583592 1.659 255 255 255
-0.556079 0.373876 1.821 255 255 255
0.24083 -0.628997 1.887 255 255 255
0.378397 -0.382934 1.997 255 255 255
-0.901427 -0.701783 2.085 255 255 255
-0.829994 -0.873 2.365 255 255 255
0.572561 -0.0775473 1.167 255 255 255
-0.648764 -0.399898 2.017 255 255 255
0.497974 0.0167373 1.668 255 255 255
-0.687374 0.0504857 2.55 255 255 255
0.392036 -0.281734 2.017 255 255 255
0.47629 0.375245 1.985 255 255 255
0.0692544 0.445516 1.899 255 255 255
0.0137351 -0.225242 2.479 255 255 255
0.445485 -0.330477 1.784 255 255 255
-0.392812 0.287972 0.842 255 255 255
-0.0158469 -0.237148 2.707 255 255 255
0.298574 -0.409705 1.985 255 255 255
5.93573 -3.33123 12.344 0 0 0
-0.975966 -0.69733 2.092 255 255 255
-0.807252 -0.279383 1.607 255 255 255
0.56837 -0.122369 1.178 255 255 255
-0.456069 0.0715079 1.215 255 255 255
-0.549713 -0.852662 2.509 255 255 255
0.362344 -0.384128 2.092 255 255 255
-0.498321 -0.70645 2.768 255 255 255
-1.17028 -0.863128 2.278 255 255 255
0.295231 0.0731162 2.228 255 255 255
-0.549708 0.0233679 1.286 255 255 255
-0.180796 -0.286815 2.805 255 255 255
-0.352457 0.438629 1.923 255 255 255
-0.593968 0.31505 2.078 255 255 255
-0.4974 0.292061 2.158 255 255 255
0.5008 -0.281573 1.52 255 255 255
-0.55272 0.510055 1.81 255 255 255
-0.653063 0.198476 2.338 255 255 255
0.0875505 0.381761 2.037 255 255 255
0.471927 -0.317764 1.616 255 255 255
0.470491 -0.131822 1.848 255 255 255
0.0702129 -0.171437 2.114 255 255 255
-0.789329 -0.55368 1.935 255 255 255
0.451325 0.409251 1.947 255 255 255
0.54988 0.0400867 1.435 255 255 255
-0.885423 -0.47504 1.729 255 255 255
0.180624 -0.687066 1.837 255 255 255
-0.12496 -0.0401513 2.509 255 255 255
-0.402759 0.310788 1.037 255 255 255
-0.263209 -0.440909 2.857 255 255 255
-0.259768 0.572028 1.705 255 255 255
-0.401804 -0.658299 2.755 255 255 255
0.416812 0.241936 2.181 255 255 255
0.587771 -0.167337 1.198 255 255 255
0.197279 -0.635757 1.853 255 255 255
-0.291702 0.399673 1.978 255 255 255
0.574733 0.0221686 1.22 255 255 255
0.39238 0.271443 2.107 255 255 255
-0.138602 0.101854 2.392 255 255 255
0.372191 -0.373532 2.071 255 255 255
-0.344957 -0.852555 2.731 255 255 255
-0.578408 0.0683289 1.194 255 255 255
0.388128 0.0728536 2.22 255 255 255
-0.844864 -0.512604 1.911 255 255 255
-0.462169 0.159036 2.374 255 255 255
0.280799 0.539636 1.753 255 255 255
0.574691 -0.116321 1.156 255 255 255
-0.443285 0.569285 1.739 255 255 255
0.442836 -0.374895 1.696 255 255 255
-0.877085 -0.482748 1.941 255 255 255
-0.544519 0.450024 1.905 255 255 255
0.414102 -0.469916 1.865 255 255 255
0.36042 0.469144 1.87 255 255 255
0.348053 -0.261947 2.151 255 255 255
0.0364277 0.228107 2.151 255 255 255
-0.547009 0.0912583 1.075 255 255 255
-0.444402 0.170747 1.232 255 255 255
0.463182 -0.115711 1.831 255 255 255
0.417283 -0.633568 1.763 255 255 255
0.513098 0.146303 1.691 255 255 255
0.585901 0.335239 1.491 255 255 255
-0.859469 -0.320805 1.673 255 255 255
-0.290766 -0.969698 2.604 255 255 255
-0.437602 0.143848 1.176 255 255 255
0.245462 0.581329 1.668 255 255 255
-0.166384 -0.553751 2.793 255 255 255
-0.449495 0.451147 1.923 255 255 255
0.100814 0.375131 2.037 255 255 255
0.101835 0.596897 1.629 255 255 255
-0.542564 0.518288 1.758 255 255 255
0.467903 -0.417088 1.677 255 255 255
0.660936 -0.587411 1.696 255 255 255
-0.924057 -0.442159 1.876 255 255 255
0.533497 0.102035 1.487 255 255 255
0.560968 -0.191666 1.229 255 255 255
-0.0775004 0.326304 2.107 0 0 0
0.441956 -0.627116 1.714 255 255 255
0.595526 0.0644428 1.194 255 255 255
0.267209 0.621282 1.603 255 255 255
-0.329525 0.181525 2.365 255 255 255
-0.232931 0.190342 2.286 255 255 255
0.349888 0.132599 2.253 255 255 255
0.299931 0.0260755 2.236 255 255 255
-0.845312 -0.520295 1.905 255 255 255
0.447492 0.449739 1.917 255 255 255
-0.310963 0.464058 1.899 255 255 255
-0.90938 -0.528618 1.748 255 255 255
0.354527 0.007882 2.236 255 255 255
-0.73547 -0.284867 2.831 255 255 255
0.47074 -0.315208 1.603 255 255 255
-0.454425 0.129013 1.114 255 255 255
-0.561966 -0.0197364 2.509 255 255 255
-0.627312 0.0660059 2.509 255 255 255
0.0798462 -0.372343 2.01 255 255 255
0.305606 0.386513 2.01 255 255 255
-0.245805 -0.405693 2.871 255 255 255
0.572086 0.374374 1.532 255 255 255
-0.382643 0.610484 1.637 255 255 255
0.114742 -0.391503 1.991 255 255 255
-0.270711 -0.935495 2.615 255 255 255
0.396691 -0.111439 2.024 255 255 255
0.210994 0.565535 1.719 255 255 255
9.60633 -7.60864 19.91 255 255 255
-0.880033 -0.778394 2.166 0 0 0
0.321662 -0.609009 1.911 255 255 255
0.114861 -0.316522 2.051 255 255 255
-0.279497 -0.780417 2.743 255 255 255
-0.708302 -0.0458908 2.383 255 255 255
0.105705 0.307092 2.004 255 255 255
0.552878 0.0333431 1.351 255 255 255
0.608982 0.30833 1.229 255 255 255
0.414413 -0.507333 1.763 255 255 255
0.704221 -0.456972 1.714 255 255 255
0.531435 -0.0647995 1.381 255 255 255
0.695814 -0.415754 1.629 255 255 255
-0.0568337 -0.910215 2.392 255 255 255
0.14931 0.573884 1.686 255 255 255
0.0418263 0.437261 1.917 255 255 255
-0.616262 -0.0483655 1.247 255 255 255
-0.185326 0.00453933 2.392 255 255 255
-0.177479 0.468753 1.893 255 255 255
0.527663 -0.537215 1.739 255 255 255
-0.51422 0.195421 2.347 255 255 255
-0.469309 0.224617 0.999 255 255 255
0.569244 0.202133 1.425 255 255 255
0.515851 0.349937 1.691 255 255 255
-0.541003 0.121887 1.132 255 255 255
0.594139 0.160264 1.244 255 255 255
-0.627479 -0.362719 1.941 255 255 255
0.550687 -0.00657153 1.425 255 255 255
0.206648 -0.482748 1.941 255 255 255
-0.696209 0.1978 2.244 255 255 255
0.40886 0.430101 1.941 255 255 255
0.373239 -0.47302 1.953 255 255 255
-0.722441 -0.88993 2.499 255 255 255
0.0312884 0.379746 2.044 255 255 255
0.300235 -0.696034 1.837 255 255 255
-0.733499 -0.804572 2.402 255 255 255
0.524735 0.436132 1.859 255 255 255
-0.212521 -0.240302 2.743 255 255 255
-0.252231 0.467148 1.899 255 255 255
-0.452276 -0.233114 2.818 255 255 255
0.612702 0.326713 1.201 255 255 255
0.546269 -0.599862 1.7 255 255 255
-0.773457 -0.416976 1.859 255 255 255
0.434137 0.430101 1.941 255 255 255
-0.528892 0.0609357 2.469 255 255 255
0.143896 -0.585396 1.905 255 255 255
0.236614 -0.0991504 2.189 255 255 255
-0.460217 0.201234 1.004 255 255 255
0.0197387 -0.262318 2.244 255 255 255
-0.429733 0.545341 1.753 255 255 255
-0.714483 -0.330585 1.724 255 255 255
0.578522 0.211409 1.425 255 255 255
0.570359 -0.0297399 1.232 255 255 255
0.270308 0.39582 1.991 255 255 255
-0.707657 -0.466663 1.953 255 255 255
0.0245378 0.610848 1.603 255 255 255
0.567304 0.574802 1.705 255 255 255
-0.418862 0.194157 1.083 255 255 255
-0.73803 -0.247206 2.582 255 255 255
0.39393 0.0185963 2.212 255 255 255
0.152295 -0.277162 2.107 255 255 255
-0.582848 -0.146106 1.452 255 255 255
-0.604473 -0.832997 2.499 255 255 255
-0.441948 0.2379 1.327 255 255 255
0.405443 -0.59975 1.826 255 255 255
-0.365523 -0.445558 2.857 255 255 255
0.510346 0.1408 1.691 255 255 255
0.764883 -0.467072 1.7 255 255 255
0.608589 0.336493 1.283 255 255 255
-0.389611 0.329733 2.107 255 255 255
0.607338 -0.376008 1.502 0 0 0
-0.170461 0.114006 2.402 255 255 255
0.046613 -0.677143 1.859 255 255 255
0.581074 -0.279797 1.345 255 255 255
-0.422387 0.323948 1.198 255 255 255
0.561632 -0.574004 1.739 0 0 0
-0.0989576 0.486099 1.865 255 255 255
0.320955 -0.187518 2.181 255 255 255
0.356569 0.585628 1.642 255 255 255
0.563087 -0.140698 1.171 255 255 255
-0.304415 -0.95628 2.649 255 255 255
0.615871 0.320963 1.247 255 255 255
0.146885 -0.0305912 2.128 255 255 255
0.59211 -0.25449 1.316 255 255 255
-0.635063 -0.0778481 2.54 255 255 255
-0.511746 0.0725577 1.583 255 255 255
0.546541 0.184595 1.47 255 255 255
0.629538 -0.212527 1.234 255 255 255
-0.450098 0.220807 0.975 255 255 255
0.247228 -0.707752 1.821 255 255 255
0.244793 -0.305308 2.136 255 255 255
-0.645564 -0.7094 2.582 255 255 255
-0.311505 -0.501394 2.831 255 255 255
-0.299244 -0.96546 2.604 255 255 255
-0.193114 0.0784982 2.392 255 255 255
-0.552868 0.103174 1.09 255 255 255
-0.481749 0.142845 1.412 255 255 255
0.195975 -0.0913533 2.173 255 255 255
0.540463 0.0363541 1.473 255 255 255
0.079248 0.566679 1.714 255 255 255
0.581271 0.0905598 1.26 255 255 255
-0.40604 0.616207 1.624 255 255 255
0.564617 0.0512028 1.302 255 255 255
0.350775 -0.402499 2.064 255 255 255
-0.494117 0.224359 1.02 255 255 255
-0.161964 0.117424 2.392 255 255 255
-0.56361 -0.15624 1.528 255 255 255
-0.22212 0.0359633 2.411 255 255 255
-0.644238 -0.289358 2.121 255 255 255
0.463956 0.327593 2.03 255 255 255
-0.64414 -0.312116 2.044 255 255 255
0.158397 -0.606353 1.893 255 255 255
-0.138727 0.454551 1.911 255 255 255
-0.243725 0.459324 1.905 255 255 255
-0.474132 0.0663209 1.351 255 255 255
0.712499 -0.522928 1.748 255 255 255
-0.43139 0.281431 1.289 255 255 255
0.325367 0.136749 2.261 255 255 255
8.76368 -7.09024 19.91 255 255 255
0.506564 0.466844 1.837 255 255 255
0.39465 -0.298439 1.997 255 255 255
-0.139703 0.0555808 2.411 255 255 255
0.279964 0.138053 2.166 255 255 255
-0.426352 0.301063 1.232 255 255 255
0.228507 0.306747 2.114 255 255 255
0.556915 0.0240584 1.324 255 255 255
0.516633 0.501319 1.779 255 255 255
-0.19906 -0.29138 2.805 255 255 255
0.0725742 -0.551296 1.905 255 255 255
-0.282855 -0.930415 2.649 255 255 255
-0.277585 0.212662 2.286 255 255 255
-0.093869 0.617326 1.62 255 255 255
-1.09744 -0.840557 2.228 255 255 255
-0.689882 0.212977 2.212 255 255 255
0.522867 -0.607591 1.714 255 255 255
-0.552122 -0.129566 1.452 255 255 255
0.177058 -0.101258 2.158 255 255 255
-0.175256 0.411297 1.972 255 255 255
0.55402 -0.101349 1.302 255 255 255
0.542996 0.262075 1.624 255 255 255
0.395668 0.456431 1.893 255 255 255
0.414808 0.287492 2.099 255 255 255
-0.468789 0.16197 1.342 255 255 255
0.602821 0.360139 1.316 255 255 255
-0.687257 -0.516566 2.024 255 255 255
0.352143 -0.0468657 2.244 255 255 255
-0.468944 0.615332 1.65 255 255 255
-0.13822 0.525953 1.784 255 255 255
0.371393 0.214518 2.228 255 255 255
0.292494 0.588517 1.673 255 255 255
-0.373794 0.209082 2.329 255 255 255
-0.0453929 0.374371 2.051 255 255 255
0.479174 -0.543604 1.769 255 255 255
0.204117 0.609417 1.62 255 255 255
-0.683294 -0.24915 2.844 255 255 255
-0.501608 0.226563 1.015 255 255 255
-0.63861 -0.223637 1.547 255 255 255
-0.637016 -0.938731 2.499 255 255 255
0.397227 -0.642912 1.789 255 255 255
-0.804415 -0.533286 1.941 255 255 255
0.264334 -0.538103 1.947 255 255 255
0.537143 0.460571 1.724 255 255 255
0.382585 -0.361251 1.985 255 255 255
0.652653 -0.493572 1.696 255 255 255
0.440924 -0.636783 1.71 255 255 255
0.552154 0.438696 1.539 255 255 255
-0.3473 0.509883 1.799 255 255 255
-0.754908 -0.93571 2.459 255 255 255
-0.92518 -0.790883 2.181 255 255 255
0.585637 0.140325 1.265 255 255 255
-0.490219 -0.0289047 1.384 255 255 255
0.228765 -0.482748 1.941 255 255 255
-0.62988 -0.363616 1.929 255 255 255
0.581536 0.463447 1.336 255 255 255
-0.440786 0.410012 1.997 255 255 255
-0.392265 0.263837 0.835 255 255 255
0.514265 0.130741 1.668 255 255 255
-0.477035 0.116471 1.372 255 255 255
-0.155117 0.569469 1.714 255 255 255
-0.366805 -0.298687 2.831 255 255 255
-0.685886 -0.178323 1.445 255 255 255
-0.517969 0.348975 2.099 255 255 255
0.0626656 0.0977887 2.212 255 255 255
0.561828 0.434322 1.498 255 255 255
0.201643 -0.296261 2.121 255 255 255
0.135219 0.607912 1.616 255 255 255
16.8388 -15.1218 41.147 255 255 255
-0.566542 0.0410542 1.089 0 0 0
-0.669641 -0.505134 2.114 255 255 255
-0.506591 0.148005 2.383 255 255 255
0.102541 0.504054 1.831 255 255 255
0.536576 -0.241501 1.327 255 255 255
0.129958 0.607912 1.616 255 255 255
0.505742 -0.311829 1.535 255 255 255
0.377713 0.0699895 2.244 255 255 255
-0.409116 0.23968 1.036 255 255 255
-0.878477 -0.453123 1.71 255 255 255
0.414992 -0.500091 1.842 255 255 255
0.0671645 0.536976 1.763 255 255 255
0.215923 -0.00297985 2.196 255 255 255
-0.64532 -0.334315 1.789 255 255 255
-0.678713 -0.209799 1.502 255 255 255
0.462677 -0.403992 1.668 255 255 255
-0.154771 0.528779 1.774 255 255 255
-0.584532 -0.137875 1.416 255 255 255
-0.146056 0.557965 1.739 255 255 255
-0.0356823 -0.40183 2.55 255 255 255
-0.277051 -0.853233 2.719 255 255 255
-0.569326 0.347722 1.905 255 255 255
-0.523885 0.398404 2.004 255 255 255
0.255 0.590972 1.642 255 255 255
-0.0516303 0.241048 2.173 255 255 255
-0.702575 -0.0240188 2.53 255 255 255
-0.0171634 -0.783329 2.294 255 255 255
0.105019 0.39906 1.991 255 255 255
0.323315 -0.197439 2.173 255 255 255
0.592114 0.218971 1.244 255 255 255
-0.637332 -0.241036 2.121 255 255 255
0.590411 0.207764 1.262 255 255 255
-0.670509 -0.403038 1.893 255 255 255
0.373199 -0.394059 2.004 255 255 255
0.182537 0.142177 2.024 255 255 255
0.623916 -0.391294 1.543 0 0 0
-0.138602 0.105746 2.392 255 255 255
0.595331 -0.311329 1.378 255 255 255
-0.419375 -0.823774 2.695 255 255 255
0.0410614 0.126586 2.212 255 255 255
-0.112667 0.552319 1.748 255 255 255
0.358082 -0.376596 2.107 255 255 255
-0.632024 -0.244549 2.092 255 255 255
0.576203 0.262426 1.425 255 255 255
-0.266641 -0.318572 2.844 255 255 255
-0.392321 0.282187 0.862 255 255 255
-0.208333 0.546646 1.739 255 255 255
-0.388801 0.304257 0.873 255 255 255
-0.562931 0.027382 1.278 255 255 255
-0.421649 0.0243835 2.43 255 255 255
5.84801 -3.70011 12.858 255 255 255
-0.343414 0.514304 1.794 255 255 255
0.508264 -0.151741 1.484 255 255 255
-0.4142 0.258526 0.814 255 255 255
-0.451271 0.59145 1.705 255 255 255
-0.0734018 0.426563 1.911 255 255 255
-0.395652 0.318117 2.121 255 255 255
0.58524 0.0040961 1.162 255 255 255
-0.768168 -0.300124 1.664 255 255 255
-0.137332 0.1978 2.244 255 255 255
-0.712565 -0.422134 1.882 255 255 255
-0.927769 -0.654902 2.024 255 255 255
-0.289689 -0.254803 2.755 255 255 255
0.531486 -0.085395 1.387 255 255 255
-0.0863504 -0.505864 2.707 255 255 255
0.0819914 -0.298376 2.064 255 255 255
0.527275 -0.0869342 1.412 255 255 255
-0.566615 0.0359674 1.096 255 255 255
0.484136 -0.221782 1.686 255 255 255
-0.356552 0.387859 2.017 255 255 255
-0.158731 -0.0110771 2.402 255 255 255
0.410261 -0.606998 1.821 255 255 255
-0.616359 0.0677175 1.966 0 0 0
-0.0329677 -0.658809 2.356 255 255 255
-0.314088 -0.876401 2.695 255 255 255
0.349907 -0.560282 1.947 255 255 255
0.582438 0.26233 1.412 255 255 255
-0.086445 0.0126697 2.459 255 255 255
0.109037 -0.515924 1.947 255 255 255
-0.372872 -0.952517 2.615 255 255 255
-0.0678809 0.267223 2.128 255 255 255
0.0690172 0.291378 2.078 255 255 255
-0.414723 0.27318 2.204 255 255 255
-0.560101 0.169301 1.18 255 255 255
0.273794 0.205686 2.173 255 255 255
-0.221124 0.278655 2.136 255 255 255
0.396319 -0.431749 1.911 255 255 255
0.301398 -0.0680405 2.22 255 255 255
-0.478337 0.217992 2.303 255 255 255
-0.449256 0.169606 1.051 255 255 255
-0.391947 0.254956 0.91 255 255 255
0.055113 0.366668 2.064 255 255 255
-0.537669 0.383073 2.044 255 255 255
0.53826 0.40858 1.65 255 255 255
-0.394688 -0.656901 2.768 255 255 255
-0.289138 -0.676469 2.793 255 255 255
-0.564607 0.0187771 1.135 255 255 255
-0.478717 -0.0353495 2.459 255 255 255
0.583113 -0.0908327 1.143 255 255 255
-0.250478 -0.503806 2.871 255 255 255
0.59507 0.430354 1.362 255 255 255
0.0230091 0.580734 1.682 255 255 255
0.58088 0.266829 1.31 255 255 255
0.0228911 0.282909 2.196 255 255 255
-0.413225 0.194795 1.013 255 255 255
0.370067 -0.28011 2.078 255 255 255
-0.198812 0.232361 2.158 255 255 255
0.0598255 -0.392683 1.997 255 255 255
0.592657 0.305846 1.322 255 255 255
-0.583099 0.358318 2.017 255 255 255
0.278708 -0.0929928 2.212 255 255 255
-0.408058 0.584836 1.71 255 255 255
-1.09381 -0.840557 2.228 255 255 255
-0.888486 -0.510202 1.763 255 255 255
-0.714871 -0.0343864 2.392 255 255 255
-0.364579 0.321569 2.121 255 255 255
-0.235588 -0.286815 2.805 255 255 255
-0.510274 0.481075 1.893 255 255 255
0.0871192 0.413691 1.953 255 255 255
-0.658841 -0.731628 2.459 255 255 255
0.126487 -0.407022 1.972 255 255 255
0.0775791 -0.683909 1.805 255 255 255
-0.16279 -0.869348 2.66 255 255 255
0.590049 0.460128 1.302 255 255 255
-0.32848 0.608483 1.646 255 255 255
-0.631183 -0.074233 1.273 255 255 255
-0.582731 0.306463 2.136 255 255 255
-0.659565 -0.673271 2.638 255 255 255
-0.160895 -0.478103 2.857 255 255 255
-0.505404 0.10114 1.169 255 255 255
-0.419482 0.356827 2.085 255 255 255
0.361328 -0.145459 2.189 255 255 255
0.0391426 0.511385 1.794 255 255 255
-0.486221 0.229035 0.997 255 255 255
0.478494 0.495327 1.81 255 255 255
0.353861 0.376031 2.024 255 255 255
0.127706 0.288899 1.991 255 255 255
-0.308817 0.57865 1.7 255 255 255
0.60514 -0.249269 1.289 255 255 255
0.550843 0.273932 1.616 255 255 255
0.33516 0.0905684 2.303 255 255 255
0.241403 -0.504858 1.941 255 255 255
0.457296 -0.0487767 1.893 255 255 255
0.575787 0.338185 1.348 255 255 255
-0.510764 0.0959561 2.44 255 255 255
-0.140462 -0.168142 2.731 255 255 255
0.344611 -0.149498 2.196 255 255 255
-0.0326196 -0.634635 2.638 255 255 255
-0.331453 -0.4713 2.844 255 255 255
0.411214 0.235699 2.189 255 255 255
0.578898 0.500141 1.498 255 255 255
0.375242 -0.711143 1.853 255 255 255
0.384372 -0.147229 2.064 255 255 255
-0.00518908 0.387263 1.997 255 255 255
-0.194325 0.586593 1.691 255 255 255
0.148005 0.614277 1.612 255 255 255
-0.574191 -0.740243 2.743 255 255 255
0.586393 0.313767 1.416 255 255 255
0.485224 0.134402 1.87 255 255 255
0.565618 0.286367 1.528 255 255 255
0.637058 -0.555788 1.744 255 255 255
-0.032255 0.481316 1.87 255 255 255
0.201473 0.541175 1.758 255 255 255
-0.393711 0.352736 0.95 255 255 255
0.592897 -0.264594 1.313 255 255 255
-0.644583 -0.547334 2.004 255 255 255
-0.709486 0.0213539 2.54 255 255 255
0.516063 0.0862349 1.551 255 255 255
-0.404549 0.239482 0.98 255 255 255
-0.693781 -0.54935 2.347 255 255 255
0.605322 0.152388 1.198 255 255 255
0.474265 -0.12797 1.794 255 255 255
0.559556 0.0472538 1.31 255 255 255
-0.0338321 0.599222 1.65 255 255 255
-0.552802 0.554226 1.71 255 255 255
-0.241364 0.354431 2.071 255 255 255
0.434216 0.0434941 2.03 255 255 255
-0.337519 -0.836252 2.707 255 255 255
0.444433 0.223771 2.143 255 255 255
0.49394 -0.103558 1.682 255 255 255
-0.427205 0.520325 1.815 255 255 255
-0.189928 -0.537871 2.805 255 255 255
0.426349 -0.34596 1.789 255 255 255
-0.439 -0.975079 2.53 255 255 255
-0.898245 -0.334282 1.7 255 255 255
-0.392681 0.302516 0.833 255 255 255
-0.53978 -0.378737 2.844 255 255 255
-0.0869228 0.413027 1.935 255 255 255
0.407653 -0.269191 1.997 255 255 255
-0.609824 -0.574758 2.196 255 255 255
0.0160179 0.507228 1.821 255 255 255
-0.745753 -0.848579 2.509 255 255 255
0.479855 -0.215324 1.7 255 255 255
-0.0621321 -0.650379 2.615 255 255 255
-0.401837 0.371934 1.114 255 255 255
0.569157 -0.29981 1.419 255 255 255
0.228915 0.480029 1.865 255 255 255
-0.0502117 0.539636 1.753 255 255 255
6.28755 -3.59548 12.858 255 255 255
0.163356 0.194939 1.991 255 255 255
-0.510416 0.0739084 1.222 255 255 255
-0.488729 0.0723981 2.449 255 255 255
-0.707056 -0.543452 1.978 255 255 255
0.330546 -0.237445 2.151 255 255 255
0.376028 0.368501 2.037 255 255 255
0.257003 -0.594031 1.893 255 255 255
-0.680466 -0.592991 2.004 255 255 255
-0.216476 -0.0538492 2.392 255 255 255
0.128842 0.408586 1.959 255 255 255
-0.0137394 -0.629557 2.347 255 255 255
0.470299 -0.543782 1.779 255 255 255
-0.755149 -0.467714 2.768 255 255 255
0.579965 0.0448731 1.244 255 255 255
-0.103653 -0.311073 2.818 255 255 255
0.505744 -0.158048 1.498 255 255 255
-0.826337 -0.436053 1.876 255 255 255
0.601696 0.263024 1.187 255 255 255
0.507729 0.128468 1.71 255 255 255
-0.742057 -0.272785 2.626 255 255 255
0.58958 -0.145914 1.152 255 255 255
0.457702 0.230308 2.017 255 255 255
0.358938 0.293342 2.092 255 255 255
-0.483535 0.133354 1.459 255 255 255
-0.552104 0.110472 1.092 255 255 255
0.448156 -0.0406629 1.947 255 255 255
0.43748 0.568397 1.686 255 255 255
0.242788 0.501218 1.81 255 255 255
0.2158 0.498095 1.831 255 255 255
-0.426713 -0.561285 2.831 255 255 255
0.0247906 -0.648842 2.057 255 255 255
-0.219606 0.451441 1.911 255 255 255
-0.120667 0.505649 1.826 255 255 255
0.404007 0.272345 2.114 255 255 255
0.434589 -0.435721 1.799 255 255 255
0.519549 -0.209308 1.416 255 255 255
0.355796 -0.0359105 2.244 255 255 255
-0.377692 -0.035637 2.479 255 255 255
0.475918 0.358015 1.997 255 255 255
0.252571 -0.18683 2.173 255 255 255
-0.228987 0.558764 1.724 255 255 255
0.147522 -0.485732 1.953 255 255 255
-0.544465 0.0803864 1.07 255 255 255
-0.408326 0.211247 1.005 255 255 255
-0.0416511 0.539636 1.753 255 255 255
0.537701 -0.320132 1.459 255 255 255
-0.224999 0.201452 2.244 255 255 255
-0.472757 -0.123218 2.626 255 255 255
-0.363172 0.223823 2.286 255 255 255
0.478767 0.0819999 1.789 255 255 255
0.480333 -0.124353 1.784 255 255 255
0.474265 0.496788 1.794 255 255 255
0.135134 0.521605 1.789 255 255 255
-0.246743 0.599828 1.637 255 255 255
-0.4563 0.578402 1.724 255 255 255
0.701431 -0.479286 1.714 255 255 255
-0.941494 -0.735625 2.114 255 255 255
-0.794508 -0.868596 2.374 255 255 255
-0.063359 0.18418 2.212 255 255 255
0.540353 0.256789 1.624 255 255 255
0.0866391 -0.0313531 2.181 255 255 255
0.212335 0.218875 0.6 255 255 255
-0.0456811 -0.668829 2.42 255 255 255
-0.340606 -0.528742 2.805 255 255 255
-0.443932 0.618476 1.637 255 255 255
0.584252 0.208951 1.308 255 255 255
-0.300337 0.249034 2.181 255 255 255
0.34384 -0.449499 2.004 255 255 255
-0.907742 -0.524384 1.734 255 255 255
-0.510162 0.496532 1.87 255 255 255
0.549445 0.342127 1.567 255 255 255
0.233683 -0.705679 1.831 255 255 255
0.517287 0.315648 1.714 255 255 255
0.597237 0.175358 1.182 255 255 255
0.518031 0.152287 1.637 255 255 255
0.453568 -0.329498 1.748 255 255 255
0.0545529 -0.627741 1.821 255 255 255
0.133322 -0.601361 1.887 255 255 255
-0.347758 -0.781102 2.684 255 255 255
-0.180561 0.462592 1.893 255 255 255
-0.840262 -0.486042 1.929 255 255 255
0.586995 -0.0731803 1.158 255 255 255
-0.392265 0.265196 0.835 255 255 255
-0.780776 -0.55883 1.953 255 255 255
-0.223419 0.132494 2.383 255 255 255
0.566646 0.448592 1.442 255 255 255
0.0602149 0.393055 2.01 255 255 255
0.184114 -0.673948 1.842 255 255 255
0.255611 -0.558241 1.929 255 255 255
0.243065 0.216133 0.606 255 255 255
0.378258 -0.656865 1.853 255 255 255
-0.663854 0.224606 2.151 255 255 255
-0.454663 0.209545 1.339 255 255 255
-0.435578 -0.129142 2.66 255 255 255
-0.481306 -0.123218 2.626 255 255 255
0.579778 -0.250783 1.342 255 255 255
-0.71493 -0.303984 2.53 255 255 255
-0.207302 -0.271953 2.793 255 255 255
0.0485187 -0.569424 1.935 255 255 255
0.528084 -0.0807058 1.384 255 255 255
0.609337 -0.238781 1.289 255 255 255
0.425157 -0.597567 1.784 255 255 255
-0.564003 0.383997 1.799 255 255 255
0.0602402 0.560384 1.729 255 255 255
-0.0919638 -0.378678 2.743 255 255 255
0.258213 0.229057 0.591 255 255 255
-0.338027 0.356827 2.085 255 255 255
-0.341316 0.392499 2.024 255 255 255
-0.141697 -0.192037 2.755 255 255 255
-0.406273 0.235957 0.992 255 255 255
0.424436 -0.497105 1.831 255 255 255
0.338506 -0.356893 2.092 255 255 255
0.312329 -0.602789 1.911 255 255 255
0.0337375 0.140475 2.204 255 255 255
0.114222 -0.597855 1.876 255 255 255
0.583561 0.190309 1.297 255 255 255
-0.399172 0.233015 0.941 255 255 255
-0.33468 0.106188 2.402 255 255 255
-0.303677 -0.387993 2.844 255 255 255
0.35976 0.0559996 2.269 255 255 255
-0.273344 0.4435 1.917 255 255 255
-0.598353 -0.50146 2.731 255 255 255
-0.673726 -0.626941 2.66 255 255 255
-0.382711 -0.820411 2.684 255 255 255
0.499226 -0.610928 1.7 255 255 255
-0.242553 -0.0833687 2.459 255 255 255
-0.512016 0.454551 1.911 255 255 255
-0.437226 0.237872 1.339 255 255 255
0.573942 0.485115 1.354 0 0 0
-0.478955 0.249922 2.253 255 255 255
0.0678879 -0.328747 2.044 255 255 255
0.579257 0.163115 1.316 255 255 255
0.595807 -0.244803 1.31 255 255 255
-0.18505 -0.499134 2.871 255 255 255
-0.334603 -0.562841 2.793 255 255 255
0.249224 -0.40826 1.978 255 255 255
-0.702102 -0.86553 2.499 255 255 255
0.51552 0.14241 1.646 255 255 255
-0.163286 -0.645838 2.818 255 255 255
-0.0343421 0.39582 1.991 255 255 255
0.596408 0.337238 1.302 255 255 255
-1.1321 -0.860366 2.261 255 255 255
0.544453 -0.170519 1.265 255 255 255
-0.394865 0.264263 0.877 255 255 255
0.571634 0.403104 1.473 255 255 255
-0.305314 -0.201011 2.695 255 255 255
-0.102711 0.397013 1.997 255 255 255
0.00424777 0.493611 1.859 255 255 255
0.614875 0.322082 1.213 255 255 255
-0.025915 0.591691 1.659 255 255 255
5.94081 -3.7869 11.645 255 255 255
0.543056 -0.0946577 1.327 255 255 255
0.366754 -0.0395622 2.244 255 255 255
-0.205837 0.235872 2.158 255 255 255
-0.119274 -0.676232 2.755 255 255 255
0.498949 0.253764 1.831 255 255 255
0.00991211 0.515782 1.789 255 255 255
-0.546206 0.102369 1.12 255 255 255
0.381274 -0.687019 1.853 255 255 255
-0.792479 -0.544233 1.935 255 255 255
-0.426581 0.43143 1.947 255 255 255
0.137129 0.102353 2.085 255 255 255
0.384636 -0.67998 1.826 255 255 255
0.71339 -0.454933 1.696 0 0 0
0.291604 -0.0320288 2.228 255 255 255
0.22781 -0.172686 2.173 255 255 255
-0.483019 0.0577036 1.409 255 255 255
-0.157291 -0.612837 2.793 255 255 255
-0.661898 -0.613249 2.017 255 255 255
-0.0361301 -0.373259 2.582 255 255 255
0.31544 -0.602789 1.911 255 255 255
0.473968 -0.168352 1.729 255 255 255
-0.287694 0.257896 2.166 255 255 255
0.411999 -0.0695361 2.051 255 255 255
0.586575 0.112388 1.299 255 255 255
0.535574 0.2609 1.65 255 255 255
0.396706 -0.294303 1.991 255 255 255
0.542223 0.522089 1.696 255 255 255
0.173165 0.3342 2.03 0 0 0
-0.426757 0.169783 1.132 255 255 255
-0.869568 -0.325268 1.682 255 255 255
-0.618792 -0.305162 1.739 255 255 255
-0.405506 0.378143 1.085 255 255 255
-0.289788 -0.383365 2.844 255 255 255
0.543984 -0.141845 1.324 255 255 255
0.139138 -0.628985 1.842 255 255 255
-0.448051 0.217411 0.974 255 255 255
-0.481538 0.615454 1.629 255 255 255
-0.375879 0.47951 1.899 255 255 255
-0.378818 0.55757 1.729 255 255 255
0.271507 -0.0857935 2.212 255 255 255
5.89816 -4.07337 12.102 255 255 255
-0.440462 0.191789 0.989 255 255 255
-0.765012 -0.504826 1.978 255 255 255
-0.100453 -0.132589 2.731 255 255 255
0.120589 -0.529989 1.929 255 255 255
0.0521491 0.410512 1.953 255 255 255
0.230724 0.446924 1.905 255 255 255
0.508216 -0.247206 1.463 255 255 255
0.565936 -0.117707 1.189 255 255 255
-0.296688 0.12228 2.411 255 255 255
0.319834 0.535252 1.748 255 255 255
-0.127126 -0.76367 2.731 255 255 255
-0.405268 -0.107498 2.66 255 255 255
