ply
format ascii 1.0
comment Created by Open3D
element vertex 1291
property double x
property double y
property double z
property uchar red
property uchar green
property uchar blue
end_header
0.0347216 0.0929905 0.62 255 255 255
-0.593282 -0.563497 1.547 255 255 255
-0.0995457 0.375378 1.141 255 255 255
-0.00144333 -0.0939716 1.487 255 255 255
-0.944077 -0.503306 1.923 255 255 255
0.044944 0.11732 0.595 255 255 255
0.0571865 0.107725 0.612 0 0 0
-0.129513 0.17129 1.313 255 255 255
0.250069 0.084507 0.529 255 255 255
0.13111 -0.0118902 0.743 255 255 255
-0.266861 0.208258 1.265 255 255 255
-0.753902 -0.302082 1.917 255 255 255
-0.0548425 -0.106356 1.491 255 255 255
-0.177676 0.327127 1.232 255 255 255
0.133733 0.158052 0.581 255 255 255
-0.437996 -0.534637 1.442 255 255 255
-0.0013618 -0.191405 1.403 255 255 255
-0.0325217 -0.345699 1.281 255 255 255
0.210437 0.182525 0.566 255 255 255
0.232875 0.0401932 0.535 255 255 255
-0.899794 -0.395098 1.87 255 255 255
0.114818 0.10416 0.581 255 255 255
0.25231 0.208567 0.545 255 255 255
0.403138 -0.317621 0.896 255 255 255
-0.244497 -0.270065 1.539 255 255 255
0.30165 -0.161079 0.693 255 255 255
-0.060607 -0.330178 1.302 255 255 255
-0.6166 -0.581594 1.555 255 255 255
-0.619643 -0.119544 1.799 255 255 255
-0.069794 0.225612 1.357 255 255 255
-0.447742 0.385106 1.351 255 255 255
-0.703241 0.267903 1.442 255 255 255
-0.184957 -0.164855 1.587 255 255 255
-0.41616 0.102743 1.612 255 255 255
-0.381139 -0.280124 1.642 255 255 255
-0.24176 0.295168 1.192 255 255 255
-0.476431 0.025149 1.686 255 255 255
0.0218105 0.0908343 0.626 255 255 255
-0.890266 -0.371314 1.744 255 255 255
0.151942 0.191137 0.551 255 255 255
0.107639 0.0838693 0.578 255 255 255
0.173152 0.0551147 0.603 255 255 255
0.289396 -0.257218 1.062 255 255 255
0.211285 0.167507 0.581 255 255 255
-0.844236 0.0482752 1.633 255 255 255
0.041921 0.1024 0.622 255 255 255
0.116276 0.0756052 0.552 255 255 255
-0.40846 -0.51819 1.429 255 255 255
-0.74128 0.173559 1.52 255 255 255
-0.648597 -0.509875 1.677 255 255 255
0.0709552 -0.247076 1.267 255 255 255
-0.512479 0.39346 1.342 255 255 255
-0.220783 -0.48154 1.322 255 255 255
0.055172 0.103579 0.623 255 255 255
-0.700057 -0.296923 1.865 255 255 255
0.111459 0.0781666 0.564 255 255 255
0.0420092 0.218895 0.672 255 255 255
0.247157 0.0875835 0.532 255 255 255
0.302996 -0.166885 0.671 255 255 255
0.124783 0.14686 0.597 255 255 255
0.0421232 0.0927233 0.625 255 255 255
0.241609 -0.212476 1.147 255 255 255
0.136997 0.0280506 0.591 255 255 255
-0.34614 0.239352 1.412 255 255 255
0.0919501 -0.339622 1.167 255 255 255
0.194038 -0.356665 1.07 255 255 255
-0.522441 0.302695 1.429 255 255 255
0.373421 -0.330028 0.931 255 255 255
0.0255647 0.238608 0.701 255 255 255
0.240446 -0.045016 0.617 255 255 255
-0.680026 0.148325 1.567 255 255 255
-0.464597 0.402928 1.33 255 255 255
0.22651 -0.0744644 0.646 255 255 255
0.100932 -0.214368 1.281 255 255 255
0.190343 -0.291314 1.12 255 255 255
0.238078 -0.0471318 0.646 255 255 255
0.259432 -0.1236 0.855 0 0 0
-0.682675 -0.286892 1.859 255 255 255
0.269698 -0.210045 1.124 255 255 255
-0.854022 -0.0785007 1.673 255 255 255
0.211652 0.0529539 0.532 255 255 255
-0.110529 -0.385126 1.316 255 255 255
0.0962218 -0.381505 1.128 255 255 255
-0.569556 -0.0708437 1.753 255 255 255
0.112042 0.0169328 1.452 255 255 255
-0.56378 -0.258621 1.789 255 255 255
0.315746 0.0271432 0.72 255 255 255
0.162254 -0.00678376 0.61 0 0 0
-0.312138 -0.325164 1.539 255 255 255
0.173953 0.142478 0.599 255 255 255
0.0256355 0.123977 1.381 255 255 255
-0.0625701 0.0667134 1.629 255 255 255
-0.319886 -0.165528 1.7 255 255 255
0.155555 -0.0342429 0.756 255 255 255
0.0627232 -0.305168 1.227 255 255 255
-0.456419 0.305195 1.419 255 255 255
-0.178487 -0.481198 1.281 255 255 255
0.132742 0.180529 0.557 255 255 255
0.119674 0.197761 0.547 255 255 255
0.107988 0.00391065 0.759 255 255 255
-0.0541199 -0.22891 1.409 255 255 255
-0.881028 -0.354082 1.831 0 0 0
-0.793603 -0.120429 1.769 255 255 255
-0.560626 -0.508363 1.62 255 255 255
-0.0695275 0.21165 1.396 255 255 255
-0.328232 0.350655 1.196 255 255 255
0.318703 -0.114798 0.686 0 0 0
-0.0367141 0.186137 1.359 255 255 255
0.143911 -0.405081 1.06 255 255 255
0.237687 0.210065 0.542 255 255 255
-0.124894 0.0450312 1.612 255 255 255
0.0720193 -0.223576 1.286 255 255 255
0.00137099 0.121235 0.6 255 255 255
-0.217762 0.354581 1.128 255 255 255
0.02305 0.22832 0.694 255 255 255
-0.694422 -0.341221 1.842 255 255 255
-0.708717 -0.351355 1.848 255 255 255
-0.226146 0.390245 1.152 255 255 255
0.266982 -0.194455 0.787 255 255 255
-0.179115 0.0778394 1.4 255 255 255
-0.34322 -0.0626409 1.763 255 255 255
0.197076 -0.0699581 0.653 255 255 255
0.237036 -0.211528 1.152 255 255 255
0.246991 -0.183906 0.814 255 255 255
-0.0695445 -0.133314 1.494 255 255 255
-0.615213 -0.0708437 1.753 255 255 255
-0.74374 -0.262346 1.923 255 255 255
-0.622112 0.18507 1.513 255 255 255
-0.261486 0.388807 1.176 255 255 255
-0.273399 -0.515141 1.348 255 255 255
0.0938391 0.0122995 1.463 255 255 255
0.322342 -0.0522109 0.657 255 255 255
0.310045 -0.102205 0.707 0 0 0
0.0100716 -0.433837 1.145 255 255 255
-0.502707 0.460237 1.273 255 255 255
-0.173102 0.130808 1.336 255 255 255
-0.48168 0.102169 1.603 255 255 255
-0.450296 0.486019 1.254 255 255 255
0.25986 -0.267592 1.083 255 255 255
0.0668175 -0.138199 1.396 255 255 255
0.331281 -0.306202 0.986 255 255 255
-0.0936762 0.17185 1.351 255 255 255
-0.557201 -0.235797 1.815 255 255 255
-0.173241 -0.262027 1.466 255 255 255
-0.380222 0.0115933 1.71 255 255 255
0.15014 0.0657842 0.63 255 255 255
-0.172657 -0.0690299 1.642 255 255 255
0.270193 0.193348 0.56 255 255 255
0.137646 0.138348 0.598 255 255 255
-0.630462 0.0563853 1.637 255 255 255
-0.214993 0.433628 1.173 255 255 255
0.277974 0.108188 0.609 255 255 255
-0.111496 -0.454772 1.232 255 255 255
0.106145 0.148934 0.575 255 255 255
-0.112965 0.155765 1.345 255 255 255
0.320127 -0.0411275 0.668 255 255 255
-0.552616 -0.570498 1.532 255 255 255
0.209103 0.101213 0.575 255 255 255
-0.35451 -0.00799652 1.734 255 255 255
-0.584694 0.298898 1.422 255 255 255
0.152819 0.0512907 0.616 255 255 255
0.0067429 -0.366056 1.217 255 255 255
-0.0472392 -0.219738 1.409 255 255 255
-0.292612 0.308954 1.178 255 255 255
-0.685151 -0.410612 1.779 255 255 255
-0.414791 0.0517436 1.659 255 255 255
0.0804335 -0.262907 1.254 255 255 255
0.127066 0.171784 0.564 255 255 255
-0.308876 0.330758 1.167 255 255 255
0.361322 0.0518911 0.706 255 255 255
-0.207209 0.267691 1.217 255 255 255
-0.226975 -0.169218 1.629 255 255 255
-0.641469 0.333771 1.375 255 255 255
0.125201 0.140529 0.599 255 255 255
-0.615336 0.109172 1.591 255 255 255
-0.706789 0.108897 1.587 255 255 255
0.124042 -0.367706 1.114 255 255 255
0.130337 0.123385 0.587 255 255 255
-0.815457 -0.503064 1.831 255 255 255
-0.865934 -0.611745 1.758 255 255 255
-0.168368 0.158832 1.316 255 255 255
0.226638 -0.160088 1.217 255 255 255
-0.00423285 0.0667134 1.629 255 255 255
0.0962545 0.169957 0.561 255 255 255
-0.118162 0.374564 1.09 255 255 255
-0.474067 0.186905 1.528 255 255 255
-0.0512905 -0.153933 1.459 255 255 255
-0.131507 0.386258 1.083 255 255 255
-0.73974 -0.0416166 1.724 255 255 255
0.266665 0.152689 0.597 255 255 255
0.055021 0.158491 0.569 255 255 255
-0.765858 -0.382926 1.87 255 255 255
0.239225 -0.385873 0.997 255 255 255
-0.468881 -0.0220417 1.729 255 255 255
0.0726001 0.0486876 0.805 0 0 0
0.0553491 0.102894 0.625 255 255 255
0.0464379 -0.382056 1.169 255 255 255
0.195858 0.0598668 0.556 0 0 0
0.0463406 0.100162 0.627 255 255 255
-0.421172 -0.0423166 1.753 255 255 255
-0.305859 -0.490321 1.396 255 255 255
0.137969 -0.00280385 0.608 255 255 255
0.245223 -0.35397 1.022 255 255 255
0.263239 0.0469819 0.533 255 255 255
0.292773 -0.234703 1.094 255 255 255
0.226365 -0.313414 1.083 255 255 255
0.203487 0.0890483 0.575 255 255 255
-0.543108 0.337475 1.381 255 255 255
0.0865039 0.120873 0.608 255 255 255
0.167261 0.07645 0.625 255 255 255
0.172429 0.0142467 0.618 255 255 255
0.247324 0.0573832 0.525 255 255 255
0.126759 -0.35574 1.122 255 255 255
-0.604159 0.215768 1.487 255 255 255
-0.494593 -0.329911 1.664 255 255 255
-0.835155 -0.0977269 1.724 255 255 255
-0.156728 -0.484456 1.257 255 255 255
0.0625708 0.067404 0.626 255 255 255
-0.87239 -0.34941 1.748 255 255 255
0.0265711 -0.243783 1.316 255 255 255
0.187564 -0.0204099 0.602 255 255 255
-0.116035 0.169179 1.33 255 255 255
0.0179203 -0.259725 1.31 255 255 255
-0.0516939 0.410629 1.073 255 255 255
-0.313612 -0.181698 1.696 255 255 255
-0.460846 -0.458776 1.559 255 255 255
-0.911721 -0.671823 1.758 255 255 255
-0.160053 -0.42359 1.336 255 255 255
0.0410371 0.223933 0.674 255 255 255
0.269758 -0.123012 0.701 0 0 0
0.202329 0.0466054 0.549 255 255 255
-0.327335 -0.155371 1.71 255 255 255
0.284907 -0.223054 1.098 255 255 255
-0.828268 -0.0900874 1.739 255 255 255
-0.502694 0.0408459 1.655 255 255 255
-0.210417 -0.160771 1.624 255 255 255
-0.520614 -0.00511504 1.714 255 255 255
-0.93177 -0.433105 1.917 255 255 255
-0.580534 0.112042 1.595 255 255 255
0.259343 -0.188669 0.795 255 255 255
-0.455696 0.349434 1.375 255 255 255
0.118803 0.16903 0.564 255 255 255
-0.269321 -0.422196 1.419 255 255 255
-0.577637 -0.12288 1.805 255 255 255
0.090693 0.159327 0.572 255 255 255
-0.52031 -0.135002 1.81 255 255 255
0.0860742 -0.267528 1.247 255 255 255
0.0271404 0.136758 0.587 255 255 255
0.0270017 0.143662 0.584 255 255 255
-0.124761 0.200437 1.308 255 255 255
-0.611005 0.0538854 1.642 255 255 255
-0.218439 0.326175 1.171 255 255 255
0.0498114 0.157741 0.573 255 255 255
-0.0518921 0.165254 1.351 255 255 255
0.0309782 0.110614 0.606 255 255 255
0.0668106 -0.0678025 1.445 255 255 255
0.111288 -0.144652 1.33 255 255 255
0.23738 -0.303399 1.085 255 255 255
-0.374227 0.1546 1.579 255 255 255
0.333092 -0.032413 0.771 255 255 255
0.0381146 0.0898155 0.626 255 255 255
0.150301 0.140294 0.598 255 255 255
-0.332014 0.455806 1.278 255 255 255
0.224519 0.178862 0.569 255 255 255
-0.659906 -0.366678 1.805 255 255 255
-0.449295 0.402572 1.336 255 255 255
-0.616307 0.36306 1.359 255 255 255
0.185944 0.173611 0.57 255 255 255
-0.888734 -0.0652372 1.682 255 255 255
0.0171542 -0.320046 1.254 255 255 255
0.335934 0.0848438 0.667 255 255 255
-0.828132 -0.212048 1.612 255 255 255
0.0611141 0.17509 0.557 255 255 255
-0.543023 -0.187836 1.837 255 255 255
-0.0596913 -0.40695 1.239 255 255 255
0.13528 0.101306 0.56 255 255 255
0.20064 -0.377491 1.041 255 255 255
0.392624 -0.33149 0.902 255 255 255
-0.75326 0.014065 1.673 255 255 255
-0.23653 -0.281573 1.52 255 255 255
0.291359 -0.135679 0.69 255 255 255
-0.622944 -0.5569 1.571 255 255 255
-0.470346 0.191376 1.524 255 255 255
-0.733065 -0.620986 1.646 255 255 255
0.239394 0.0444631 0.534 255 255 255
-0.89989 -0.3576 1.719 255 255 255
0.227547 -0.382686 1.01 255 255 255
0.231665 -0.18626 1.182 255 255 255
0.0900095 0.0444755 0.592 0 0 0
-0.704514 -0.0503233 1.734 255 255 255
0.17558 0.191484 0.552 255 255 255
0.251858 0.06555 0.522 255 255 255
-0.225114 0.312257 1.176 255 255 255
-0.043861 -0.25695 1.375 255 255 255
-0.697216 0.36996 1.336 255 255 255
-0.600753 0.446752 1.27 255 255 255
-0.598674 0.265765 1.456 255 255 255
0.248589 -0.0654436 0.63 255 255 255
0.160876 -0.0482617 0.62 255 255 255
0.100017 -0.0373362 1.449 255 255 255
0.176976 0.170199 0.571 255 255 255
-0.807285 -0.495747 1.826 255 255 255
-0.628204 0.399001 1.31 255 255 255
-0.0569338 0.412375 1.073 255 255 255
-0.669581 -0.0191725 1.724 255 255 255
0.0587922 -0.0453603 1.48 255 255 255
0.204388 -0.053244 0.67 255 255 255
-0.577117 0.383396 1.345 255 255 255
0.119856 0.157565 0.569 255 255 255
-0.272985 0.427615 1.21 255 255 255
0.43258 -0.31515 0.873 255 255 255
0.241287 -0.15497 0.875 255 255 255
-0.40483 -0.410315 1.539 255 255 255
-0.386664 0.47681 1.273 255 255 255
-0.142964 0.076783 1.381 255 255 255
0.0584892 -0.315856 1.222 255 255 255
0.440543 -0.300235 0.892 255 255 255
0.0102866 -0.132719 1.435 255 255 255
-0.302702 -0.225992 1.637 255 255 255
0.101387 -0.0509868 1.435 255 255 255
0.196211 0.0636002 0.557 255 255 255
0.317833 0.128321 0.625 255 255 255
0.31136 -0.328056 0.989 255 255 255
0.00545515 0.286276 0.761 255 255 255
-0.445525 -0.299025 1.673 255 255 255
-0.544872 -0.300593 1.729 255 255 255
-0.235997 0.322914 1.173 255 255 255
0.0425772 -0.208031 1.348 255 255 255
0.119269 -0.102333 1.372 255 255 255
-0.863513 -0.654122 1.719 255 255 255
-0.134705 0.219793 1.322 255 255 255
-0.119432 0.0674923 1.422 255 255 255
-0.899923 -0.407564 1.929 255 255 255
-0.351305 -0.386767 1.535 255 255 255
-0.412103 0.222577 1.484 255 255 255
0.280025 0.142406 0.607 255 255 255
-0.643483 0.20949 1.494 255 255 255
-0.258587 -0.215003 1.595 255 255 255
-0.433849 -0.0107559 1.724 255 255 255
-0.838643 -0.403761 1.911 0 0 0
-0.0191985 0.116471 1.372 255 255 255
-0.47362 0.412735 1.313 255 255 255
0.279819 -0.152675 0.817 255 255 255
0.389499 -0.294401 0.948 255 255 255
0.306096 0.153457 0.6 255 255 255
-0.898866 -0.5645 1.837 255 255 255
-0.70044 0.20179 1.491 255 255 255
0.112569 -0.115729 1.372 255 255 255
0.205155 0.153201 0.599 255 255 255
0.361981 -0.336932 0.925 255 255 255
0.0905208 0.0872172 0.622 0 0 0
-0.551138 0.461219 1.27 255 255 255
0.171778 -0.0704275 0.638 255 255 255
0.229672 0.117543 0.568 255 255 255
0.195048 0.091681 0.592 255 255 255
-0.877942 -0.404425 1.929 255 255 255
0.192316 -0.316543 1.1 255 255 255
0.181765 -0.0727789 0.801 255 255 255
-0.70129 0.0714405 1.616 255 255 255
0.0577512 0.085128 0.629 255 255 255
-0.116654 -0.419177 1.289 255 255 255
-0.154047 0.289718 1.4 255 255 255
0.0248718 0.216603 0.682 255 255 255
0.00921507 0.12066 0.602 255 255 255
-0.463698 -0.425245 1.595 255 255 255
0.364393 -0.307453 0.955 255 255 255
-0.275525 0.386649 1.187 255 255 255
-0.0516089 -0.343662 1.289 255 255 255
-0.440794 -0.0712478 1.763 255 255 255
-0.122169 -0.0156264 1.646 255 255 255
0.150818 -0.140987 1.316 255 255 255
0.251668 -0.143414 0.857 255 255 255
-0.203609 -0.1218 1.633 255 255 255
-0.469473 0.332053 1.396 255 255 255
0.1256 -0.3503 1.128 255 255 255
-0.471029 0.223027 1.487 255 255 255
0.141327 0.0222047 0.589 255 255 255
-0.37107 -0.353849 1.555 255 255 255
-0.563386 0.399915 1.313 255 255 255
-0.156172 0.252483 1.359 255 255 255
-0.0378531 0.0926043 1.491 255 255 255
-0.194394 -0.214967 1.539 255 255 255
-0.273942 -0.447818 1.384 255 255 255
-0.700389 0.0637086 1.62 255 255 255
0.109757 0.0502731 0.56 255 255 255
-0.528213 -0.434209 1.659 255 255 255
0.0793327 -0.0423424 1.459 255 255 255
0.244331 0.132657 0.59 255 255 255
-0.342039 -0.211904 1.673 255 255 255
-0.852402 -0.264858 1.853 255 255 255
-0.761806 -0.494436 1.789 255 255 255
0.291746 -0.340587 0.988 255 255 255
-0.247598 -0.481195 1.339 255 255 255
-0.62597 -0.281799 1.826 255 255 255
0.133203 0.0221293 0.587 255 255 255
0.0756417 -0.312755 1.21 255 255 255
0.246274 -0.0467954 0.614 255 255 255
0.0959755 -0.3618 1.147 255 255 255
-0.0912251 -0.202815 1.452 255 255 255
0.212805 0.0919406 0.553 255 255 255
-0.247598 -0.483374 1.339 255 255 255
0.180175 0.0594238 0.597 255 255 255
0.0970703 0.129351 0.606 255 255 255
0.416932 -0.297683 0.92 255 255 255
-0.587731 -0.208909 1.865 255 255 255
-0.891204 -0.445583 1.917 255 255 255
0.241549 0.0469819 0.533 255 255 255
0.0374642 0.236766 0.689 255 255 255
-0.188063 0.313672 1.16 255 255 255
0.272331 -0.134941 0.839 255 255 255
0.241826 0.186469 0.564 255 255 255
-0.718627 -0.498988 1.734 255 255 255
0.116967 0.169948 0.564 255 255 255
0.111955 0.149193 0.576 255 255 255
-0.782871 0.0219933 1.655 255 255 255
0.145005 -0.0838558 1.362 255 255 255
-0.447066 -0.368037 1.629 255 255 255
-0.261836 -0.414391 1.416 255 255 255
-0.617361 0.47943 1.237 255 255 255
0.242055 -0.371502 1.002 255 255 255
0.202528 0.207533 0.54 255 255 255
-0.16222 0.404851 1.1 255 255 255
0.228354 0.190841 0.558 255 255 255
-0.123712 0.386599 1.297 255 255 255
0.122148 -0.00100414 0.74 255 255 255
-0.111008 0.09435 1.375 255 255 255
-0.575299 -0.00792734 1.719 255 255 255
0.202013 0.0709787 0.558 255 255 255
-0.383944 0.087435 1.62 255 255 255
-0.428393 -0.455991 1.516 255 255 255
0.108126 0.162653 0.561 255 255 255
-0.227614 -0.397734 1.39 255 255 255
0.239081 -0.237958 1.135 255 255 255
0.193415 -0.0659087 0.655 255 255 255
-0.482882 0.0893485 1.607 255 255 255
0.255387 -0.291186 1.079 255 255 255
-0.563849 -0.319029 1.753 255 255 255
0.272012 -0.148611 0.698 255 255 255
-0.412212 -0.454224 1.502 255 255 255
-0.7467 0.0938725 1.595 255 255 255
-0.678625 0.0195566 1.677 255 255 255
-0.76458 0.24681 1.456 255 255 255
-0.635743 0.439168 1.278 255 255 255
0.0344882 0.138435 0.582 255 255 255
-0.564829 -0.0976743 1.774 255 255 255
-0.264925 -0.247559 1.571 255 255 255
0.213076 0.03266 0.54 255 255 255
-0.607893 0.41308 1.294 255 255 255
0.175932 -0.0652363 0.638 255 255 255
-0.623098 0.459403 1.265 255 255 255
-0.176051 -0.129057 1.624 255 255 255
0.189531 0.00936746 0.628 255 255 255
0.317926 -0.0683679 0.648 255 255 255
0.0690192 -0.072355 1.442 255 255 255
0.0802304 0.109897 0.613 255 255 255
0.102016 0.100754 0.612 255 255 255
0.211399 -0.202428 1.198 255 255 255
0.239893 0.209569 0.543 255 255 255
0.260954 -0.177291 0.808 255 255 255
0.247568 -0.309073 1.068 255 255 255
0.151532 -0.359784 1.09 255 255 255
0.243564 -0.0567875 0.625 255 255 255
0.0450728 0.0884589 1.591 255 255 255
-0.673769 0.176496 1.524 255 255 255
0.295939 -0.236304 0.803 0 0 0
-0.255943 0.104707 1.563 255 255 255
-0.798798 -0.24749 1.905 255 255 255
-0.467442 0.218774 1.491 255 255 255
-0.479268 0.357602 1.372 255 255 255
-0.223681 0.073615 1.551 255 255 255
0.0343697 0.181376 0.58 255 255 255
0.176339 -0.0732332 0.806 255 255 255
-0.0152365 -0.161259 1.419 255 255 255
-0.50274 0.179915 1.532 255 255 255
0.0542622 0.12134 0.591 255 255 255
-0.762214 -0.0941997 1.763 255 255 255
0.0307284 0.0827084 0.642 255 255 255
-0.279438 -0.36038 1.498 255 255 255
0.0430147 0.134646 0.582 255 255 255
0.325989 -0.0376258 0.775 255 255 255
-0.404889 0.306222 1.333 255 255 255
0.149295 0.0301262 0.594 255 255 255
-0.639038 0.181456 1.524 255 255 255
-0.464592 -0.253492 1.734 255 255 255
-0.123799 -0.296583 1.393 255 255 255
0.0420812 -0.278004 1.267 255 255 255
0.0860206 0.0321076 0.784 0 0 0
0.0925458 0.0943026 0.622 255 255 255
-0.897747 -0.391321 1.911 255 255 255
-0.0455928 -0.442024 1.187 255 255 255
-0.557805 0.329199 1.384 255 255 255
0.282129 0.0269547 0.715 255 255 255
-0.217307 -0.262473 1.524 255 255 255
-0.67357 0.328577 1.372 255 255 255
0.0686974 0.0603436 0.821 0 0 0
-0.537223 0.0667134 1.629 255 255 255
0.282292 -0.175119 0.743 255 255 255
0.187818 0.0727783 0.551 0 0 0
-0.0696629 -0.422397 1.237 255 255 255
-0.324567 -0.289198 1.575 255 255 255
0.258966 -0.29453 1.072 255 255 255
0.300836 -0.0107386 0.747 255 255 255
-0.387327 0.447143 1.289 255 255 255
-0.879221 -0.624943 1.739 255 255 255
-0.477844 -0.293987 1.691 255 255 255
-0.847514 -0.123772 1.624 255 255 255
-0.367783 0.118115 1.607 255 255 255
-0.442519 0.343914 1.362 255 255 255
-0.397359 -0.356741 1.579 255 255 255
0.0408191 -0.321666 1.229 255 255 255
0.199981 0.170795 0.573 255 255 255
-0.350766 -0.249267 1.65 255 255 255
0.0456783 0.166532 0.568 255 255 255
-0.323733 0.438485 1.27 255 255 255
-0.896895 -0.35864 1.724 255 255 255
-0.883101 -0.354802 1.719 255 255 255
-0.255891 0.444467 1.213 255 255 255
-0.126177 0.366243 1.13 255 255 255
0.286374 0.141124 0.61 255 255 255
0.201591 0.121235 0.6 255 255 255
0.308917 -0.160572 0.672 255 255 255
-0.554627 0.224992 1.484 255 255 255
0.00556267 0.296969 0.776 255 255 255
-0.658087 0.429776 1.281 255 255 255
0.270899 -0.143546 0.701 255 255 255
-0.0168686 0.00553784 1.571 255 255 255
0.232965 -0.380792 1.005 255 255 255
-0.739302 -0.630165 1.642 255 255 255
0.158905 -0.38902 1.068 255 255 255
0.185344 0.106234 0.598 255 255 255
0.140922 0.193475 0.55 255 255 255
0.303391 -0.142727 0.697 255 255 255
0.165032 0.110206 0.578 255 255 255
-0.150306 -0.361968 1.366 255 255 255
0.14048 0.168046 0.57 255 255 255
-0.0671105 -0.264847 1.393 255 255 255
0.147425 -0.135381 1.324 255 255 255
0.161581 -0.0318595 0.615 255 255 255
-0.243239 -0.474658 1.339 255 255 255
-0.87239 -0.34372 1.748 0 0 0
0.0870741 0.0294806 0.782 255 255 255
-0.432769 0.275243 1.456 255 255 255
0.0970859 0.14174 0.6 255 255 255
-0.696602 0.366433 1.339 255 255 255
-0.07104 -0.369581 1.299 255 255 255
-0.612761 0.16571 1.539 255 255 255
-0.0452472 -0.454009 1.178 255 255 255
0.104789 0.127168 0.605 255 255 255
-0.856337 -0.290263 1.842 255 255 255
-0.832634 -0.107179 1.696 255 255 255
0.048713 -0.367744 1.178 255 255 255
0.31392 -0.304836 0.992 255 255 255
-0.529582 -0.581578 1.509 255 255 255
-0.194178 0.0199881 1.714 255 255 255
0.364618 0.0445321 0.717 255 255 255
0.308439 -0.177302 0.657 255 255 255
-0.114398 -0.0415362 1.612 255 255 255
0.132022 0.0306741 0.586 255 255 255
0.152662 -0.382111 1.073 255 255 255
0.310011 -0.0479352 0.672 255 255 255
0.0587751 0.0718214 0.629 255 255 255
0.311418 -0.0132579 0.752 255 255 255
-0.504021 -0.147189 1.815 255 255 255
0.210978 -0.0268992 0.616 255 255 255
-0.541025 0.320005 1.393 255 255 255
0.0540858 -0.413443 1.13 255 255 255
0.11475 0.205631 0.549 255 255 255
-0.230755 -0.13009 1.637 255 255 255
0.0469349 -0.411578 1.135 255 255 255
0.327606 -0.349866 0.952 255 255 255
-0.601757 0.274487 1.452 255 255 255
-0.303042 -0.048296 1.763 255 255 255
0.230678 0.0894468 0.538 255 255 255
-0.00648728 0.100333 1.535 0 0 0
0.0420673 0.134646 0.582 255 255 255
0.114927 0.16873 0.563 255 255 255
-0.868892 -0.0626487 1.686 255 255 255
0.162196 -0.0474074 0.77 255 255 255
-0.521748 -0.206261 1.815 255 255 255
0.108018 -0.0147898 0.768 255 255 255
-0.0577689 -0.36379 1.286 255 255 255
0.0599733 -0.401202 1.137 255 255 255
0.149577 0.0147835 0.599 255 255 255
-0.593178 0.317738 1.393 255 255 255
-0.182233 -0.376954 1.372 255 255 255
0.0680705 -0.41633 1.118 255 255 255
-0.535363 0.161537 1.547 255 255 255
-0.400542 0.233545 1.477 255 255 255
0.2148 0.150494 0.596 255 255 255
0.205544 -0.0135749 0.603 255 255 255
0.142995 -0.297332 1.165 255 255 255
-0.257912 0.349393 1.135 255 255 255
-0.403982 0.130211 1.595 255 255 255
-0.851543 -0.189278 1.794 255 255 255
0.199567 -0.113062 0.849 255 255 255
0.0609195 0.0842381 0.63 255 255 255
-0.834976 -0.225385 1.595 255 255 255
-0.00903808 -0.398733 1.208 255 255 255
0.0989941 0.172696 0.561 255 255 255
0.261387 0.0511262 0.531 255 255 255
0.110834 0.145138 0.59 255 255 255
0.0445916 0.230779 0.678 255 255 255
-0.473736 0.0170183 1.696 255 255 255
0.294567 -0.199543 0.772 255 255 255
-0.436969 0.0278265 1.682 255 255 255
-0.720627 0.240855 1.463 255 255 255
-0.403503 0.064731 1.646 255 255 255
-0.553923 0.255139 1.463 255 255 255
0.395839 -0.315268 0.906 255 255 255
0.321832 -0.0934149 0.639 255 255 255
0.131278 -0.315475 1.162 255 255 255
0.0785734 -0.296697 1.225 255 255 255
-0.233919 0.0172491 1.719 255 255 255
0.184254 -0.0204777 0.604 255 255 255
-0.0684273 -0.169447 1.47 255 255 255
0.191985 0.166353 0.577 255 255 255
0.217333 0.123281 0.582 255 255 255
0.327018 -0.139724 0.699 255 255 255
0.13934 0.0761724 0.537 255 255 255
-0.553501 0.20949 1.494 255 255 255
0.150054 0.051374 0.617 255 255 255
-0.750354 -0.580175 1.691 255 255 255
-0.896422 -0.399385 1.935 255 255 255
-0.815423 -0.243897 1.65 255 255 255
-0.762531 0.0686405 1.612 255 255 255
-0.374831 -0.417051 1.509 255 255 255
-0.0530971 -0.45555 1.182 255 255 255
-0.1848 -0.0614968 1.655 255 255 255
-0.138543 0.306065 1.278 255 255 255
0.0544459 0.118856 0.593 255 255 255
-0.506129 0.196337 1.505 255 255 255
0.175865 -0.0578047 0.775 255 255 255
-0.615707 0.301754 1.403 255 255 255
0.150597 -0.114609 1.333 255 255 255
0.201217 0.105879 0.596 255 255 255
0.181594 0.0667048 0.568 255 255 255
0.231907 0.189703 0.56 255 255 255
0.273971 -0.206735 0.785 255 255 255
0.327406 -0.299175 0.984 255 255 255
0.238446 -0.0461519 0.647 255 255 255
0.126431 -0.238886 1.225 255 255 255
0.1285 0.0210298 0.583 255 255 255
0.280879 -0.000994639 0.733 255 255 255
-0.387251 0.175475 1.559 255 255 255
-0.530435 0.46352 1.265 255 255 255
0.290001 -0.174955 0.78 255 255 255
0.287399 -0.145501 0.694 255 255 255
0.0820385 -0.389414 1.135 255 255 255
0.106707 0.191337 0.549 255 255 255
-0.939725 -0.548214 1.784 255 255 255
-0.939152 -0.630111 1.794 255 255 255
-0.00159284 0.158777 0.613 255 255 255
0.186374 0.162499 0.58 255 255 255
0.309088 -0.148101 0.67 255 255 255
-0.868964 -0.537596 1.837 255 255 255
0.305945 0.0235954 0.719 0 0 0
-0.188076 0.144169 1.319 255 255 255
-0.199025 0.425883 1.147 255 255 255
-0.240838 0.318539 1.178 255 255 255
0.132301 0.202873 0.544 255 255 255
0.215397 0.0178225 0.638 255 255 255
0.0807702 0.178074 0.555 255 255 255
-0.0119635 0.0316575 1.599 255 255 255
0.234559 -0.0376122 0.645 255 255 255
0.247335 0.186469 0.564 255 255 255
-0.214642 -0.175757 1.616 255 255 255
-0.842168 -0.158615 1.629 255 255 255
-0.379522 0.439433 1.291 255 255 255
0.240244 0.197587 0.554 255 255 255
0.339121 -0.0951226 0.751 0 0 0
0.0437991 -0.341699 1.201 255 255 255
-0.34322 -0.0712478 1.763 255 255 255
0.31164 0.120311 0.631 255 255 255
-0.510456 0.134723 1.587 255 255 255
0.34472 0.00261558 0.742 0 0 0
-0.449586 -0.411234 1.591 255 255 255
-0.883258 -0.0570257 1.682 0 0 0
-0.516809 -0.0624632 1.758 255 255 255
-0.226647 0.257365 1.215 255 255 255
0.280965 -0.337304 1.007 255 255 255
-0.292335 0.457114 1.242 255 255 255
-0.684221 0.197862 1.498 255 255 255
-0.287459 -0.459079 1.384 255 255 255
0.0463158 0.222937 0.671 255 255 255
-0.20277 -0.367992 1.406 255 255 255
-0.228322 0.0172491 1.719 255 255 255
-0.271661 0.264955 1.187 255 255 255
0.0800869 -0.409 1.108 255 255 255
-0.31768 0.144322 1.579 255 255 255
0.0853209 0.105267 0.621 255 255 255
0.145017 -0.35671 1.108 255 255 255
0.13343 0.0202532 0.588 255 255 255
0.180369 -0.0590994 0.639 255 255 255
-0.547211 -0.20808 1.831 255 255 255
-0.708577 0.0221129 1.664 255 255 255
0.0376884 0.0998917 0.619 255 255 255
0.222509 -0.137443 1.227 255 255 255
-0.741103 -0.626343 1.646 255 255 255
-0.127695 0.10454 1.362 255 255 255
0.108297 0.192772 0.548 255 255 255
-0.525878 0.368334 1.354 255 255 255
-0.0865412 0.377719 1.094 255 255 255
0.248368 -0.0883536 0.64 255 255 255
-0.606979 0.330014 1.378 255 255 255
0.0492449 0.101877 0.625 255 255 255
-0.783572 -0.105076 1.753 0 0 0
-0.585288 0.239615 1.47 255 255 255
-0.696466 -0.219589 1.905 255 255 255
0.0766652 0.1636 0.558 255 255 255
0.209068 0.0415244 0.541 255 255 255
0.303448 -0.164947 0.672 255 255 255
0.0663681 0.146969 0.571 255 255 255
0.214915 0.209391 0.538 255 255 255
-0.0188627 -0.258485 1.348 255 255 255
0.112037 0.00878125 0.753 255 255 255
-0.628428 -0.30398 1.799 255 255 255
0.238078 -0.0902332 0.646 255 255 255
0.3578 -0.314894 0.954 255 255 255
-0.495017 0.175728 1.539 255 255 255
0.288591 0.179187 0.573 255 255 255
0.2889 -0.160812 0.798 255 255 255
-0.220353 0.0544433 1.659 255 255 255
-0.665697 -0.468129 1.714 255 255 255
-0.151626 -0.338239 1.378 255 255 255
-0.575385 0.398687 1.316 255 255 255
-0.223959 0.303718 1.18 255 255 255
0.0297002 0.146706 0.581 255 255 255
-0.636584 -0.115968 1.789 255 255 255
-0.619972 0.129231 1.583 255 255 255
0.162524 0.14174 0.6 255 255 255
-0.669697 -0.544241 1.682 255 255 255
-0.100963 -0.033562 1.607 255 255 255
0.29681 0.154176 0.599 255 255 255
0.032614 0.0832314 0.638 255 255 255
-0.671684 -0.346221 1.821 255 255 255
0.43704 -0.309787 0.882 255 255 255
0.147124 0.108109 0.567 255 255 255
-0.544058 0.471886 1.249 255 255 255
-0.0396881 0.405902 1.079 255 255 255
-0.293932 -0.130326 1.71 255 255 255
0.254882 -0.17979 1.165 255 255 255
0.323641 -0.0277636 0.687 255 255 255
-0.694415 0.0483935 1.637 255 255 255
0.157508 0.157236 0.585 255 255 255
-0.105447 -0.338039 1.333 255 255 255
-0.809433 -0.612909 1.729 255 255 255
-0.415804 -0.395838 1.571 255 255 255
-0.347173 -0.462853 1.445 255 255 255
-0.0914933 -0.0663814 1.579 255 255 255
-0.536315 0.0382449 1.659 255 255 255
-0.481594 0.44715 1.283 255 255 255
-0.61142 0.442287 1.275 255 255 255
-0.461384 -0.182129 1.81 255 255 255
0.297995 -0.138924 0.695 255 255 255
-0.0939777 -0.43921 1.239 255 255 255
0.133897 0.00253451 0.719 255 255 255
-0.10308 0.110944 1.359 255 255 255
0.144864 0.170529 0.569 255 255 255
0.0356792 0.131757 0.586 255 255 255
-0.607104 -0.477281 1.668 255 255 255
-0.41462 -0.327222 1.637 255 255 255
-0.53114 0.383396 1.345 255 255 255
0.20521 -0.334563 1.083 255 255 255
0.274197 -0.202127 0.782 255 255 255
-0.0373895 -0.24737 1.384 255 255 255
0.16841 -0.0870424 0.825 0 0 0
-0.321854 -0.416261 1.48 255 255 255
0.406553 -0.303732 0.934 255 255 255
0.139952 -0.017984 0.745 255 255 255
0.256948 -0.129317 0.856 255 255 255
0.0843295 -0.384045 1.141 255 255 255
-0.678443 0.0380374 1.65 255 255 255
-0.721718 -0.568876 1.682 255 255 255
-0.779216 0.00592912 1.682 255 255 255
-0.368796 0.190259 1.535 255 255 255
-0.156468 0.424789 1.11 255 255 255
-0.256992 0.0337562 1.705 255 255 255
0.295765 0.139823 0.613 255 255 255
-0.0427072 0.090178 1.491 255 255 255
0.190249 0.0362659 0.569 255 255 255
0.408599 -0.310396 0.892 255 255 255
0.345264 0.0110083 0.738 255 255 255
-0.536289 0.13214 1.587 255 255 255
0.173365 0.012374 0.625 255 255 255
-0.875212 -0.431331 1.923 255 255 255
-0.169136 -0.436362 1.322 255 255 255
-0.662362 -0.188167 1.87 255 255 255
-0.060554 -0.29139 1.348 255 255 255
0.218351 0.0809917 0.54 255 255 255
0.099195 0.179622 0.557 255 255 255
0.262488 0.0254666 0.706 255 255 255
0.286004 -0.215765 0.79 0 0 0
-0.173077 -0.0558052 1.646 255 255 255
-0.358629 0.166175 1.567 255 255 255
-0.146345 0.1497 1.33 255 255 255
0.207623 0.102797 0.584 255 255 255
-0.468641 0.0791335 1.612 255 255 255
-0.196928 0.307829 1.227 255 255 255
-0.0976131 -0.0462893 1.595 255 255 255
0.118375 0.138579 0.599 255 255 255
0.428337 -0.317371 0.856 255 255 255
-0.293771 0.164936 1.509 255 255 255
-0.440753 -0.273912 1.686 255 255 255
0.0802374 0.139861 0.584 255 255 255
-0.946595 -0.485907 1.941 255 255 255
0.0840649 0.159216 0.565 255 255 255
0.377196 -0.275503 0.952 255 255 255
0.153088 -0.234959 1.215 255 255 255
0.290302 -0.270278 1.059 255 255 255
0.259488 0.0344123 0.701 255 255 255
0.368938 -0.328402 0.935 255 255 255
-0.479071 0.102169 1.603 255 255 255
-0.495313 0.234019 1.48 255 255 255
-0.405207 0.0491917 1.664 255 255 255
-0.724872 0.103732 1.587 255 255 255
0.175736 -0.0157693 0.612 255 255 255
0.0573658 -0.23404 1.286 255 255 255
-0.449902 0.134383 1.583 255 255 255
0.0690985 -0.214958 1.31 255 255 255
-0.0645745 -0.435372 1.217 255 255 255
0.0733986 -0.413769 1.116 255 255 255
-0.13119 0.223287 1.33 255 255 255
-0.218092 -0.396875 1.387 255 255 255
-0.32531 -0.152945 1.714 255 255 255
0.159393 0.0319516 0.592 255 255 255
-0.639579 -0.494972 1.682 255 255 255
-0.0800854 0.384831 1.079 255 255 255
0.147114 0.0165654 0.593 255 255 255
-0.448948 -0.104031 1.784 255 255 255
0.123884 0.00618757 0.736 255 255 255
-0.0495327 -0.219738 1.409 255 255 255
-0.53085 0.27685 1.452 255 255 255
-0.150589 -0.480365 1.257 255 255 255
-0.846151 -0.227448 1.893 255 255 255
-0.828287 -0.249357 1.633 255 255 255
-0.00548401 0.117721 0.602 255 255 255
-0.278823 0.322659 1.145 255 255 255
-0.0530971 -0.447856 1.182 255 255 255
-0.245779 -0.295634 1.516 255 255 255
0.131675 -0.369125 1.102 255 255 255
0.218284 -0.241523 1.152 255 255 255
-0.730492 0.0113696 1.677 255 255 255
-0.600096 0.226334 1.477 255 255 255
0.202694 0.016679 0.634 255 255 255
-0.847826 -0.293982 1.774 255 255 255
0.0670802 -0.397595 1.132 255 255 255
-0.166952 -0.424542 1.339 255 255 255
-0.605829 0.0867334 1.607 255 255 255
-0.0729523 0.000439106 1.624 255 255 255
0.289495 -0.351972 0.975 255 255 255
-0.508393 -0.265543 1.739 255 255 255
0.0318724 0.0798221 0.644 255 255 255
0.169545 -0.259415 1.165 255 255 255
-0.834277 -0.146593 1.705 0 0 0
-0.212149 -0.00233937 1.724 255 255 255
0.00818318 0.21123 0.679 255 255 255
-0.869568 -0.325268 1.682 255 255 255
0.241861 0.0817696 0.528 255 255 255
-0.582789 -0.536746 1.587 255 255 255
-0.624409 0.480205 1.239 255 255 255
0.0747144 0.190499 0.557 255 255 255
0.121898 0.200585 0.545 255 255 255
-0.662987 0.136267 1.575 255 255 255
0.0477389 0.0721639 0.632 255 255 255
0.105241 0.0217182 1.456 255 255 255
-0.29173 -0.344315 1.524 255 255 255
-0.249944 0.377202 1.158 255 255 255
-0.192147 0.31254 1.222 255 255 255
-0.206869 0.27516 1.215 255 255 255
-0.29686 -0.205349 1.664 255 255 255
-0.405462 0.179622 1.551 255 255 255
0.207825 0.060678 0.547 255 255 255
-0.248631 0.0172992 1.724 255 255 255
0.245223 -0.377003 0.995 255 255 255
-0.170764 -0.113201 1.624 255 255 255
-0.664976 -0.534437 1.677 255 255 255
0.178028 -0.378592 1.068 255 255 255
-0.952691 -0.471567 1.947 255 255 255
-0.311293 -0.49856 1.4 255 255 255
0.292163 -0.10575 0.7 255 255 255
-0.846304 -0.0927952 1.637 255 255 255
-0.022207 0.013342 1.587 255 255 255
-0.310718 -0.328671 1.532 255 255 255
0.0387585 0.101062 0.62 255 255 255
-0.758784 -0.0190168 1.71 255 255 255
-0.0477756 -0.194406 1.425 255 255 255
-0.0269221 -0.29237 1.313 255 255 255
0.0911687 0.158291 0.575 255 255 255
-0.390638 0.0750329 1.637 255 255 255
0.0973595 -0.127448 1.378 255 255 255
0.220475 0.139121 0.593 255 255 255
-0.812476 -0.494125 1.831 255 255 255
-0.48518 0.484167 1.244 255 255 255
0.207105 0.143453 0.599 255 255 255
-0.690245 -0.566496 1.659 255 255 255
-0.619817 -0.484156 1.673 255 255 255
0.0880819 -0.111971 1.409 255 255 255
-0.373568 -0.499586 1.429 255 255 255
0.314635 -0.0325811 0.775 255 255 255
-0.876806 -0.336255 1.696 255 255 255
-0.563955 -0.160931 1.837 255 255 255
0.263189 -0.205741 0.791 255 255 255
0.189909 0.155002 0.591 255 255 255
0.262895 -0.185848 0.794 255 255 255
0.139083 0.011879 0.6 255 255 255
0.0696547 0.13192 0.591 255 255 255
0.0208698 0.120059 0.599 255 255 255
0.0229068 -0.335023 1.234 255 255 255
-0.268094 0.0337562 1.705 255 255 255
0.188618 0.190157 0.556 255 255 255
0.168094 -0.0660133 0.798 255 255 255
0.14367 -0.00279924 0.607 255 255 255
0.111018 -0.0661133 1.409 255 255 255
0.227043 0.139378 0.59 255 255 255
-0.575038 0.317738 1.393 255 255 255
0.237815 0.0209594 0.672 255 255 255
-0.238234 0.371753 1.147 255 255 255
-0.824376 -0.341797 1.966 255 255 255
0.461846 -0.241498 0.917 255 255 255
-0.784296 -0.12943 1.774 255 255 255
0.00358056 0.0131738 1.567 255 255 255
0.260223 0.209569 0.543 255 255 255
-0.821078 -0.229483 1.624 255 255 255
-0.127667 -0.412966 1.316 255 255 255
0.00938836 0.303188 0.779 255 255 255
-0.119238 -0.147347 1.539 255 255 255
0.284646 0.184692 0.567 255 255 255
-0.691363 -0.356087 1.826 255 255 255
-0.417312 -0.476117 1.494 255 255 255
-0.00843782 0.137542 0.603 255 255 255
0.329318 -0.0303022 0.669 255 255 255
0.348402 -0.0140002 0.727 255 255 255
-0.292551 -0.144959 1.686 255 255 255
0.252974 -0.160602 0.852 255 255 255
-0.193646 0.37805 1.116 255 255 255
0.141221 -0.382492 1.079 255 255 255
0.152989 0.200363 0.542 255 255 255
0.181743 -0.30371 1.112 255 255 255
-0.349035 -0.526669 1.396 255 255 255
0.192655 -0.359076 1.072 255 255 255
0.230788 -0.14325 0.873 255 255 255
0.288176 -0.232948 0.796 255 255 255
-0.062869 0.378143 1.085 255 255 255
-0.700627 0.241348 1.466 255 255 255
0.0395922 0.0646657 1.579 255 255 255
0.0662209 0.107461 0.622 255 255 255
0.290282 -0.33942 0.994 255 255 255
-0.448627 0.245563 1.477 255 255 255
0.264327 0.207173 0.546 255 255 255
0.134129 0.0974866 0.559 255 255 255
0.0377467 -0.28672 1.26 255 255 255
0.199263 -0.351442 1.07 255 255 255
-0.224159 -0.274152 1.52 255 255 255
-0.112928 -0.383857 1.319 255 255 255
-0.212357 0.318008 1.169 255 255 255
0.227021 -0.0299065 0.616 255 255 255
-0.2635 -0.403111 1.425 255 255 255
-0.569758 0.404777 1.308 255 255 255
0.144038 -0.371176 1.087 255 255 255
0.311256 -0.310239 0.999 255 255 255
0.233105 -0.0676293 0.641 255 255 255
-0.554742 0.155179 1.559 255 255 255
0.224047 -0.0746949 0.648 255 255 255
0.0842318 0.188572 0.554 255 255 255
0.228087 0.0555685 0.524 255 255 255
0.132026 0.142478 0.599 255 255 255
0.248075 0.16334 0.583 255 255 255
0.0268151 -0.331666 1.229 255 255 255
-0.712573 -0.595428 1.642 255 255 255
0.0928413 0.0217055 0.777 255 255 255
-0.460448 0.143956 1.575 255 255 255
0.197035 0.140998 0.601 255 255 255
-0.780826 -0.367232 1.899 255 255 255
-0.561316 -0.207004 1.848 255 255 255
0.306378 -0.295608 0.999 255 255 255
-0.135749 -0.440836 1.291 255 255 255
-0.589809 -0.515092 1.65 255 255 255
-0.167897 0.389448 1.102 255 255 255
-0.0578548 -0.17362 1.445 255 255 255
-0.609269 0.174015 1.524 255 255 255
-0.341757 -0.457199 1.442 255 255 255
0.243743 0.0688158 0.521 255 255 255
0.349117 -0.33592 0.939 255 255 255
-0.79996 -0.0561283 1.739 255 255 255
-0.592105 -0.47072 1.664 255 255 255
0.405085 -0.331535 0.875 255 255 255
-0.502694 -0.338899 1.655 255 255 255
0.237498 -0.0722767 0.636 255 255 255
0.218102 -0.197535 1.192 255 255 255
0.243358 0.194125 0.557 255 255 255
0.207265 -0.192323 1.208 255 255 255
0.0350037 -0.158645 1.396 255 255 255
-0.489508 -0.448247 1.603 255 255 255
0.332983 -0.0238767 0.672 0 0 0
0.299987 -0.147264 0.697 255 255 255
-0.542909 0.263939 1.459 255 255 255
-0.765775 -0.0939325 1.758 255 255 255
-0.382838 0.456876 1.281 255 255 255
-0.396537 -0.457205 1.48 255 255 255
-0.250264 -0.512591 1.33 255 255 255
-0.445788 0.329073 1.393 255 255 255
0.26393 0.00135307 0.713 255 255 255
0.12302 0.00860632 0.738 255 255 255
-0.663472 0.290536 1.393 255 255 255
0.0139223 0.280917 0.75 255 255 255
0.175947 0.187443 0.556 255 255 255
0.153739 0.167411 0.571 255 255 255
0.299102 -0.369617 0.955 255 255 255
-0.109375 -0.222538 1.442 255 255 255
0.121438 0.110778 0.581 255 255 255
-0.609595 0.15049 1.563 255 255 255
0.283809 -0.148686 0.817 255 255 255
0.0470952 0.158016 0.574 255 255 255
-0.00339876 -0.282743 1.308 255 255 255
0.175239 -0.341521 1.094 255 255 255
0.177482 -0.322452 1.108 255 255 255
-0.191735 -0.171733 1.579 255 255 255
0.10552 -0.269408 1.237 255 255 255
-0.406963 -0.0107871 1.729 255 255 255
-0.41162 0.213922 1.491 255 255 255
-0.21176 -0.204618 1.575 255 255 255
-0.820212 -0.283753 1.941 255 255 255
-0.84146 -0.232202 1.81 255 255 255
0.0780599 0.183493 0.555 255 255 255
-0.508702 0.223627 1.491 255 255 255
-0.315276 -0.166015 1.705 255 255 255
0.0809632 0.113515 0.611 255 255 255
-0.847472 0.0508079 1.629 255 255 255
-0.443507 -0.513984 1.484 255 255 255
-0.895478 -0.0272049 1.7 255 255 255
0.223587 0.187637 0.562 255 255 255
-0.686365 0.399878 1.299 255 255 255
0.024599 0.0684276 1.607 255 255 255
0.102649 0.133839 0.604 255 255 255
0.293329 -0.164225 0.692 255 255 255
-0.854968 -0.296388 1.941 255 255 255
0.191614 0.117261 0.615 255 255 255
-0.135925 0.214023 1.313 255 255 255
-0.332021 0.0876509 1.624 255 255 255
0.025746 -0.37797 1.18 255 255 255
-0.109293 0.194711 1.327 255 255 255
0.243743 0.0611852 0.521 0 0 0
0.325885 -0.361898 0.947 255 255 255
-0.700651 -0.12179 1.789 255 255 255
-0.104159 -0.0258607 1.616 255 255 255
0.155968 0.180267 0.559 255 255 255
0.219888 0.0907768 0.546 255 255 255
-0.772468 -0.449939 1.821 255 255 255
-0.197449 0.0665334 1.505 255 255 255
-0.869713 -0.130806 1.646 255 255 255
-0.13552 -0.376237 1.33 255 255 255
-0.487778 -0.513158 1.532 255 255 255
-0.250832 -0.411464 1.406 255 255 255
-0.669699 -0.187664 1.865 255 255 255
-0.445857 -0.431182 1.551 255 255 255
0.0724294 0.104047 0.632 255 255 255
-0.0897988 -0.440514 1.237 255 255 255
-0.840989 -0.153385 1.784 0 0 0
-0.319856 -0.362624 1.528 255 255 255
0.269734 -0.136721 0.713 255 255 255
-0.687059 -0.085884 1.769 255 255 255
-0.00936728 -0.356209 1.252 255 255 255
0.208364 -0.250243 1.149 255 255 255
-0.198533 0.304298 1.237 255 255 255
-0.618186 -0.565331 1.559 255 255 255
-0.53725 0.399499 1.333 255 255 255
-0.131651 0.302695 1.429 255 255 255
0.229531 -0.0421514 0.667 255 255 255
0.301278 -0.160428 0.7 255 255 255
0.0911161 0.195077 0.552 255 255 255
0.129207 0.0553517 0.595 255 255 255
-0.149877 0.312167 1.286 255 255 255
0.157289 0.0478131 0.61 255 255 255
-0.569764 0.0767001 1.616 255 255 255
0.0034069 -0.0893717 1.491 255 255 255
0.0420415 -0.0527278 1.484 255 255 255
0.341156 -0.0187376 0.684 255 255 255
-0.158588 0.242773 1.342 255 255 255
-0.353542 0.333138 1.196 255 255 255
-0.31857 0.286686 1.189 255 255 255
-0.599946 0.18507 1.513 255 255 255
-0.00686342 0.0559375 1.624 255 255 255
-0.0354475 -0.441783 1.171 255 255 255
0.306273 -0.033755 0.773 255 255 255
-0.0969229 0.379655 1.154 255 255 255
-0.817194 -0.531157 1.815 255 255 255
0.353625 0.0498041 0.709 0 0 0
0.0363682 -0.194677 1.362 255 255 255
-0.183532 0.165617 1.302 255 255 255
-0.288805 0.429629 1.227 255 255 255
-0.667416 0.228738 1.477 255 255 255
-0.73218 0.0813003 1.603 255 255 255
0.120331 0.0789114 0.55 255 255 255
-0.235883 0.30808 1.182 255 255 255
-0.859335 -0.524071 1.842 255 255 255
-0.365192 -0.397829 1.52 255 255 255
-0.682365 0.361724 1.354 255 255 255
0.105777 0.151743 0.568 255 255 255
0.242949 0.196686 0.554 255 255 255
0.0968421 -0.0909463 1.403 255 255 255
0.247912 0.101471 0.551 255 255 255
-0.670269 0.193888 1.505 255 255 255
0.317314 -0.106114 0.628 0 0 0
-0.176082 0.0910406 1.359 255 255 255
0.249216 -0.131779 0.863 255 255 255
0.106698 0.0330771 0.578 0 0 0
-0.498316 -0.0924186 1.784 255 255 255
-0.115411 -0.326488 1.348 255 255 255
0.351136 -0.317441 0.957 255 255 255
-0.0211982 0.130673 0.603 255 255 255
0.284288 -0.322829 1.013 255 255 255
-0.459229 0.29229 1.435 255 255 255
-0.00772149 -0.274388 1.319 255 255 255
0.302719 0.152261 0.603 255 255 255
0.021436 0.031024 1.567 255 255 255
0.183594 0.184235 0.56 255 255 255
-0.635905 -0.021978 1.724 255 255 255
0.241205 -0.204383 1.154 255 255 255
0.13936 0.035136 0.597 255 255 255
0.3555 -0.32043 0.952 255 255 255
-0.660076 -0.58504 1.599 255 255 255
-0.264818 0.0648884 1.65 255 255 255
-0.55318 -0.519975 1.591 255 255 255
0.121923 0.15877 0.57 255 255 255
0.256366 -0.343318 1.02 255 255 255
0.162394 0.0811417 0.541 255 255 255
-0.473244 0.0590492 1.637 255 255 255
-0.681536 0.236577 1.466 255 255 255
-0.113973 0.121823 1.357 255 255 255
-0.4917 0.380192 1.357 255 255 255
-0.452756 0.143956 1.575 255 255 255
0.0330798 0.156148 0.574 255 255 255
-0.645668 0.315685 1.384 255 255 255
-0.0360532 0.0826189 1.629 255 255 255
0.0269344 0.248704 0.707 255 255 255
-0.141939 0.299603 1.393 255 255 255
-0.857384 -0.568803 1.794 255 255 255
0.129839 -0.175102 1.299 255 255 255
-0.209447 0.157504 1.305 255 255 255
-0.179842 0.101723 1.354 255 255 255
0.31136 -0.326446 0.989 255 255 255
-0.38389 0.220607 1.487 255 255 255
-0.805045 0.0534588 1.629 255 255 255
-0.152635 0.360357 1.257 255 255 255
-0.768264 -0.620882 1.682 255 255 255
0.184543 -0.298072 1.118 255 255 255
-0.0405589 -0.207004 1.416 255 255 255
-0.843129 -0.288135 1.673 255 255 255
0.0513847 -0.128022 1.409 255 255 255
-0.60455 -0.32267 1.789 255 255 255
-0.168095 -0.377529 1.366 255 255 255
0.318489 -0.0693152 0.647 255 255 255
0.0990247 -0.399948 1.098 255 255 255
-0.129718 -0.1226 1.575 255 255 255
-0.517735 0.166572 1.547 255 255 255
0.0562875 -0.361379 1.176 255 255 255
-0.922409 -0.423746 1.917 255 255 255
-0.0649114 -0.19008 1.445 255 255 255
-0.19199 -0.400804 1.362 255 255 255
-0.788855 0.101404 1.591 255 255 255
-0.383519 -0.406316 1.524 255 255 255
0.166167 0.10386 0.569 255 255 255
-0.606377 -0.0534516 1.744 255 255 255
-0.441009 -0.134182 1.799 255 255 255
0.210975 0.172327 0.575 255 255 255
-0.162569 0.0975315 1.357 255 255 255
-0.8533 -0.277992 1.923 255 255 255
0.177809 0.157505 0.586 255 255 255
-0.7027 -0.34534 1.848 255 255 255
-0.20779 -0.37107 1.409 255 255 255
0.1258 0.158291 0.575 255 255 255
-0.246758 0.225351 1.257 255 255 255
0.320207 -0.0969877 0.642 255 255 255
-0.235939 0.293228 1.192 255 255 255
0.149063 0.184154 0.557 255 255 255
-0.350493 -0.466492 1.449 255 255 255
-0.620232 0.417776 1.289 255 255 255
0.201286 -0.385785 1.027 255 255 255
0.117811 0.183493 0.555 255 255 255
0.257069 -0.314116 1.05 255 255 255
-0.582684 0.204627 1.494 255 255 255
0.113117 -0.386734 1.096 255 255 255
0.307046 -0.143448 0.695 255 255 255
-0.692549 -0.544402 1.691 255 255 255
-0.599908 0.263939 1.459 255 255 255
-0.684994 -0.198562 1.882 255 255 255
-0.34599 -0.0279731 1.748 255 255 255
0.0296993 0.230706 0.691 255 255 255
0.239736 0.0836462 0.529 255 255 255
-0.746823 -0.228169 1.899 255 255 255
-0.238706 0.239792 1.247 255 255 255
0.268065 -0.222026 0.794 255 255 255
-0.568322 0.0434076 1.65 255 255 255
-0.144505 -0.385762 1.333 255 255 255
-0.352724 -0.402317 1.509 255 255 255
0.361522 0.0275956 0.732 255 255 255
-0.664693 0.368075 1.345 255 255 255
-0.384157 -0.276955 1.655 255 255 255
-0.695698 -0.0887628 1.769 255 255 255
-0.524923 0.178976 1.524 255 255 255
-0.517186 -0.104323 1.789 255 255 255
0.181005 0.0438745 0.584 255 255 255
-0.563661 -0.463709 1.668 255 255 255
-0.0724132 -0.0153037 1.612 255 255 255
-0.123712 0.384488 1.297 255 255 255
-0.889896 -0.549553 1.837 255 255 255
0.1157 -0.278916 1.217 255 255 255
-0.93989 -0.542755 1.865 255 255 255
0.0530719 -0.210528 1.336 255 255 255
0.354628 0.0169439 0.735 255 255 255
-0.268964 -0.356987 1.494 255 255 255
-0.215627 0.299725 1.187 255 255 255
-0.825673 -0.395669 1.917 0 0 0
0.150666 0.0827492 0.54 255 255 255
0.254874 -0.316929 1.048 255 255 255
-0.0150856 -0.390782 1.22 255 255 255
-0.00640698 -0.0661999 1.516 255 255 255
-0.562916 0.0223521 1.682 255 255 255
-0.459769 -0.358485 1.646 255 255 255
0.112681 0.055843 0.552 255 255 255
-0.568239 0.0512134 1.642 255 255 255
0.235314 0.0588668 0.523 255 255 255
-0.103581 0.355284 1.283 255 255 255
-0.48168 0.0969519 1.603 255 255 255
-0.247076 -0.284794 1.524 255 255 255
-0.360652 -0.421781 1.491 255 255 255
0.353778 -0.0124646 0.707 255 255 255
-0.857178 -0.270331 1.87 255 255 255
-0.780145 -0.0589582 1.739 255 255 255
-0.556517 0.280218 1.445 255 255 255
0.0845717 -0.417055 1.096 255 255 255
0.292541 -0.206688 0.78 0 0 0
-0.223684 -0.419765 1.366 255 255 255
-0.440419 0.0491917 1.664 255 255 255
0.27297 -0.32838 1.02 255 255 255
-0.399917 0.314993 1.289 255 255 255
0.0920428 -0.402466 1.1 255 255 255
0.296766 -0.320279 1.005 255 255 255
-0.39948 -0.0596024 1.758 255 255 255
0.150259 -0.019119 0.742 255 255 255
-0.342051 0.0199881 1.714 255 255 255
0.285054 0.17318 0.581 255 255 255
0.0929651 -0.35147 1.156 255 255 255
-0.176536 0.26838 1.267 255 255 255
-0.972481 -0.466121 1.899 255 255 255
-0.824506 0.105511 1.575 255 255 255
-0.431843 0.00878479 1.705 255 255 255
-0.743659 0.116351 1.583 255 255 255
-0.116297 0.165222 1.333 255 255 255
0.0104152 0.160295 0.615 0 0 0
0.156259 -0.321621 1.124 255 255 255
-0.147107 0.106365 1.357 255 255 255
-0.889291 -0.353749 1.893 255 255 255
0.0486227 0.159697 0.57 255 255 255
0.0406863 -0.324606 1.225 255 255 255
0.202866 -0.0212474 0.598 255 255 255
0.187129 -0.0557138 0.648 255 255 255
0.194952 0.0185947 0.629 255 255 255
-0.936232 -0.562964 1.794 255 255 255
0.233517 -0.033696 0.612 255 255 255
-0.45884 -0.542197 1.456 255 255 255
0.287094 -0.201352 0.779 255 255 255
0.444508 -0.27546 0.906 255 255 255
0.253046 -0.167136 0.843 255 255 255
0.158871 0.201754 0.541 255 255 255
-0.476513 -0.424531 1.612 255 255 255
-0.529758 -0.260601 1.763 255 255 255
-0.0994036 0.323966 1.283 255 255 255
0.34784 -0.0231092 0.754 255 255 255
0.0027534 -0.384017 1.205 255 255 255
0.318555 -0.0911785 0.791 255 255 255
0.0267242 0.150652 0.578 255 255 255
-0.533226 0.0615624 1.633 255 255 255
0.182261 -0.0750481 0.642 255 255 255
0.203696 -0.368092 1.048 255 255 255
-0.2232 0.310344 1.176 255 255 255
0.208929 -0.346658 1.066 255 255 255
-0.251914 0.411066 1.185 255 255 255
0.369447 -0.306488 0.952 255 255 255
-0.535022 -0.376605 1.655 255 255 255
0.167262 -0.329045 1.112 255 255 255
0.0233337 -0.310584 1.257 255 255 255
-0.184351 0.317347 1.21 255 255 255
-0.105599 -0.393427 1.308 255 255 255
-0.415769 0.196336 1.524 255 255 255
-0.718873 0.194902 1.494 255 255 255
-0.240843 -0.293167 1.516 255 255 255
0.0950462 -0.215205 1.286 255 255 255
-0.602073 -0.301053 1.799 255 255 255
0.025349 0.105906 0.613 255 255 255
0.0776815 0.127306 0.601 255 255 255
