ply
format ascii 1.0
comment Created by Open3D
element vertex 1346
property double x
property double y
property double z
property uchar red
property uchar green
property uchar blue
end_header
0.618909 0.220848 1.575 121 113 99
-0.32806 -0.662444 2.44 126 112 104
-0.317937 0.106928 0.95 181 172 175
0.579238 0.29224 1.724 119 105 97
0.610159 -0.206363 1.366 101 99 89
-0.648035 -0.663844 2.32 102 98 89
0.296776 -0.0274717 1.911 46 15 6
-0.661679 -0.427008 2.411 103 88 78
0.15239 0.542488 1.753 122 113 106
-0.132728 -0.290669 2.755 97 86 79
0.148556 -0.0125402 2.01 42 9 12
-0.287749 -0.634157 2.469 123 108 107
-0.390868 0.511438 1.784 106 92 86
-0.640564 -0.393444 1.729 183 178 176
0.513729 -0.465878 1.769 108 99 102
0.13776 0.153561 2.044 26 13 17
-0.352268 0.0970559 0.85 209 208 210
-0.239983 0.26678 2.181 19 16 13
-0.494256 -0.339645 2.582 97 87 75
0.566471 0.417495 1.686 144 137 127
0.626686 -0.0315846 1.403 130 124 109
-0.385762 -0.487462 2.479 118 105 92
-0.184315 -0.873267 2.43 131 115 108
0.0893241 0.61299 1.595 106 99 89
-0.272106 0.198194 0.79 114 109 119
-0.466496 -0.118092 1.348 176 170 172
-0.423398 0.0318981 0.972 207 202 210
0.57655 -0.289843 1.607 98 90 78
-0.514456 -0.393159 2.42 102 91 84
0.0444446 0.345297 2.037 163 156 165
0.552748 -0.051674 1.686 121 113 110
0.136343 -0.183969 2.181 58 65 41
-0.379011 0.128618 0.724 199 209 214
0.165383 -0.629094 1.682 70 54 47
0.480528 -0.467195 1.774 24 17 7
0.380115 0.620777 1.595 113 103 89
-0.0664311 -0.875686 2.459 124 113 104
-0.328154 -0.716772 2.383 129 116 105
-0.198347 -0.412073 2.615 106 92 86
0.0945168 0.605204 1.595 105 96 89
0.0659802 -0.651259 2.329 43 12 1
-0.0826202 0.326117 2.151 16 16 12
0.424141 0.565246 1.744 119 111 99
0.0113637 0.340995 2.051 152 140 151
0.373222 0.598363 1.633 124 115 106
-0.420944 0.018171 1 204 203 207
-0.273531 -0.881633 2.347 128 121 111
0.21373 -0.594822 1.633 57 22 7
0.580443 -0.566659 1.502 143 141 133
-0.357639 -0.0728686 2.66 76 62 54
-0.340574 0.130019 1.092 128 118 118
0.620464 -0.218299 1.244 187 188 179
0.180341 -0.0784049 1.865 42 11 0
0.197531 -0.253566 1.774 41 12 0
-0.24517 0.564817 1.7 107 98 93
-0.0693168 -0.901179 2.42 121 111 99
-0.0995975 -0.518317 2.593 105 94 85
0.475733 0.604144 1.62 117 110 100
0.525657 -0.448604 1.714 128 121 115
-0.0965315 -0.901751 2.411 125 112 99
-0.522055 0.413261 1.997 96 88 76
0.581555 0.531465 1.682 127 120 112
-0.439856 0.0300356 0.963 210 206 211
-0.328206 0.101389 0.914 175 172 169
-0.279478 0.0776121 2.365 90 42 38
-0.482086 -0.820132 2.303 138 127 122
-0.637044 -0.19035 1.26 3 103 96
-0.506547 -0.208991 1.65 147 137 135
-0.577536 -0.220666 1.372 3 107 119
0.405169 0.282825 2.017 84 73 66
0.31116 -0.0620671 1.923 44 15 3
0.444236 -0.384556 1.779 49 19 1
0.616645 0.0552667 1.466 128 122 109
0.602471 0.256659 1.559 118 109 102
-0.394385 0.0281305 1.007 200 199 199
-0.177345 -0.580862 2.499 116 100 97
-0.499278 0.412681 2.01 94 85 76
0.089792 0.504231 1.876 94 95 86
-0.403455 -0.00856636 1.089 186 185 185
-0.353189 -0.652932 2.449 126 112 104
0.317895 -0.421727 1.753 55 14 0
-0.591617 0.283056 2.143 35 35 29
-0.288427 -0.186736 2.743 88 74 68
0.478553 -0.181547 1.929 27 23 14
-0.258351 0.221807 0.713 141 143 149
0.174269 0.458784 1.865 50 47 44
-0.0977296 -0.334022 2.78 101 88 77
0.591805 -0.0828722 1.551 125 118 110
0.215658 0.389876 1.734 77 69 66
-0.248241 -0.209055 2.743 96 79 79
-0.840132 -0.331515 1.7 106 106 100
0.207265 -0.615329 1.624 54 19 2
0.386987 -0.111437 1.911 42 13 3
0.552773 0.571639 1.729 117 115 103
-0.318703 0.143559 0.766 197 197 201
-0.461389 -0.770664 2.312 134 124 112
0.622705 -0.32845 1.384 121 119 109
-0.275586 0.199243 0.695 182 182 184
-0.683032 -0.267898 1.459 183 183 177
-0.624571 -0.865408 2.236 125 109 114
0.64664 -0.318197 1.305 154 149 145
-0.920847 -0.732185 2.114 88 59 34
-0.192497 0.293144 2.166 10 14 7
-0.506822 -0.54394 2.479 121 107 101
-0.371869 0.042368 0.995 188 188 190
0.606311 0.0450529 1.524 124 116 113
0.630318 -0.139488 1.302 106 102 91
0.536897 0.418756 1.947 121 111 99
0.63373 -0.188786 1.336 106 104 83
0.452063 0.357683 2.051 98 69 44
0.654536 -0.016356 1.283 130 126 115
0.544751 0.51452 1.805 122 115 105
0.00607804 0.0137053 2.66 18 7 0
0.174638 -0.702258 1.972 16 6 4
-0.38332 0.105097 0.786 217 217 221
0.560769 -0.0834565 1.719 124 115 110
0.484532 -0.0762523 1.966 60 61 52
0.564539 0.293463 1.748 115 106 99
0.63373 -0.401849 1.336 138 139 135
0.586464 -0.237673 1.524 103 93 79
-0.0419143 -0.893039 2.43 117 108 99
0.59791 0.00807377 1.567 122 115 105
0.545696 0.0155362 1.848 114 106 94
0.24623 0.586509 1.637 126 118 106
-0.332326 0.258066 1.1 127 126 130
0.551571 -0.0111614 1.789 123 110 99
0.353543 0.429277 1.882 51 42 35
0.186504 0.527374 1.779 106 91 92
-0.57507 -0.286159 1.71 160 152 151
-0.478829 -0.173984 2.684 90 76 72
-0.885229 -0.778041 2.136 131 157 144
-0.238936 -0.705138 2.383 128 114 106
-0.106241 0.570082 1.691 101 94 86
0.645791 0.531423 1.425 113 110 96
0.152167 -0.41344 1.972 96 43 26
0.0795205 0.401077 1.923 35 30 38
0.576303 0.0328454 1.659 121 114 104
0.559042 -0.495424 1.587 139 130 123
0.526025 -0.537673 1.637 137 126 117
-0.337133 0.0924646 0.914 184 180 181
-0.464937 0.0253343 0.963 209 207 214
0.633397 0.15026 1.439 124 116 104
0.6399 -0.0202983 1.412 130 122 110
0.532433 -0.303851 1.7 113 103 91
0.493696 0.416787 2.03 80 75 57
0.572591 0.130176 1.696 118 109 102
-0.376523 0.0643639 0.938 205 201 202
0.49885 -0.232868 1.887 85 78 70
0.361577 0.498125 1.876 138 66 30
0.0642804 -0.752638 2.269 25 8 0
0.228687 0.292897 1.815 130 109 118
0.505192 0.23605 2.01 116 80 59
0.402439 -0.524165 1.724 60 21 1
0.638816 0.128345 1.333 129 120 113
0.616718 -0.212398 1.257 128 117 108
-0.520027 0.230676 2.356 18 17 17
0.634978 0.212448 1.432 118 116 106
0.520957 -0.181394 1.774 123 114 105
0.0560839 0.175812 2.392 49 24 17
-0.288839 -0.850745 2.411 129 122 116
0.0970752 0.454787 1.899 150 144 146
-0.497159 -0.0202397 1.051 161 156 154
0.113484 -0.165583 2.22 28 25 20
0.169767 -0.152342 1.917 41 10 0
0.610531 0.170635 1.516 118 116 106
-1.03256 -0.504903 1.991 134 118 125
-0.625349 -0.284602 2.469 93 82 73
0.0654986 -0.627693 2.312 45 9 0
0.636012 0.0204205 1.369 129 120 113
0.222187 0.34734 1.719 118 109 116
-0.291177 0.207027 0.565 194 191 175
-0.628887 0.223039 2.278 13 13 9
0.615474 -0.418886 1.498 133 134 125
0.171234 0.476994 1.865 83 77 81
-0.65005 -0.818104 2.236 110 108 100
-0.301189 0.566737 1.673 104 95 88
0.450439 -0.460121 1.758 59 19 4
0.163656 0.307245 1.848 123 103 104
0.365205 0.514749 1.848 129 52 4
-0.530122 -0.0849731 1.876 117 106 99
-0.113191 0.605204 1.595 110 101 94
-0.0261402 0.317067 2.114 31 32 23
-0.389482 0.552733 1.714 94 89 85
-0.391454 0.0713685 0.892 214 207 218
0.300805 -0.102354 1.859 48 14 2
-0.472637 -0.0577594 1.081 75 88 85
-0.199385 0.577612 1.642 111 103 100
0.0547659 0.33432 2.051 157 147 157
-0.286775 0.323076 0.91 136 137 126
-0.356202 0.481075 1.893 103 96 90
0.511886 -0.364251 1.724 124 115 108
0.600352 0.37804 1.547 116 108 96
-1.06545 -0.748416 2.121 62 35 11
0.577449 0.447675 1.686 156 148 136
0.638079 0.111241 1.336 125 122 108
-0.32906 0.0968302 0.942 179 173 175
-0.0327043 0.605204 1.595 110 100 98
-0.468797 -0.728653 2.449 133 122 117
-0.443443 -0.0153819 1.07 197 197 197
0.277065 -0.128396 1.842 39 13 0
0.585156 0.324277 1.567 115 112 98
0.602257 -0.00459279 1.539 123 119 108
-0.174868 0.26142 2.166 7 7 1
0.367993 -0.557927 1.682 59 22 6
-0.379203 0.000317162 1.173 170 164 168
0.146534 -0.370322 1.899 66 46 38
-0.133184 0.554346 1.719 106 98 95
0.623892 -0.502759 1.362 127 130 129
0.583206 -0.401928 1.555 136 129 119
-0.557789 -0.716086 2.42 133 120 107
0.443411 0.43276 1.997 86 82 73
-0.636145 -0.22019 2.561 89 78 71
-0.540592 -0.0479672 1.059 120 130 114
0.621284 -0.32127 1.422 169 165 158
-0.727787 -0.72485 2.196 40 23 9
0.362796 -0.607593 1.646 63 24 2
0.0536711 0.363617 2.01 153 142 150
-0.376333 0.0977527 0.821 206 206 206
-0.756091 -0.281853 1.535 176 174 164
0.468612 -0.101173 1.953 21 19 11
0.641739 0.352499 1.396 113 111 99
0.605388 0.12881 1.547 124 116 104
-0.295076 0.161723 0.886 134 129 127
-0.323269 0.269316 1.053 141 137 130
-0.366127 0.0553384 0.967 189 188 188
0.438808 0.496478 1.893 108 99 92
0.146474 -0.698319 1.859 69 49 39
0.247228 -0.192126 1.821 45 15 0
0.235087 -0.0924257 1.842 44 14 7
-0.0542218 0.431787 1.893 89 92 95
-0.392812 0.0892914 0.842 209 209 211
-0.276677 0.108814 2.374 35 4 6
0.589732 -0.0947533 1.539 131 122 113
0.648435 -0.0780068 1.267 135 129 116
-0.367863 0.111193 0.775 218 218 214
0.496583 0.583842 1.691 117 106 97
-0.305002 0.271321 2.189 13 10 5
-0.0870588 0.543786 1.748 108 98 96
0.416344 -0.231063 1.848 42 15 7
0.111507 0.234503 2.114 33 13 5
0.293651 0.371043 1.779 122 112 110
-0.130124 0.0253869 2.53 54 43 34
-1.09615 -0.750333 2.107 61 34 12
0.373682 -0.395023 1.774 52 12 0
0.6387 -0.126786 1.26 107 100 83
-0.597472 -0.586828 2.329 107 98 89
0.265182 -0.320849 1.763 53 16 2
-0.426349 0.115215 2.347 76 44 40
-0.677742 -0.810617 2.196 115 109 96
-0.634816 -0.791758 2.286 115 108 100
-0.02343 -0.468079 2.572 102 89 78
0.654595 0.268651 1.409 118 116 104
0.604893 -0.0484788 1.502 128 121 113
0.531809 -0.524732 1.655 135 125 113
0.610531 0.247113 1.516 120 114 101
0.304051 -0.140386 1.842 39 12 6
-0.599605 -0.359912 2.051 97 87 75
-0.310978 -0.474413 2.561 112 97 98
0.321983 0.569469 1.714 120 116 107
-0.475273 -0.0125781 1.599 109 98 102
0.00559591 -0.561269 2.449 80 61 55
-0.423387 -0.299789 2.638 95 84 77
-0.641826 -0.340587 1.612 181 174 168
0.174073 -0.649066 1.831 17 9 6
0.661004 0.473341 1.384 115 114 99
0.473195 -0.448247 1.779 22 11 2
-0.58785 -0.306741 1.748 159 149 147
-0.52559 -0.00463005 1.004 209 211 217
-0.445451 0.237434 2.347 16 17 11
-0.0525115 -0.516089 2.561 109 95 89
-0.0116554 0.37638 1.991 151 139 137
0.0640538 -0.768381 2.261 27 10 0
-0.0224917 0.125222 2.469 12 7 3
0.0581237 0.121695 2.479 41 16 7
0.518224 -0.203308 1.815 122 113 106
-0.329667 0.226368 2.312 20 16 17
0.616263 0.211921 1.494 119 115 106
-0.346802 0.0411772 2.489 81 33 29
0.584398 0.397932 1.607 117 108 99
-0.262005 0.212597 0.698 189 195 193
-0.502738 -0.860366 2.261 136 127 120
0.580101 0.312128 1.71 117 107 95
-0.623188 -0.368218 1.784 167 156 151
0.468756 0.29093 2.051 104 71 44
0.185673 -0.239574 1.799 54 17 3
0.1439 -0.756723 1.947 98 89 80
-0.0421182 0.570093 1.659 118 105 92
0.564718 0.0813514 1.714 119 111 97
-0.393217 0.110713 0.763 211 216 225
-0.505567 -0.00467155 1.013 205 201 206
0.630645 -0.063251 1.348 130 124 111
0.462079 0.117372 2.051 21 19 9
0.667703 0.327267 1.313 117 118 109
-0.282043 0.173962 0.815 171 162 165
0.130947 0.34398 1.991 24 13 4
-0.200371 0.504265 1.821 108 99 94
0.213449 -0.37874 1.739 46 16 0
-0.0707204 -0.774782 2.469 120 109 104
-0.371328 0.0282281 1.073 174 165 168
0.649589 0.0197492 1.324 134 127 119
-0.315146 0.13069 0.862 183 179 180
0.344258 -0.533467 1.7 54 17 1
0.619957 -0.156072 1.435 125 123 113
-0.0858013 0.206334 2.143 18 19 10
0.197851 -0.0181992 1.917 39 15 1
0.614794 -0.52216 1.473 142 134 131
-0.0500305 0.107868 2.44 39 11 12
0.390079 -0.531037 1.719 60 23 7
-0.31054 0.0805307 2.338 88 40 36
0.649949 -0.0574664 1.316 132 128 117
0.0605387 0.0427158 2.582 51 30 25
-0.578227 -0.299556 1.603 180 175 173
-0.623574 0.000637028 2.356 83 71 55
0.127017 0.154821 2.204 71 62 57
0.473742 -0.153772 1.935 20 21 10
-0.542792 -0.227161 2.593 94 81 70
-0.449898 0.570093 1.659 86 84 74
0.151375 0.228824 2.004 34 14 6
-0.294988 0.344529 0.966 141 137 130
0.615025 0.218774 1.491 124 114 100
-0.656153 -0.523395 1.905 184 177 171
-0.392244 -0.525674 2.469 116 105 98
0.570357 0.459181 1.784 129 122 114
0.513022 0.0785081 1.917 114 103 96
-0.343974 0.110166 0.814 207 201 203
0.556787 -0.100532 1.724 130 117 106
-0.315146 -0.516089 2.561 111 101 99
0.391108 0.323704 1.947 53 34 49
0.502084 -0.136316 1.911 107 98 93
-0.195311 -0.875229 2.469 128 115 104
-0.221057 -0.0429518 2.684 23 8 0
-0.42923 -0.0381076 1.124 154 143 151
-0.338165 0.608239 1.603 97 88 83
0.213158 0.160988 1.972 47 15 9
0.250249 0.439108 1.739 38 39 28
0.183862 -0.18802 1.81 47 12 0
-0.890584 -0.614267 1.978 196 168 79
-0.560898 -0.654725 2.383 118 107 102
-0.439946 -0.0335912 1.096 153 145 142
0.624027 -0.130748 1.439 132 125 115
0.420235 0.255893 2.092 42 13 1
-0.285827 0.205759 0.871 130 124 126
0.632811 -0.260915 1.316 137 133 124
0.554728 -0.482243 1.612 137 128 121
-0.330779 0.186079 2.374 7 7 1
0.322918 -0.467948 1.734 57 17 2
-0.409354 0.0718161 1.416 111 104 98
-0.435911 0.0132491 0.997 208 207 207
0.317743 0.150556 2.004 46 15 4
0.308196 0.277602 1.831 143 133 133
-0.256046 -0.217029 2.731 98 84 80
0.105108 -0.120909 2.196 47 21 10
-0.458249 0.562051 1.7 96 89 83
0.196289 -0.249887 1.789 42 12 0
-0.329409 0.258716 1.073 140 136 137
0.0402042 -0.489994 2.374 18 8 0
0.636446 -0.188708 1.351 103 97 82
0.584248 0.296123 1.714 122 108 91
0.620992 -0.0275768 1.432 131 120 111
0.646303 0.0729643 1.275 130 123 113
0.108337 0.196514 2.189 131 120 111
-0.306155 0.532407 1.748 109 100 93
0.406575 0.165233 2.024 45 16 2
-0.00155981 0.596681 1.607 110 101 92
-0.868655 -0.786383 2.121 120 151 135
-0.0718478 0.324904 2.143 17 18 9
0.645382 0.242848 1.419 119 115 106
0.627883 -0.513475 1.416 160 160 156
0.583634 0.246094 1.696 118 107 98
0.0565757 -0.0372759 2.593 18 9 2
0.635153 -0.0170699 1.339 132 125 115
0.658421 0.371622 1.342 109 115 98
0.425971 0.456777 1.947 102 88 80
0.526429 0.461819 1.865 125 115 101
-0.224909 0.393051 2.044 98 86 84
0.663672 0.256366 1.322 120 117 103
-0.328408 0.151131 0.719 196 195 195
0.293685 0.478974 1.815 37 23 15
-0.407526 0.459098 1.917 109 100 93
0.52883 -0.138786 1.821 124 113 104
-0.405293 -0.0200808 1.139 177 171 173
0.597076 -0.241781 1.459 103 96 75
-0.473762 -0.756561 2.374 136 123 112
0.366364 0.596537 1.65 119 110 103
0.547769 -0.576533 1.555 140 130 128
0.302749 -0.516868 1.7 61 25 4
-0.184315 -0.877222 2.43 129 113 106
-0.308139 0.137449 0.958 116 107 110
-0.794447 -0.688969 2.173 54 53 53
-0.00668318 -0.329958 2.572 85 71 67
0.547259 -0.430301 1.686 131 122 113
0.494802 0.532144 1.805 124 118 105
-0.0257752 0.459122 1.842 144 139 135
-0.370715 0.615556 1.575 92 95 96
0.597296 -0.128213 1.52 129 125 118
0.615081 0.113367 1.509 124 117 107
-0.0618708 -0.473903 2.604 105 91 83
-0.408808 0.134827 2.356 40 25 24
-0.0506645 -0.31812 2.684 35 29 35
-0.548986 -0.255981 1.899 112 100 100
-0.221732 -0.884546 2.365 127 117 105
0.588753 -0.268256 1.543 98 90 78
0.143421 0.0479078 2.236 26 22 23
-0.397741 0.0121981 1.046 193 190 187
0.553662 -0.180978 1.664 133 122 113
0.603823 0.125966 1.543 120 117 103
-0.831321 -0.663369 2.071 153 116 113
-0.0110516 -0.263132 2.615 73 59 55
0.431274 -0.208302 1.887 46 16 0
-0.380441 0.282352 2.278 82 73 66
0.639543 0.0739474 1.33 129 123 108
-0.359005 0.0850006 0.898 204 200 201
0.58486 0.453753 1.668 150 151 140
-0.486111 0.484676 1.848 86 84 72
0.515664 0.158747 1.87 111 102 93
0.610425 0.284893 1.547 118 111 103
0.619549 -0.144139 1.456 135 124 115
-0.560511 0.104553 2.365 46 35 26
-0.275642 0.519667 1.753 112 103 94
-0.159635 -0.115821 2.755 87 71 64
0.58665 -0.204098 1.571 132 125 115
-0.0775375 -0.0785613 2.707 83 72 67
-0.697307 -0.50169 1.826 190 186 179
0.643961 0.493217 1.463 112 111 96
-0.190517 -0.751636 2.459 122 113 108
0.365205 -0.191968 1.848 46 16 0
-0.444949 -0.0641712 1.201 181 172 175
-0.156854 -0.351682 2.707 102 91 86
-0.464677 0.0571076 0.896 214 217 218
0.632348 -0.406858 1.324 166 159 149
0.22055 0.287939 1.821 145 134 138
-0.289684 0.172063 0.749 186 182 183
-0.659318 -0.50465 1.87 186 181 177
-0.307508 0.301797 1.007 116 110 112
-0.0431045 -0.86553 2.499 120 109 104
0.619287 -0.466024 1.333 118 118 122
0.211657 0.287939 1.821 142 131 137
0.44241 0.583126 1.705 115 113 101
0.66831 0.460823 1.31 110 112 96
0.0631504 -0.291857 2.365 56 68 82
-0.324686 0.154543 0.668 212 214 220
0.547123 -0.532687 1.575 136 130 117
0.474957 -0.647508 1.673 36 17 11
0.579161 0.17107 1.691 118 109 102
0.6208 0.206134 1.505 121 112 103
0.112296 -0.26524 2.269 55 36 23
0.577607 -0.06419 1.655 124 115 108
-0.465447 -0.674188 2.411 128 114 108
0.559747 -0.233157 1.65 133 119 111
0.348693 0.528902 1.794 102 95 89
0.442581 0.540469 1.784 122 115 105
-0.273537 0.222494 0.621 188 191 192
0.168112 -0.595433 1.831 13 11 3
-0.553646 -0.0966393 1.124 0 147 138
-0.81952 -0.460121 1.769 191 191 187
0.00976806 0.539845 1.763 109 102 92
0.238506 0.610848 1.603 113 109 100
0.112552 0.369196 1.953 24 25 19
-0.407926 0.3793 2.078 78 70 58
-0.515 -0.376449 2.519 99 85 77
0.0914713 -0.506953 2.212 47 30 16
-0.568004 -0.159213 1.257 96 115 62
-0.0520809 -0.553191 2.54 111 97 91
0.342597 0.560853 1.748 120 117 101
-0.341287 0.0797592 0.977 179 175 176
0.617537 -0.00450327 1.509 127 120 110
0.624628 0.0447571 1.435 128 119 110
0.508426 0.312518 1.997 76 55 50
0.664313 0.268662 1.319 118 114 105
-0.297227 0.228339 2.294 13 14 10
-0.393648 0.371642 2.092 58 55 50
-0.118883 0.48939 1.799 58 61 60
0.255911 -0.409869 1.739 55 18 4
0.5251 0.015822 1.882 114 104 92
-0.181413 -0.548328 2.499 114 99 98
0.652312 0.279794 1.419 118 113 91
-0.606734 -0.395621 2.411 101 85 82
0.581118 -0.386192 1.563 166 160 147
-0.511068 -0.356452 2.582 94 78 71
-0.686281 -0.719332 2.212 41 27 8
0.637309 0.405865 1.432 114 110 99
-0.282643 0.183698 0.737 192 191 198
-0.164822 0.515427 1.758 104 95 90
-0.408133 0.613993 1.571 96 95 80
-0.436852 0.0813589 0.845 214 217 220
-0.429866 0.480029 1.865 101 94 88
0.614783 -0.450386 1.539 139 132 124
-0.318581 0.111556 0.912 181 180 180
-0.411446 -0.0818938 2.672 50 31 25
-0.0242317 -0.0771973 2.66 80 66 60
-0.645451 -0.65758 2.338 109 101 89
-0.440236 0.508534 1.784 97 90 84
0.387241 -0.170999 1.882 44 14 7
-0.258511 0.265206 0.747 126 127 123
0.446662 0.42951 1.997 81 77 66
0.653488 0.336522 1.359 113 114 101
0.202096 0.331294 1.815 119 105 116
0.39172 -0.605529 1.655 60 22 0
0.494168 0.158457 1.941 105 97 85
0.0586236 -0.558658 2.338 41 17 1
0.606279 -0.243868 1.305 186 184 172
-0.351588 -0.0163148 2.615 82 39 32
-0.478404 -0.122067 1.297 154 144 142
0.126575 -0.583386 2.136 29 21 20
0.601209 0.274337 1.603 117 111 98
-0.341128 -0.672767 2.42 127 113 105
-0.0818292 0.614042 1.591 104 95 86
0.24248 -0.063603 1.876 43 12 1
-0.46516 -0.738817 2.43 136 120 113
0.622017 -0.49261 1.429 132 124 121
-0.0937208 -0.876861 2.44 124 113 104
-0.23242 -0.604452 2.479 112 103 98
0.164523 0.59509 1.646 120 117 103
0.579319 0.0057705 1.637 122 116 103
0.507593 0.583842 1.691 123 115 103
-0.395818 -0.0997325 2.684 37 28 23
0.549562 -0.184127 1.668 130 119 110
-0.346617 0.159239 0.656 211 216 225
-0.39975 -0.00146414 1.079 187 186 188
-0.539967 0.0337541 2.54 38 24 16
-0.316318 0.248924 2.244 91 91 85
0.083 0.0820096 2.499 47 34 23
0.270922 0.545583 1.763 117 110 102
-0.564119 -0.280811 1.543 159 150 153
-0.467623 -0.118202 1.194 181 181 177
0.601495 -0.182041 1.419 107 101 86
0.437516 0.0489904 1.985 32 12 4
0.633972 0.177864 1.435 121 117 108
-0.327751 0.149335 0.705 178 174 175
0.202096 -0.206261 1.815 36 12 0
0.617537 0.182125 1.509 121 112 105
0.566618 -0.557599 1.524 142 131 122
0.528169 0.431787 1.893 118 111 101
-0.11299 0.528225 1.753 103 96 86
-0.515947 -0.191886 1.477 169 164 160
-1.02394 -0.775127 2.128 59 31 14
-0.330437 0.10771 0.869 190 189 191
-0.420455 0.306734 2.294 69 60 55
0.63544 0.000391789 1.449 130 124 111
0.572955 0.447598 1.739 144 137 131
0.513094 0.0884169 1.929 112 101 94
-0.0534198 0.44968 1.865 137 131 133
-0.357871 0.0526956 1.039 175 169 173
0.597477 0.580991 1.607 125 120 102
0.607208 0.506724 1.612 148 137 130
0.580862 0.255816 1.763 114 105 96
0.624628 0.329654 1.435 118 111 101
0.203172 -0.360788 1.748 49 17 0
-0.933609 -0.654721 2.044 134 111 61
-0.415035 0.485987 1.853 101 92 95
0.640268 -0.0994594 1.305 134 131 117
0.382509 -0.196136 1.859 47 14 0
-0.376152 -0.35989 2.638 109 93 90
0.499088 -0.56025 1.758 60 53 32
-0.917798 -0.719474 2.107 129 104 70
-0.0359597 0.415923 1.905 37 31 35
0.29271 -0.421189 1.739 52 16 0
-0.0724085 -0.925785 2.392 127 112 102
-0.41509 0.0950806 0.821 217 222 229
0.597126 0.302388 1.642 117 110 104
-0.190011 0.110097 2.402 19 15 8
-0.331937 0.237327 1.087 135 135 135
0.591295 -0.177623 1.563 139 125 117
0.547745 -0.0547404 1.696 121 112 105
-0.231148 -0.530107 2.509 114 103 98
-0.362819 0.0241681 1.128 171 167 168
-0.31366 0.154843 0.731 198 197 201
-0.620817 -0.288028 1.528 188 179 172
0.143896 0.453124 1.905 152 148 149
-0.171342 0.233222 2.166 8 9 3
0.0823991 -0.3111 2.365 46 46 42
0.654065 -0.303294 1.278 143 140 137
0.643873 -0.101365 1.33 137 132 114
0.235491 0.377011 1.714 107 96 91
-0.29848 0.260712 2.22 22 14 11
-0.114343 0.502797 1.774 39 46 50
-0.193616 -0.552395 2.499 116 99 99
0.456137 -0.431333 1.769 52 15 0
-0.0690292 -0.114307 2.719 88 75 64
0.654052 -0.0826244 1.342 137 128 121
-0.633809 -0.269184 1.466 184 182 172
-0.260593 0.235715 0.746 123 119 112
0.582244 0.481823 1.7 131 121 109
0.644302 0.443151 1.432 112 114 98
0.56948 -0.473998 1.559 134 128 115
0.662437 0.505967 1.387 112 110 102
0.577096 0.510782 1.677 127 122 102
0.00174085 0.048135 2.649 28 14 8
0.598036 -0.538246 1.491 148 137 132
0.652587 0.246052 1.348 118 116 106
-0.6087 -0.400094 1.81 167 164 161
-0.326915 -0.8261 2.374 133 122 115
-0.170709 0.24992 2.158 6 7 1
-0.0639645 0.552306 1.739 116 105 98
-0.322609 -0.659599 2.459 128 113 103
0.56284 0.533787 1.734 125 118 112
-0.292498 0.20666 0.564 196 195 169
-0.341707 0.225369 1.182 121 115 117
-0.646165 -0.239707 1.366 112 134 144
0.149626 -0.0736537 1.899 34 12 2
0.347806 0.264316 1.953 126 122 111
-0.452246 -0.0842118 1.237 181 173 170
-0.401386 0.597417 1.595 97 92 88
-0.602717 0.280007 2.32 75 71 60
-0.274881 -0.731156 2.392 129 115 109
0.273348 0.561569 1.724 115 106 97
-0.637158 -0.0917406 2.582 80 80 76
-0.612895 -0.378427 1.805 182 171 164
0.282068 0.527374 1.779 103 96 86
-0.196266 -0.879644 2.383 127 118 101
-0.318441 0.0411772 2.489 80 34 30
-0.261445 -0.12207 2.695 39 31 28
0.640986 0.0133758 1.333 129 125 114
0.528048 -0.482431 1.686 133 122 113
-0.27871 0.463881 1.911 118 106 106
0.373431 -0.184035 1.859 47 11 0
-0.0258592 0.45761 1.848 143 138 136
-0.183254 -0.742639 2.469 123 112 107
-0.872107 -0.803641 2.121 127 156 134
0.169236 -0.139425 1.911 49 13 5
0.636646 -0.331532 1.333 152 152 146
-0.473245 -0.14206 1.435 169 159 159
-0.273328 0.502627 1.794 107 97 95
0.160127 0.333225 1.842 117 73 73
-0.221634 0.0365301 2.449 54 18 22
-0.62992 -0.245523 2.44 90 76 72
-0.386141 0.544736 1.724 104 100 91
-0.542343 -0.387209 1.953 133 119 115
-0.827935 -0.735625 2.114 117 137 118
0.152357 -0.432721 2.017 107 69 42
0.590771 0.0578228 1.603 125 115 101
-0.477221 -0.736964 2.411 137 121 114
-0.0658303 0.00492077 2.593 88 66 56
-0.283328 -0.67672 2.365 131 115 112
0.0753441 0.545341 1.753 110 99 90
0.601934 -0.179328 1.513 132 124 112
-0.267891 0.230352 0.615 185 188 189
0.64828 0.237525 1.362 122 119 105
0.10047 -0.745548 2.173 20 9 0
0.358231 -0.428455 1.769 53 18 1
-0.243739 0.362988 2.121 128 117 112
0.597106 0.598915 1.599 121 117 106
0.319804 0.112144 2.017 47 19 2
0.638456 -0.110499 1.31 126 123 107
-0.47539 0.513961 1.753 92 85 77
-0.600564 -0.578295 2.356 109 98 93
-0.546069 0.147868 2.32 83 54 40
0.581984 0.136303 1.637 123 113 101
0.204714 0.587055 1.646 121 117 108
-0.246202 -0.379619 2.626 109 94 93
-0.0467948 -0.681101 2.479 117 101 96
-0.175768 0.519667 1.753 104 102 94
-0.290961 -0.056055 2.684 42 40 32
-0.854845 -0.786383 2.121 120 157 144
0.648573 0.232571 1.372 118 114 105
-0.30767 0.452859 1.917 109 98 102
-0.433344 0.601702 1.579 92 88 81
-0.623261 -0.309093 1.559 185 182 177
0.536839 0.00655305 1.859 116 106 94
-0.207268 0.27641 2.173 17 10 4
-0.781914 -0.862311 2.228 44 40 29
-0.785061 -0.53365 1.865 183 174 167
0.15909 0.483064 1.865 87 76 80
0.167635 -0.384879 1.794 41 11 4
-0.452507 0.577782 1.62 84 80 71
-0.548227 -0.596459 2.43 122 113 108
0.420575 0.193476 2.044 37 16 0
-0.610326 0.0302388 2.593 35 24 15
-0.563896 -0.227161 2.593 92 81 72
-0.356479 0.466991 1.911 102 93 88
0.521356 -0.475606 1.691 131 120 115
0.612877 0.559889 1.528 119 121 110
-0.800085 -0.565893 1.923 170 155 145
-0.55924 0.147358 2.312 46 43 40
0.179271 -0.464254 1.71 58 21 7
-0.12268 -0.248139 2.731 100 86 78
-0.284885 0.183493 0.704 181 184 185
-0.323497 0.47828 1.882 105 95 93
-0.589467 0.159387 2.269 73 68 64
-0.247415 0.256574 0.662 111 111 111
0.0685583 -0.326211 2.42 24 8 1
0.289478 -0.261532 1.789 52 17 0
-0.115831 -0.34307 2.78 104 90 82
0.631523 -0.429124 1.419 129 124 120
0.047933 -0.582713 2.374 35 9 0
0.0239804 0.545341 1.753 97 90 80
-0.922612 -0.384556 1.779 172 171 173
0.200927 0.229074 1.978 93 83 81
-0.391965 -0.877814 2.347 132 123 116
-0.0691867 0.0382008 2.561 106 18 19
0.332134 -0.154279 1.865 43 12 1
0.63143 -0.047789 1.345 129 126 112
0.573656 0.3692 1.691 116 108 96
0.42513 -0.205231 1.887 53 17 5
-0.377743 0.133193 1.237 113 107 111
-0.714319 -0.799543 2.166 46 25 12
-0.326915 -0.872459 2.374 134 121 110
0.483314 0.163427 2.085 64 57 47
0.536702 -0.162378 1.696 125 118 112
-1.08258 -0.752826 2.114 61 32 9
-0.752183 -0.447401 1.753 197 194 191
0.577125 -0.113204 1.587 127 120 114
-0.454502 -0.0898784 1.26 179 170 165
0.136412 0.214639 2.024 29 14 4
-0.131296 0.154821 2.204 13 15 6
-0.748321 -0.428076 1.744 192 187 185
0.242622 -0.485175 1.686 57 17 2
0.151607 0.55957 1.744 123 116 110
0.0885765 0.586293 1.629 108 99 90
-0.295131 0.195534 0.58 200 211 220
-0.365225 0.0895319 0.871 204 203 203
0.306399 0.527289 1.769 114 107 97
0.496458 0.584182 1.7 119 108 101
-0.560597 -0.123759 1.173 148 173 166
-0.515625 -0.209811 1.595 159 147 147
0.575325 -0.166172 1.575 130 123 113
0.473204 -0.61225 1.696 33 14 12
0.613831 0.0563222 1.494 123 116 106
0.525836 0.321524 1.953 112 103 94
-0.466035 0.352803 2.143 92 85 79
0.619539 -0.361326 1.372 155 153 145
0.483314 0.170213 2.085 68 62 47
0.634892 -0.107157 1.406 134 127 117
0.17948 0.555135 1.739 125 116 107
-0.433517 0.0912943 0.823 220 218 234
-1.09635 -0.618659 2.114 66 42 15
-0.200919 -0.254768 2.707 101 87 79
-0.416479 0.146329 2.356 40 37 34
0.363174 0.609031 1.612 122 118 107
0.393814 0.563698 1.748 123 114 105
-0.395581 -0.00726835 1.165 168 164 167
0.560769 0.053615 1.719 117 110 100
0.636247 0.128784 1.409 125 124 109
-0.432188 0.325741 2.22 95 84 77
0.530486 -0.0622808 1.837 116 107 100
-0.363602 -0.264519 2.672 95 80 70
0.298522 0.610848 1.603 117 110 102
0.588537 0.595705 1.633 119 111 99
-0.182507 0.283482 2.173 7 11 4
0.643293 -0.240511 1.265 136 129 121
0.311901 0.363377 1.784 102 90 90
0.58263 -0.0255246 1.595 126 118 106
-0.562116 -0.210419 1.378 42 112 95
-0.572595 -0.126632 1.182 181 189 188
-0.461449 -0.0832258 1.092 192 189 186
0.221156 -0.216426 1.826 44 15 1
-0.372762 0.0467589 1.189 139 131 128
-0.460015 0.40941 2.01 98 87 80
0.634191 -0.155267 1.31 104 103 86
0.617 0.0893747 1.439 124 118 105
-0.452222 -0.111702 1.435 157 154 151
0.600391 -0.253025 1.354 124 115 118
0.582504 0.118303 1.646 121 112 103
-0.299699 -0.0691583 2.684 28 21 13
-0.251419 0.248589 0.697 116 119 118
-0.788386 -0.667775 2.128 57 54 40
0.455759 0.602993 1.624 121 114 104
-0.289787 0.199826 0.639 195 195 195
-0.309925 -0.735049 2.392 128 114 106
-0.586229 -0.559206 2.44 114 95 89
0.649524 0.42961 1.403 112 114 103
-0.109433 0.475812 1.837 139 135 138
0.265101 0.584878 1.655 122 118 107
-0.316973 0.17268 0.631 225 219 225
-0.327017 0.126673 2.347 59 22 17
-0.365262 0.338966 2.166 90 81 74
0.1507 -0.326879 2.236 25 20 0
0.532367 -0.296739 1.691 106 95 88
0.280603 -0.228312 1.826 47 14 0
0.631717 -0.30818 1.384 161 162 149
-0.433385 -0.0266018 1.102 148 145 129
0.395752 0.565246 1.744 121 114 104
-0.386124 0.114315 0.754 206 214 215
-0.462312 0.00354267 1.005 209 208 210
0.283102 -0.598329 1.65 64 25 5
-0.749353 -0.519659 1.837 186 182 171
0.0472062 0.20989 2.338 29 15 9
-0.577291 -0.801995 2.294 130 126 119
-0.468374 0.241253 2.347 18 18 14
0.610488 -0.341599 1.48 166 162 153
-0.434745 0.452211 1.941 98 89 82
0.0967685 0.477995 1.893 157 150 159
-0.62867 -0.596944 2.212 106 95 86
0.560769 0.397692 1.719 122 117 99
-0.647922 -0.630651 2.204 101 94 88
0.327854 -0.596194 1.659 61 21 6
-0.362056 0.139404 0.707 211 212 225
0.121224 -0.760864 1.991 62 48 42
0.638241 0.0872549 1.369 127 120 112
0.384352 0.461972 1.929 101 101 79
0.220253 0.590972 1.642 121 114 104
0.640986 -0.0430242 1.333 129 127 115
-0.299708 0.298114 2.151 17 19 8
-0.633512 -0.480669 1.848 190 185 183
0.643961 0.497979 1.463 114 110 99
0.398645 0.207489 2.051 39 15 1
0.258301 -0.618308 1.646 62 23 1
0.261361 -0.169899 1.837 44 15 3
0.14706 -0.250466 2.236 29 32 14
0.64901 0.133321 1.297 124 117 107
0.603282 -0.48958 1.498 141 137 130
0.614826 -0.218728 1.27 126 116 116
0.525504 0.246966 1.917 114 105 88
-0.436131 0.171843 2.338 43 35 34
-0.521348 -0.0181422 1.911 85 78 72
-0.419848 -0.0120217 1.081 198 197 197
-0.640216 -0.405841 2.449 100 89 84
-0.12003 -0.451493 2.672 107 93 87
-0.563794 -0.304326 2.499 97 86 79
0.598036 -0.574641 1.491 140 136 127
0.624635 -0.0723462 1.354 128 124 115
-0.317232 0.134669 0.81 188 188 188
-0.489492 0.0114751 0.984 205 207 213
-0.427134 -0.0373758 1.158 182 174 173
-0.663684 -0.622757 2.128 49 43 30
0.522928 -0.607372 1.603 135 127 115
0.123376 -0.283702 2.269 23 20 4
0.221303 -0.394581 1.734 53 16 2
-0.39607 0.0814983 0.861 211 210 210
-0.0393575 0.336469 2.085 104 103 105
-0.486152 -0.0642565 1.072 18 117 115
0.603012 0.556329 1.567 124 123 108
-1.03098 -0.712617 2.107 83 38 25
0.518796 -0.536632 1.719 125 114 109
0.476091 -0.451142 1.779 24 13 4
-0.397367 0.54193 1.724 103 96 90
0.10919 -0.468679 2.136 36 28 25
0.0881479 -0.0569559 2.53 18 18 12
0.537436 -0.230918 1.734 129 120 113
-0.498815 -0.180373 1.543 155 151 152
0.268617 0.319065 1.748 135 124 130
0.575701 -0.289267 1.459 97 85 69
-0.773491 -0.73825 2.204 44 37 20
0.524831 -0.595644 1.65 132 124 110
-0.00734944 0.552306 1.739 110 100 86
0.314352 -0.617792 1.659 61 20 10
-0.329268 -0.560076 2.479 118 107 100
0.604429 0.580936 1.551 117 122 112
-0.506631 -0.202055 1.616 153 140 144
-0.443243 -0.583031 2.44 125 114 105
0.611655 -0.396189 1.477 161 156 152
-0.249327 -0.174103 2.755 87 71 66
0.651985 0.0232225 1.278 132 125 115
0.549206 0.115363 1.81 115 106 99
0.443451 -0.455959 1.753 54 19 2
0.621624 -0.232644 1.267 190 191 182
-0.489413 0.251742 2.338 44 45 36
-0.31157 0.239248 0.999 122 117 115
-0.220823 0.398335 2.037 93 89 90
-0.141297 -0.538273 2.509 113 99 93
-0.443189 -0.0814822 1.257 181 173 170
0.323964 -0.114086 1.853 42 11 0
0.639238 0.105292 1.316 131 120 111
0.122724 0.307248 2.071 37 18 3
0.524796 -0.00558059 1.87 114 105 96
-0.0110516 -0.190789 2.615 62 48 44
-0.344995 0.0779292 0.974 175 175 171
0.55637 -0.237843 1.664 133 123 111
-0.777442 -0.847214 2.236 41 26 27
-0.0984533 -0.827667 2.459 123 109 103
-0.497845 0.0296613 0.951 209 215 217
-0.673384 -0.740795 2.278 106 96 84
0.590301 0.0451429 1.616 123 115 103
0.0770685 0.241775 2.212 43 18 11
0.311099 0.539845 1.763 115 110 106
0.507889 -0.462412 1.789 82 80 72
0.278738 0.315168 1.758 133 132 134
0.279715 0.0517208 1.966 45 15 8
-0.18555 0.501301 1.821 110 101 94
0.397108 -0.621688 1.655 63 19 0
0.667976 0.368235 1.322 113 114 101
0.328161 -0.216426 1.826 46 16 0
-0.293352 0.248037 2.236 22 17 13
0.503647 0.0668564 1.941 112 98 92
0.66516 0.168509 1.308 128 120 108
-0.387271 0.162282 2.365 59 51 48
-0.27408 0.272075 0.827 170 169 169
-1.04162 -0.763154 2.143 62 28 16
-0.614209 -0.286907 2.489 92 81 72
0.0745306 -0.488724 2.244 59 46 33
-0.458006 -0.233343 2.615 93 79 71
0.21085 0.323637 1.789 120 114 116
-0.349396 0.0546481 1.044 171 165 169
-0.64641 -0.814466 2.236 111 107 98
0.437744 -0.487339 1.753 58 23 6
-0.543136 -0.0918229 1.11 2 149 137
-0.501409 -0.161419 1.291 179 175 176
-0.363958 -0.17107 2.707 86 75 66
-0.123219 -0.222446 2.743 96 85 78
-0.380337 0.0210654 1.064 181 181 177
-0.341954 0.130098 0.746 185 177 176
-0.434127 -0.0512737 1.132 149 142 136
-0.445824 0.0516573 2.411 77 33 31
-0.145976 0.558155 1.705 101 96 92
-0.641714 -0.194346 2.55 92 78 72
0.595967 -0.521271 1.498 138 131 121
-0.161558 0.436559 1.887 24 29 19
-0.322734 0.153509 0.673 208 208 208
0.230635 0.583592 1.659 115 113 103
0.0351152 0.254471 2.294 20 17 14
-0.454604 -0.800108 2.278 135 124 119
0.329997 0.43774 1.853 55 64 57
0.530556 -0.523425 1.668 131 123 109
0.560644 -0.571495 1.528 139 131 119
0.640588 0.128262 1.31 126 122 111
-0.343612 0.138661 2.356 28 11 13
0.594118 0.61922 1.591 119 121 112
0.365257 -0.459483 1.734 54 18 0
0.263834 0.582643 1.664 122 113 104
0.0770685 -0.102578 2.44 26 18 17
0.507631 -0.406301 1.748 116 107 98
0.0948295 0.548217 1.744 111 100 91
0.616655 -0.478626 1.422 133 129 130
-1.01296 -0.552244 2.01 149 109 53
0.561364 -0.449245 1.579 139 133 120
-0.631152 -0.140284 1.217 58 111 115
0.463956 0.357324 2.03 69 40 30
0.523042 0.513126 1.853 118 111 103
0.494299 -0.180418 1.917 74 68 53
-0.300211 0.162644 0.924 125 116 119
-0.574314 -0.602884 2.44 119 109 107
-0.648035 -0.754453 2.32 110 104 91
0.377105 -0.398312 1.763 51 14 0
-0.0785671 0.268228 2.136 10 10 6
0.505017 0.557965 1.739 118 111 103
0.596033 -0.240444 1.48 108 96 78
-1.10224 -0.771395 2.099 59 31 14
0.102065 0.425622 1.935 96 89 83
0.560017 0.183885 1.734 121 110 103
-0.626756 -0.339531 1.607 184 177 171
-0.313509 0.180904 1 114 109 107
0.234357 0.0697986 1.935 47 13 3
-0.22298 0.0170103 2.509 101 52 51
0.343568 0.263504 1.947 120 116 105
-0.373656 -0.531837 2.479 121 107 103
0.619342 -0.158848 1.439 128 121 113
-0.589967 0.289415 2.064 71 60 55
-0.0185475 -0.749681 2.479 118 104 98
-0.584405 -0.56924 2.449 116 101 91
-0.338456 0.135256 0.741 188 187 189
-0.0196237 0.620246 1.587 109 102 92
-0.217381 -0.87884 2.402 130 119 112
0.503647 0.0636977 1.941 110 99 90
-0.411182 -0.361007 2.615 98 85 72
0.637798 0.502646 1.449 110 111 102
0.615684 0.54247 1.535 119 115 104
-0.528376 -0.160226 1.265 179 180 176
0.612999 0.121294 1.516 121 117 108
0.61657 -0.11515 1.449 135 128 122
-0.478575 -0.414847 2.479 104 90 84
-0.289347 0.205912 0.629 191 197 199
0.0703724 0.261652 2.228 22 13 4
-0.251166 0.250612 0.687 112 112 114
-0.286657 0.171205 0.767 194 193 193
0.54294 0.0619653 1.799 117 108 99
0.227497 0.571768 1.696 113 106 100
0.262312 0.405003 1.763 80 71 64
0.3583 0.375628 1.859 93 84 79
0.0899335 0.566478 1.705 102 93 88
0.474088 0.47943 1.911 100 97 83
0.0787407 0.621809 1.591 110 101 94
0.600343 -0.485809 1.509 162 157 155
-0.034409 -0.799655 2.459 119 106 95
0.147742 0.123624 2.044 33 19 11
-0.417102 0.236523 2.338 9 16 8
-0.302761 0.197836 0.573 203 215 219
0.263013 -0.0847013 1.87 45 12 0
0.665753 0.520257 1.348 110 112 103
0.57476 0.22985 1.719 116 108 96
-0.39175 0.000299046 1.106 183 180 177
0.617132 -0.219221 1.31 94 87 66
0.614554 0.0390405 1.484 126 119 102
-0.289448 0.208318 0.627 189 197 196
-0.540949 -0.497549 2.469 116 106 104
-0.474299 0.327116 2.181 92 89 75
0.091128 -0.454817 2.294 20 9 2
0.122724 -0.0601036 2.071 84 59 39
-0.385582 0.12051 0.732 160 165 170
0.616587 -0.49756 1.291 121 117 120
0.171621 0.606408 1.612 116 109 101
0.128587 0.530269 1.779 121 114 108
-0.282883 0.204434 0.647 192 195 198
0.0374879 -0.318164 2.449 22 7 0
-0.367595 0.495092 1.842 104 97 89
0.645382 0.420654 1.419 114 113 96
0.531237 -0.314721 1.714 124 117 111
-1.0104 -0.774565 2.136 58 34 9
0.58884 0.0502777 1.612 120 117 103
-0.61194 -0.20939 2.582 86 77 72
-0.434686 -0.463521 2.459 115 106 99
-0.259802 0.234998 0.622 183 186 189
0.23363 -0.0120349 1.929 45 14 5
-0.494256 -0.343846 2.582 97 87 75
0.259273 0.252407 1.865 155 140 141
-0.460505 0.0562085 0.905 212 207 215
-0.504675 -0.385915 2.449 103 87 80
0.6306 0.504928 1.505 119 112 93
0.370492 -0.525442 1.719 61 25 4
-0.524821 -0.856687 2.261 138 127 120
0.272877 -0.580296 1.637 63 24 4
0.550004 -0.268424 1.686 128 115 104
-0.281847 0.188342 0.705 180 180 180
0.233825 0.0408159 1.905 40 13 7
-0.983025 -0.653258 2.071 129 110 67
-0.365015 0.0270496 1.096 169 164 162
-0.455597 0.0178076 0.98 204 204 206
-0.213562 -0.459242 2.593 109 100 91
0.442319 -0.267672 1.831 47 16 3
0.0698357 0.544036 1.758 113 102 93
0.660943 0.46614 1.403 115 112 98
-0.433874 -0.795478 2.286 137 126 119
-0.310098 0.568092 1.677 103 93 91
-0.0377574 0.214325 2.189 64 68 63
-0.433835 -0.0435122 1.171 181 172 177
-0.639686 -0.368705 1.668 176 173 170
0.449434 -0.258128 1.848 47 14 0
-0.0587563 0.401673 1.941 118 106 106
0.404525 0.381252 1.966 88 73 63
0.147311 -0.742499 2.085 15 6 0
-0.273702 0.568719 1.655 112 102 90
0.510139 0.32778 1.991 82 74 73
0.517643 -0.327587 1.753 121 114 104
-0.18233 0.547896 1.734 113 106 100
-0.265832 -0.100141 2.695 31 24 14
-0.52341 -0.837512 2.32 133 122 113
0.632276 0.447334 1.509 113 111 99
-0.26233 0.456224 1.905 125 121 124
-0.500033 -0.0828447 1.087 44 140 132
-0.0467873 0.327388 2.114 25 22 17
0.484367 -0.372892 1.821 38 32 19
-0.0408865 0.229697 2.166 10 10 6
-0.416529 -0.313972 2.649 98 84 76
-0.324966 -0.507723 2.54 111 102 97
0.649949 -0.365852 1.316 118 119 115
0.0739309 0.598915 1.599 108 99 94
0.575352 0.121896 1.696 120 112 111
-0.490081 0.0251764 0.957 209 208 215
0.365476 -0.61295 1.646 62 26 7
0.614794 -0.514969 1.473 142 133 128
0.562379 -0.296156 1.642 102 94 80
-0.194907 -0.0121101 2.626 72 32 33
-0.302827 0.54913 1.729 113 100 89
-0.250652 0.240757 0.64 185 191 193
-0.272121 0.129641 2.402 16 9 1
0.552722 0.133276 1.774 117 108 101
0.171601 -0.369615 1.805 44 15 5
0.541608 -0.422546 1.677 125 121 110
-0.282661 0.578341 1.629 102 98 89
-0.34606 0.0835403 0.914 196 192 195
0.274917 0.504137 1.789 100 94 81
-0.0963711 -0.624016 2.509 111 100 95
-0.252417 0.323843 2.136 107 41 35
-0.480207 0.271517 2.312 88 78 66
0.204805 -0.48111 1.691 57 15 1
0.146534 0.454787 1.899 155 149 151
0.623468 -0.355609 1.342 137 130 124
0.165131 -0.249795 1.831 42 13 0
0.290627 0.163029 1.997 52 16 4
-0.47929 -0.297175 2.615 95 85 73
-0.418087 0.320718 2.261 89 80 73
-0.391609 -0.69421 2.44 130 119 112
-0.00660003 -0.412655 2.54 91 80 71
-0.637223 -0.382433 1.705 181 171 169
-0.420063 0.0213539 2.54 78 36 33
0.58884 0.425403 1.612 113 111 101
-0.572301 0.368501 2.037 42 38 29
-0.368364 -0.17107 2.707 86 75 68
-0.400188 0.0252765 2.519 78 35 30
-0.115843 0.531078 1.753 102 93 86
-0.496125 0.0177167 0.975 208 207 211
-0.276086 0.216934 0.817 135 131 132
-0.33862 -0.651596 2.459 128 114 108
0.522605 0.237423 1.941 114 101 90
0.557034 0.464048 1.826 125 116 107
-0.0451201 0.426974 1.899 52 51 53
-0.545721 -0.248895 1.473 174 171 168
-0.428997 0.264905 2.32 81 74 66
-0.506613 -0.150641 1.237 185 189 184
0.123968 -0.442003 2.092 41 28 15
0.142949 -0.368744 2.121 24 14 2
0.540067 0.415588 1.947 124 114 102
0.208693 -0.224723 1.821 41 12 0
0.543921 0.400423 1.905 127 120 114
-0.0518759 -0.645707 2.53 117 98 94
-0.136811 -0.440808 2.66 106 92 86
-0.239009 0.589979 1.603 104 97 87
0.283959 -0.621688 1.655 63 24 4
0.539349 -0.516361 1.637 137 127 113
-0.317361 0.303919 1.104 65 55 55
0.402439 -0.52136 1.724 60 19 0
-0.100453 0.320155 2.158 17 10 4
0.517479 0.0437776 1.899 112 103 98
0.265876 0.615586 1.595 123 114 117
-0.258403 -0.853921 2.42 126 117 110
0.487813 -0.514817 1.769 21 20 3
-0.634017 -0.454364 1.815 191 187 180
-0.26436 0.217675 0.675 194 193 195
-0.26271 0.210439 0.706 186 189 190
-0.106877 0.375918 2.078 99 106 100
-0.527859 -0.205329 1.47 160 156 161
0.185506 -0.598101 1.642 61 25 13
-0.45483 0.23451 2.356 18 18 12
0.630009 -0.411225 1.297 122 121 121
-0.535815 -0.0408411 1.053 174 180 182
0.367645 -0.574998 1.668 58 21 5
-0.815122 -0.808629 2.181 54 25 15
-0.461389 0.271517 2.312 87 78 69
0.449031 -0.305839 1.81 48 15 0
0.651722 0.0298306 1.294 133 124 117
-0.351641 0.117138 0.781 194 193 193
-1.09828 -0.569457 2.085 67 39 22
0.651992 0.378748 1.384 114 112 100
-0.0375574 -0.173984 2.684 32 23 16
0.192935 -0.58296 1.637 68 26 12
0.595612 -0.263278 1.473 98 90 78
-0.50076 -0.643912 2.43 128 114 106
0.641234 -0.440192 1.265 134 130 133
0.430805 -0.466037 1.748 54 19 2
-0.444495 0.0676978 0.882 207 205 214
0.603456 0.301549 1.555 117 111 98
-0.423853 -0.739715 2.42 131 122 115
-0.536567 -0.373959 2.449 97 86 79
0.627813 -0.26151 1.319 159 149 137
-0.594556 -0.512756 1.947 154 144 142
-0.460991 0.137071 2.329 52 38 49
-0.0624284 -0.791652 2.459 122 108 102
-0.00641554 -0.549781 2.469 102 88 82
-0.344016 -0.618085 2.469 121 107 101
-0.63888 -0.36981 1.673 172 169 166
-0.329803 0.172407 0.63 208 220 224
-0.280989 0.153668 2.411 6 7 0
0.384557 -0.132369 1.899 47 13 1
-0.412049 0.36947 2.099 56 54 44
0.344805 -0.392136 1.774 49 15 3
0.642268 0.0576546 1.354 129 122 112
-0.337661 0.0985047 0.888 193 189 192
0.385233 -0.383476 1.774 48 15 0
-0.0453413 -0.91402 2.402 123 109 103
0.471987 -0.507308 1.753 30 11 7
0.322551 0.255583 1.935 107 97 97
0.188975 0.364011 1.831 109 100 103
0.0890701 -0.703236 2.338 28 9 0
0.651992 0.540908 1.384 105 107 98
0.527647 0.22304 1.848 112 101 94
0.600452 -0.177798 1.422 105 97 85
0.551687 -0.464497 1.642 136 128 116
-0.212243 -0.846501 2.479 124 115 108
-0.812306 -0.823722 2.212 98 87 82
-0.489035 -0.738942 2.392 133 122 113
-0.315961 0.111326 0.935 183 179 182
0.542585 -0.298501 1.655 105 92 81
0.612622 0.538267 1.559 125 123 111
-0.350334 0.0763291 0.954 185 181 184
-0.298593 0.342341 2.143 126 26 20
-0.263759 0.471833 1.893 98 89 84
0.323862 -0.501721 1.724 69 23 7
-0.529905 -0.154752 1.254 179 179 179
-0.58016 -0.188959 1.322 107 121 112
-0.658516 -0.31906 2.519 95 83 83
0.147236 -0.662423 2.037 42 39 34
0.622039 0.14635 1.52 120 117 103
0.272164 -0.505921 1.682 62 21 2
-0.130547 0.143598 2.253 10 11 5
0.256336 -0.0150324 1.911 42 13 1
-0.768041 -0.567659 1.929 160 149 140
0.15564 -0.124183 2.017 30 21 12
0.150034 0.132688 2.03 35 15 5
-0.444598 -0.876348 2.303 139 125 119
-0.639467 -0.123218 2.626 53 46 38
0.506898 0.324539 1.991 94 90 83
0.628978 -0.187994 1.378 107 100 81
0.253157 -0.183236 1.821 48 18 0
-0.287725 0.185071 0.697 187 186 188
-0.208208 -0.862637 2.479 127 113 107
0.569375 -0.399869 1.587 159 149 135
-0.210346 0.0634277 2.411 21 13 10
0.636664 -0.189957 1.244 95 90 72
0.362515 -0.446125 1.748 51 18 1
-0.270277 0.209917 0.781 111 105 111
0.598935 0.267898 1.677 118 110 98
0.226591 0.570922 1.71 118 110 98
0.169437 -0.618429 1.668 60 35 26
0.616712 0.118592 1.513 124 115 108
0.562645 0.0554935 1.691 117 109 97
0.631576 -0.481259 1.254 120 121 112
0.561914 0.264282 1.842 111 104 94
0.607712 -0.137108 1.509 133 124 115
0.640077 -0.155269 1.275 101 97 86
0.631254 -0.424285 1.403 129 123 125
-0.342372 -0.79133 2.374 133 122 115
0.628192 0.437251 1.579 117 110 102
0.203097 -0.552303 1.633 61 19 5
-0.0886647 0.249908 2.128 10 10 6
-0.398398 -0.199296 2.672 92 78 74
0.270308 0.143099 1.991 47 16 3
0.31565 0.605636 1.624 122 118 109
-0.43781 0.183963 2.347 23 19 20
0.217399 0.333287 1.748 107 103 108
0.156473 0.399152 1.87 119 104 103
-0.393333 0.0237446 1.03 197 193 198
0.526732 -0.273774 1.774 124 115 106
0.537683 0.417239 1.985 120 109 102
-0.415261 0.507048 1.789 104 97 87
0.18554 0.0465718 1.887 44 15 3
-0.141383 -0.853037 2.44 122 113 106
-0.357381 0.366054 2.099 51 47 36
-0.575378 -0.15125 1.242 41 77 75
0.55822 -0.515911 1.563 144 130 122
-0.116376 0.201427 2.128 25 25 21
-0.509105 -0.0149075 1.037 184 188 181
-0.10229 0.617664 1.587 110 101 92
-0.0494654 0.468298 1.831 146 140 142
-0.481451 -0.0844579 1.085 20 149 146
-0.406824 0.0774745 0.863 211 210 217
-0.546991 -0.0853142 1.096 139 182 178
0.323765 -0.0885421 1.887 42 13 0
-0.456837 -0.57721 2.449 124 115 108
0.383513 0.181701 2.024 40 14 1
-0.602733 -0.839937 2.236 126 110 105
-0.578483 -0.498229 2.071 107 97 97
-0.462146 0.0238659 0.967 201 200 207
0.659153 0.519314 1.357 111 111 105
0.200439 -0.533701 1.633 60 21 3
0.383254 -0.213019 1.848 49 16 0
-0.252902 0.279052 0.714 120 128 129
0.620633 -0.410267 1.442 125 124 124
-0.381038 0.114138 0.761 217 215 222
0.181263 -0.424394 1.729 57 17 2
-0.450699 0.00194895 1.027 207 207 203
0.527398 -0.602795 1.633 130 127 113
0.15666 0.535925 1.769 123 113 111
0.128713 -0.539536 2.114 13 10 5
-0.680211 -0.856609 2.204 105 102 99
0.54732 -0.333575 1.629 102 87 77
-0.615692 -0.112246 2.312 76 67 60
-0.405268 -0.0685399 2.66 71 46 39
0.624513 0.591587 1.52 127 123 114
0.631775 -0.140745 1.275 104 98 85
-0.26693 0.233884 0.606 188 191 192
0.0259453 0.126236 2.489 44 18 7
-0.792719 -0.446125 1.748 193 193 189
-0.899728 -0.800189 2.121 55 40 30
-0.635038 -0.31243 1.563 183 183 177
0.0617166 0.588327 1.62 111 101 89
0.620532 0.445391 1.599 115 106 101
-0.638095 -0.132366 2.638 73 64 59
0.339504 0.250002 2.017 37 19 10
0.580748 0.219788 1.664 117 108 99
-0.351958 0.076009 0.95 184 183 185
-0.286569 0.197829 0.653 194 197 200
0.245462 -0.509853 1.668 59 20 2
0.615326 0.447993 1.599 116 112 105
0.520663 0.562408 1.744 119 115 104
0.630023 0.192812 1.442 121 114 104
0.653631 0.0321338 1.302 129 125 116
-0.590539 -0.322392 1.587 162 158 149
0.00514805 0.260922 2.253 16 14 6
-0.768265 -0.833926 2.22 37 23 19
-0.331675 0.147005 0.694 210 210 212
0.359827 0.445516 1.899 49 47 37
-0.194391 0.0251762 2.509 48 36 34
0.636576 -0.0345791 1.342 133 129 120
0.2202 0.304106 1.794 131 123 122
-0.379551 0.0320941 1.029 186 185 187
0.483288 -0.524547 1.763 26 16 4
0.629462 0.517381 1.52 150 149 134
-0.537758 0.284929 2.269 83 76 66
0.649615 -0.31762 1.294 163 160 157
-0.308782 0.134612 0.96 119 109 109
0.355642 0.257272 1.997 48 34 19
0.371432 0.185544 2.03 40 14 0
0.442581 -0.376928 1.784 55 18 2
-0.376168 -0.565853 2.469 120 109 104
-0.429786 0.0502481 0.931 208 207 211
-0.196859 0.519762 1.763 110 99 92
0.59543 -0.515276 1.509 139 132 124
-0.413767 0.462218 1.917 102 95 89
-0.850637 -0.561008 1.917 187 159 101
-0.256035 0.230719 0.662 187 190 189
-0.325135 0.432441 1.966 53 54 50
0.164205 0.616631 1.591 117 115 103
0.583148 -0.343381 1.509 158 144 136
-0.266466 0.216708 0.672 185 188 187
-0.461558 -0.094512 2.66 37 27 25
0.622485 0.34661 1.409 113 113 107
-0.37398 0.03107 1.051 182 178 179
0.573207 -0.504171 1.535 144 135 130
0.611326 0.347038 1.459 116 113 97
0.537967 -0.436641 1.7 128 124 115
-0.787842 -0.702384 2.204 77 70 64
0.64901 0.131211 1.297 125 121 110
0.522037 0.00969676 1.882 113 106 98
-0.549929 -0.0319974 1.044 190 187 182
-0.0778812 -0.0833343 2.719 85 74 69
-0.458573 -0.772061 2.261 132 124 112
0.18908 0.0787538 1.923 42 15 7
-0.464977 0.539093 1.655 82 84 71
0.557034 0.285758 1.826 113 103 89
0.608594 0.527336 1.595 126 123 109
-0.445181 -0.0686934 1.087 156 148 145
-0.599516 -0.11444 1.156 134 174 176
0.194205 -0.430331 1.719 60 18 4
-0.429794 0.493763 1.826 101 92 85
0.185049 -0.0546185 1.882 40 10 5
0.391974 0.487225 1.905 114 102 86
0.63441 0.460489 1.52 113 116 95
-0.612796 -0.240092 1.381 32 107 129
0.539457 -0.0264079 1.837 117 106 97
-0.540399 -0.228672 1.547 170 162 161
-0.535498 -0.26347 1.763 143 133 131
-0.0571451 0.0259087 2.582 92 50 47
-0.0737794 -0.265916 2.731 94 78 85
-0.412429 -0.131423 2.707 63 49 45
0.196836 -0.138786 1.821 39 13 2
0.483026 -0.402396 1.794 42 42 36
-0.493412 -0.799198 2.286 134 127 121
0.271245 -0.289833 1.784 48 15 0
-0.00513971 0.386798 1.978 132 116 125
0.465522 0.613456 1.603 119 110 101
-0.357581 -0.805246 2.347 131 122 113
0.331385 -0.484879 1.734 60 21 3
-0.334581 -0.519922 2.519 117 106 101
-0.613786 -0.426938 1.799 185 177 176
0.320415 0.58109 1.691 118 116 104
0.128287 -0.774335 2.107 34 15 9
0.389234 0.556752 1.753 125 118 110
-0.583897 -0.0676638 2.626 24 19 15
0.654536 0.108916 1.283 134 124 110
-0.270303 0.214986 0.66 181 181 183
-1.03086 -0.775127 2.128 66 36 18
-0.584558 0.240328 2.338 30 27 13
0.174815 -0.582068 1.642 56 23 6
0.272005 0.486669 1.789 69 57 41
-0.492997 -0.155101 1.677 119 108 101
-0.352677 0.427713 1.959 110 107 104
-0.366945 -0.740039 2.383 131 120 113
-0.336951 0.13683 0.743 197 196 196
-0.453293 -0.612276 2.43 123 113 101
-0.0236213 -0.429705 2.593 98 88 76
0.271245 0.514341 1.784 91 80 75
-0.78637 -0.431265 1.734 194 195 189
0.266262 0.0877534 1.985 49 18 5
0.117267 -0.051643 2.294 39 28 19
0.466779 0.305171 2.057 102 74 46
0.651135 0.232372 1.345 120 118 108
0.564463 0.512687 1.739 127 121 106
