ply
format ascii 1.0
comment Created by Open3D
element vertex 1349
property double x
property double y
property double z
property uchar red
property uchar green
property uchar blue
end_header
-0.27212 0.0429774 0.751 194 194 190
-0.257667 -0.712201 2.489 113 99 93
-0.120872 0.00803005 2.278 15 15 15
-0.0468914 0.512322 1.47 103 94 85
-0.34673 -0.191099 1.089 144 136 133
0.312126 -0.465388 2.121 29 43 32
0.590262 -0.435439 1.774 29 11 2
-0.285317 -0.476121 2.593 82 73 68
-0.201634 0.0912446 2.228 71 62 65
-0.558861 -0.207287 1.081 185 188 189
-0.233709 0.131628 0.612 177 179 185
0.705755 0.295089 1.646 145 143 135
0.159164 0.423661 1.646 102 94 91
-0.298143 0.505146 1.47 57 52 48
-0.0903545 -0.442222 2.695 83 69 63
-0.975457 -0.626519 1.917 169 172 173
0.653935 0.118868 1.865 102 98 91
-0.239116 0.171411 0.551 191 198 202
-0.244033 0.202758 2.037 74 69 77
-0.291692 0.13555 0.566 161 162 158
0.436495 -0.414835 1.748 45 14 5
-0.186817 0.209737 0.599 107 107 109
-0.0729837 -0.81151 2.411 112 102 102
-0.395573 -0.310882 1.275 169 165 166
-0.230514 0.5157 1.466 94 90 81
0.670874 0.00571057 1.62 110 103 93
-0.281844 0.118261 0.576 181 181 185
-0.170972 0.113822 0.336 77 51 40
0.655556 0.195819 1.905 116 107 100
-0.23476 0.182177 0.543 193 198 203
0.26512 -0.423313 2.189 69 50 35
0.0321389 0.525353 1.473 105 100 96
0.688146 -0.44422 1.535 96 89 79
0.537719 -0.200989 1.905 34 12 2
0.653328 0.287939 1.821 119 115 108
-0.259791 0.123161 0.577 178 154 98
0.578076 0.525109 1.459 103 103 97
0.51068 0.509957 1.484 105 102 97
-0.58953 -0.304857 1.242 10 132 120
-0.305293 0.0720296 0.659 207 209 217
0.468939 -0.395443 1.763 36 15 2
-0.652309 -0.655649 1.753 192 189 184
0.570939 0.24688 1.966 95 87 84
-0.672885 -0.460404 1.539 166 167 163
0.621783 0.280774 1.935 103 92 96
-0.300342 0.487784 1.505 75 71 74
0.351994 0.521973 1.477 113 109 102
0.658732 -0.017753 1.87 106 99 91
0.341813 0.179269 1.744 103 99 104
0.663816 -0.508573 1.655 120 115 113
0.719574 -0.313079 1.406 127 120 114
-0.327017 -0.117765 2.347 87 58 48
0.314058 -0.494577 2.158 18 24 22
0.032467 -0.00978121 2.121 25 24 24
-0.0119336 0.444277 1.595 105 93 91
0.556027 0.403411 1.696 120 116 105
0.506589 0.310252 1.848 136 54 17
-0.307509 0.0472923 0.742 207 205 212
0.718828 0.194164 1.47 109 105 98
0.450736 0.400003 1.705 116 108 105
-0.392941 0.0675794 2.286 79 71 68
-0.363269 -0.325547 2.638 22 18 11
-0.196419 0.215738 0.552 161 171 176
-0.170032 -0.342718 2.638 71 52 50
0.252586 -0.00657734 2.204 69 46 43
-1.04222 -0.767819 2.166 57 36 21
0.297448 -0.39026 1.876 36 17 13
-0.401641 -0.172094 1.07 173 173 169
-0.374465 -0.197756 1.077 166 156 154
-0.334674 0.0137554 0.757 197 197 201
-0.230299 0.195024 1.059 140 134 138
0.323676 -0.373758 1.769 35 13 3
-0.074134 -0.784447 2.449 112 101 96
-0.989539 -0.8128 2.136 56 33 32
0.0511411 -0.478967 2.755 88 76 74
-0.183315 0.246837 0.645 116 115 122
-0.504573 -0.316721 1.257 0 96 129
0.542834 -0.386718 1.789 37 11 7
0.334058 0.350492 1.763 96 86 84
-0.246921 0.18576 0.533 91 60 60
0.153522 0.544803 1.442 108 101 95
0.0836642 -0.622404 2.519 100 85 84
0.717362 0.347098 1.555 133 137 132
-0.599532 -0.265124 1.182 167 178 174
-0.363787 -0.153601 1.087 122 114 111
0.306609 -0.487952 1.876 30 22 19
0.441914 0.308908 1.805 113 56 26
-0.22591 0.548817 1.422 88 88 82
-0.171165 0.441288 1.603 99 96 91
0.283401 0.38141 1.734 118 108 106
-0.741195 -0.417095 1.466 169 172 175
0.663956 -0.438733 1.616 123 115 112
0.715824 -0.099325 1.459 121 116 112
0.223103 0.111399 2.064 21 20 20
0.0111033 0.186428 2.004 99 89 103
0.4186 -0.041185 1.972 42 16 5
0.655688 0.240911 1.87 114 110 103
0.669218 -0.278296 1.696 115 108 100
0.108136 -0.263132 2.615 90 64 60
0.319102 -0.428076 1.744 45 13 7
-0.258848 0.160651 0.551 193 198 205
-0.1162 -0.436049 2.684 81 69 67
-0.44228 -0.0983829 2.253 30 25 21
-0.252681 0.00738978 0.879 178 171 180
0.176604 -0.0602429 2.338 12 9 4
0.521527 0.0296089 1.985 30 12 1
0.243353 0.474728 1.567 105 100 98
-0.338376 0.0608664 0.678 203 202 213
-0.318057 -0.22676 1.342 152 143 150
0.259994 0.401176 1.71 117 106 101
-0.4572 -0.855921 2.329 100 95 91
0.0223948 0.53131 1.463 108 100 99
-0.343224 -0.395877 2.649 40 31 38
-0.39396 -0.726954 2.43 101 91 89
-0.325428 -0.0538233 0.923 203 198 196
-0.207783 -0.15536 2.338 82 39 43
-0.148233 0.485292 1.528 102 95 89
-0.108956 -0.29292 2.615 63 40 48
0.142786 -0.400139 2.707 73 59 55
0.688062 -0.217704 1.655 119 110 105
-0.0999581 0.461286 1.591 98 92 94
0.531518 -0.151388 1.905 37 9 6
-0.346195 -0.242301 1.308 168 159 166
0.369799 0.0351609 1.935 109 103 105
-0.228117 0.122309 0.647 186 186 188
-0.299381 -0.584928 2.499 92 81 74
0.267236 0.539823 1.435 107 105 95
0.231601 -0.831987 2.244 28 8 0
-0.0578481 0.249303 1.911 32 31 31
-0.61982 -0.293982 1.222 14 133 124
-0.459133 -0.0900398 2.228 24 18 24
-0.208615 0.29382 0.851 116 120 115
-0.220104 0.179405 0.562 179 184 189
-0.41256 -0.0621547 0.913 208 207 209
0.565147 0.296243 1.893 97 86 79
-0.258575 -0.0397258 0.983 173 167 173
0.711725 0.347711 1.629 116 112 105
-0.153298 -0.63862 2.44 107 92 93
-0.198052 0.191977 0.575 184 187 190
0.715451 0.30756 1.498 107 101 103
0.664859 0.0780166 1.905 104 97 89
0.384501 0.331442 1.784 91 81 69
-0.248021 0.157176 0.561 197 202 209
-0.245092 0.131352 0.58 112 106 108
-0.252431 -0.0301585 0.984 172 163 170
0.653768 0.00969676 1.882 105 94 85
-0.242003 0.000248755 0.92 175 171 176
-0.229499 0.310071 1.865 102 87 86
0.702935 -0.235896 1.452 123 116 108
-0.315265 -0.0225202 0.874 204 203 207
-0.102106 0.399325 1.714 108 99 94
0.696823 -0.305715 1.425 125 121 114
0.73119 0.377331 1.466 144 144 138
0.317074 -0.191968 1.848 36 11 4
-0.277414 0.471093 1.555 92 90 82
0.25243 0.23302 1.905 69 56 60
-0.189501 0.2159 0.569 128 125 144
0.65549 0.0443309 1.923 118 92 81
-0.232584 0.186443 0.54 191 198 202
0.130131 0.0684924 2.196 7 10 11
0.631343 -0.311514 1.826 91 87 88
-0.240444 0.156639 0.569 198 203 208
-0.371332 -0.0507908 0.896 203 202 206
0.124731 -0.880832 2.44 109 95 87
-0.437918 -0.615626 2.092 95 84 88
0.298025 -0.585854 2.071 14 14 10
0.0988743 -0.768907 2.489 100 91 94
-0.191737 0.174151 0.618 175 175 179
-0.720805 -0.58139 1.719 181 180 182
0.635364 -0.315076 1.779 107 99 96
0.733817 0.244614 1.547 105 102 97
-0.242605 0.148462 1.124 125 114 120
0.238976 0.3893 1.719 114 103 98
0.236904 0.469463 1.575 104 100 93
-0.248003 -0.034073 1.005 167 158 163
0.191538 0.446505 1.603 106 95 88
-0.691063 -0.36371 1.316 149 161 137
-0.559104 -0.356435 1.26 0 105 110
-0.192172 0.179393 0.684 124 125 121
-0.235729 0.166009 0.56 194 196 202
-0.3948 -0.0491675 0.893 207 207 211
-0.51459 -0.451805 1.494 184 179 177
-0.20505 0.169361 0.601 181 184 187
0.652434 0.0189348 1.887 107 93 87
-0.337188 -0.889364 2.42 115 107 104
0.121699 -0.919703 2.459 104 95 86
-0.574819 -0.405904 1.387 130 153 158
-0.188692 0.214434 0.575 140 145 154
-0.205449 0.191151 0.567 183 183 187
-0.154962 0.470827 1.571 101 94 88
0.0260078 0.0848661 2.158 12 7 3
0.134609 0.495119 1.52 110 104 91
0.527741 -0.0476032 1.972 33 13 3
-0.243783 0.155814 0.566 193 198 205
-0.400283 -0.521656 2.469 88 76 76
0.583733 -0.494735 1.729 34 13 0
0.0323632 0.246193 1.911 94 94 94
-0.682438 -0.579699 1.714 183 183 185
0.113628 -0.122983 2.374 19 9 7
-0.139044 -0.915408 2.469 117 107 107
-0.0833579 0.478497 1.571 107 99 96
0.489221 0.0229968 1.972 35 13 5
-0.918058 -0.595943 1.87 173 172 174
-0.272773 -0.705306 2.479 112 101 96
0.203154 -0.854258 2.294 34 8 4
-0.313356 -0.0950558 1.01 197 193 198
0.0816714 -0.903697 2.459 111 97 89
0.0337793 0.40883 1.673 106 95 90
-0.40361 -0.164511 1.066 185 182 179
0.283362 0.357443 1.769 117 109 106
-0.0199328 0.435896 1.612 109 98 93
0.270899 -0.260494 2.469 8 8 8
-0.39741 0.0495361 2.312 75 70 68
-0.443443 -0.187765 1.07 24 108 104
-0.664997 -0.603394 1.734 191 187 188
0.23431 -0.646969 2.383 17 6 0
-0.233281 -0.026301 2.365 10 10 10
0.657648 -0.519278 1.528 79 76 71
0.38451 0.492645 1.52 106 102 93
0.688856 0.131699 1.753 112 103 98
-0.472141 -0.299996 1.247 67 93 67
0.0423211 -0.796396 2.499 112 97 98
0.359242 -0.574052 1.642 49 14 11
0.685319 -0.240764 1.744 118 107 100
-0.212357 0.121707 2.189 82 70 68
-0.152042 -0.826354 2.42 114 105 100
0.725125 0.252882 1.583 111 102 95
0.641127 -0.259581 1.837 100 97 92
0.440924 0.401176 1.71 118 110 107
-0.268984 -0.0792111 1.062 170 161 168
-0.0714699 0.458697 1.591 93 88 84
-0.361286 -0.314709 1.445 151 140 146
0.00138926 0.145059 2.114 56 32 36
0.368466 0.495131 1.505 116 109 101
0.140281 0.0152136 2.244 9 8 8
0.65693 -0.277658 1.744 115 106 99
-0.431784 -0.414842 1.528 159 150 155
-0.222687 0.347623 1.763 101 93 92
-0.213569 0.144157 0.632 180 180 182
0.30522 -0.461936 2.121 23 31 18
-0.400521 0.120429 2.166 83 74 67
0.605406 -0.234182 1.923 12 13 9
-0.097841 -0.471108 2.66 81 69 69
-0.252017 0.170118 0.544 191 196 201
-0.24801 0.141246 0.578 168 164 169
0.570973 0.285291 1.923 88 84 75
0.343577 -0.390347 1.753 31 13 4
-0.468374 -0.877814 2.347 103 96 90
0.478767 -0.319758 1.789 37 16 1
-0.358629 -0.890032 2.329 121 110 105
-0.656247 -0.312941 1.242 9 122 122
0.644117 -0.232677 1.837 107 99 96
-0.248714 0.0660733 0.736 193 189 192
-0.161604 0.127728 0.344 51 34 36
-0.2483 0.0983796 0.642 170 166 169
-0.426211 -0.086953 0.957 205 208 211
-0.440345 -0.549753 1.966 98 91 100
0.187254 -0.491496 2.479 20 9 13
-0.161058 0.126225 0.337 55 30 21
-0.271075 -0.0249835 0.912 191 187 192
0.588383 -0.637848 1.655 40 10 20
0.690645 -0.0520419 1.535 114 107 101
-0.128151 -0.336919 2.66 22 17 15
0.650583 -0.587412 1.642 118 114 107
0.677926 -0.0398302 1.65 110 103 93
-0.222004 -0.294675 2.593 75 32 34
0.191756 0.158097 2.017 161 152 159
0.664113 -0.0201289 1.81 107 100 94
0.21073 0.46827 1.571 102 95 87
-0.15992 -0.786973 2.42 114 102 100
0.623113 0.50993 1.47 107 108 102
0.453001 -0.258027 1.826 35 13 5
0.183013 0.415752 1.668 104 92 92
0.360909 0.509957 1.484 111 104 96
-0.223887 -0.446117 2.615 82 70 68
0.319138 -0.481055 2.099 29 40 38
-0.0308579 0.341105 1.789 100 93 87
0.69739 0.0794744 1.567 111 103 100
-0.383268 -0.23199 1.905 99 87 85
0.506333 -0.548771 1.696 44 15 1
-0.428809 -0.119354 1.007 202 200 207
0.677042 0.0982834 1.821 110 99 92
-0.21907 0.0733948 0.803 185 179 183
0.217967 -0.671569 2.374 18 7 0
0.353979 -0.406301 1.748 39 12 4
0.720152 0.335261 1.513 132 134 125
0.076372 0.503668 1.494 106 99 93
0.733185 -0.0594069 1.47 115 110 108
-0.204821 0.162297 0.615 183 183 185
0.202494 -0.653076 2.42 25 9 2
-0.290695 -0.0052407 0.84 202 198 201
-0.276288 -0.893471 2.338 118 109 100
0.401975 0.512372 1.484 110 104 91
-0.276228 0.439774 1.607 95 86 79
0.727488 -0.0451458 1.473 116 111 107
0.726588 0.254167 1.575 109 102 94
-0.365926 -0.570937 2.509 93 76 78
0.240681 -0.355764 2.489 14 11 8
-0.17376 0.112601 0.334 83 49 37
-0.237402 0.202758 2.037 76 76 80
0.270014 -0.672482 2.143 45 36 39
0.378897 0.263673 1.758 35 38 37
0.667011 -0.00544928 1.826 105 96 89
-0.322933 0.00157131 0.828 213 204 209
0.320652 -0.104887 1.905 36 13 8
-0.546149 -0.645108 1.779 190 184 186
0.686289 0.40435 1.677 115 108 98
-0.366866 -0.0289875 0.855 204 206 212
-0.198302 0.252833 0.788 111 107 108
-0.192221 0.456391 1.583 101 92 95
0.562786 0.458967 1.583 109 105 94
-0.289703 0.121375 0.573 143 128 118
-0.279984 0.151061 0.552 203 209 220
-0.124571 0.0581925 2.212 11 10 10
-0.949313 -0.740884 2.071 64 38 34
-0.428946 -0.163585 1.06 184 181 178
0.32241 -0.338169 1.794 36 10 0
-0.197407 0.18452 0.587 184 186 192
0.663174 -0.261975 1.753 112 103 96
-0.298819 0.426459 1.616 96 86 84
0.73288 0.0702972 1.432 111 111 105
-0.393174 -0.0572551 0.906 206 201 209
0.356824 0.276396 1.748 35 42 36
-0.458943 -0.625444 1.789 185 180 176
-0.167515 0.123117 0.319 80 51 39
-0.418708 -0.89691 2.347 102 94 91
0.250806 -0.371505 2.22 48 27 14
-0.41016 -0.63985 1.805 172 167 165
-0.348711 -0.281583 1.432 155 146 151
-0.23694 0.123188 0.6 165 162 159
-0.202142 0.167976 0.793 147 141 147
-0.266526 -0.0777747 1.066 171 162 169
0.336869 0.470973 1.563 109 102 96
-0.0702902 0.527483 1.459 101 93 92
0.679393 -0.313361 1.555 122 113 108
0.481441 -0.299948 1.81 41 11 6
-0.701218 -0.614958 1.719 190 190 186
-0.396672 -0.010581 0.83 209 208 219
0.280589 -0.657835 2.286 43 17 15
0.7209 0.150811 1.65 109 105 98
0.704763 0.167422 1.682 109 102 96
0.556348 -0.549017 1.714 35 12 9
0.183958 -0.598789 2.489 32 20 20
0.158578 0.296973 1.859 132 126 130
0.634382 0.000523196 1.935 102 89 76
0.10022 0.508568 1.487 105 96 91
-0.18747 0.217058 0.577 137 139 149
0.445032 -0.397767 1.748 42 13 1
-0.25213 0.410477 1.691 99 91 90
-0.316766 -0.0837107 2.356 66 38 35
0.628703 0.205276 1.997 54 44 42
-0.353084 0.0818465 2.269 32 20 33
-0.394155 -0.590882 1.799 153 142 148
-0.305172 -0.0242713 0.886 204 200 203
0.437788 0.0632742 1.837 135 130 126
0.479791 0.498902 1.524 111 107 98
0.53967 0.266515 1.923 93 86 78
0.641127 0.244647 1.899 108 105 91
0.309695 0.37402 1.739 123 114 107
0.64659 -0.324974 1.724 114 103 98
-0.380534 -0.0556576 0.904 202 201 203
-0.353067 -0.345433 2.626 29 25 28
-0.355476 -0.1054 0.999 204 199 207
-0.226112 0.195027 0.981 150 141 144
0.655556 0.152418 1.905 143 136 130
0.446305 -0.353262 1.753 36 14 6
-0.451355 -0.448084 2.53 82 73 64
0.201737 -0.877956 2.278 32 11 10
0.256725 0.343055 1.784 118 109 102
0.230303 0.0893774 2.099 14 17 20
-0.479009 -0.684045 1.821 178 174 175
0.64325 0.531137 1.456 114 111 106
0.202734 0.351685 1.769 103 94 89
-0.736256 -0.539754 1.729 162 158 159
-0.230868 0.110395 0.664 190 186 189
-0.388439 -0.287545 1.22 180 171 174
-0.159059 0.130536 0.347 62 36 34
-0.510387 -0.103185 0.978 204 208 222
0.681605 0.12894 1.794 109 100 95
0.677286 0.425978 1.655 105 104 104
0.421326 0.549968 1.419 109 109 103
-0.197909 0.25341 0.802 113 109 112
0.245863 0.126081 2.03 15 11 12
-0.122957 0.460127 1.587 104 95 90
0.661792 0.223644 1.853 114 107 101
0.517346 -0.546134 1.705 45 14 3
-0.271568 0.449468 1.595 92 88 89
0.479752 0.19067 1.826 86 72 68
0.0746644 0.0354531 2.143 9 8 8
0.308049 -0.191968 1.848 43 17 6
-0.274233 0.103926 0.644 207 206 215
0.714081 0.0220762 1.48 114 108 110
0.651425 -0.500269 1.7 118 114 107
-0.317477 -0.159677 1.13 173 166 177
-0.349703 -0.00375845 0.815 204 203 207
-0.357803 -0.0260515 0.85 203 202 204
0.301805 0.0328392 1.985 34 14 6
0.708435 0.313839 1.646 131 123 122
0.580692 0.344016 1.789 111 104 96
-0.264556 -0.0573664 1.012 173 164 169
0.33683 0.426673 1.637 123 116 108
0.694265 0.0945787 1.607 115 106 97
0.503538 0.464337 1.575 109 104 100
0.522697 0.514762 1.477 111 108 103
0.250806 -0.479885 2.22 69 50 46
-0.207046 0.300132 0.945 157 157 161
-0.0713019 0.508582 1.48 104 95 90
0.196135 0.0825459 2.099 71 67 70
0.51704 -0.572643 1.677 44 15 1
0.239545 0.429018 1.646 110 103 97
0.431435 0.503668 1.494 107 98 91
-0.25621 0.158204 0.555 198 205 211
0.13771 -0.767643 2.459 100 89 84
0.292538 -0.487868 1.705 41 16 9
0.0598485 -0.459026 2.743 89 78 73
-0.19543 0.189915 0.757 179 169 181
-0.508842 -0.0972028 0.966 202 207 212
0.379988 -0.487693 1.724 45 14 5
-0.113854 0.000618101 2.286 13 14 10
-0.119912 -0.586638 2.489 97 87 87
-0.225448 0.207102 1.077 121 117 118
0.665065 0.352359 1.758 109 102 96
-0.38446 -0.160809 2.42 59 40 38
-0.0458815 -0.319604 2.66 19 16 13
0.727763 -0.00192957 1.422 114 111 108
-0.736966 -0.632416 1.744 179 174 170
0.273502 -0.438829 2.143 40 34 21
0.428061 0.0991896 1.784 139 135 136
-0.732317 -0.660616 1.774 173 173 177
0.0696631 -0.887691 2.459 111 100 91
-0.208653 0.284554 0.84 107 103 96
0.265705 -0.706196 2.286 18 10 9
0.00156604 -0.127327 2.383 17 17 19
0.100502 -0.080051 2.253 12 11 13
-0.242259 0.146454 0.58 162 164 172
0.110813 0.256126 1.87 134 125 132
0.700181 0.263527 1.633 115 116 107
-0.196614 -0.370012 2.649 38 30 29
0.716182 0.222496 1.664 107 105 93
0.289583 -0.261548 2.269 23 18 14
0.726571 0.317019 1.452 105 109 104
-0.16769 0.121923 0.345 66 33 44
0.718794 0.436352 1.505 120 121 110
-0.444443 -0.25321 1.154 10 137 130
-0.231614 0.157903 0.577 193 195 201
0.537197 0.417898 1.655 120 116 107
-0.455474 -0.58395 2.53 90 77 81
0.688392 -0.290267 1.624 120 113 107
-0.190934 -0.176398 2.365 80 37 39
-0.224009 0.0795676 0.762 192 186 188
-0.514025 -0.484186 1.551 185 181 182
0.31684 -0.453324 1.978 27 23 16
-0.328946 0.177593 2.092 94 84 82
0.658218 -0.500447 1.682 122 114 113
0.139046 0.38031 1.729 98 86 84
0.392114 -0.200982 1.876 40 14 1
-0.360685 -0.190046 1.083 129 121 118
0.434867 -0.204035 1.876 36 13 8
0.450293 -0.140739 1.929 39 14 5
-0.464887 -0.321184 1.283 137 143 124
0.266182 0.396536 1.714 121 111 109
-0.211037 0.103549 0.73 190 189 191
0.284763 0.453198 1.599 118 115 110
-0.227154 0.0672251 0.777 191 182 187
0.665934 -0.00829627 1.799 102 97 93
0.315572 -0.296182 1.805 37 12 3
-0.412349 -0.625444 1.789 185 177 176
-0.750038 -0.571286 1.748 179 175 178
0.504994 -0.217514 1.887 40 14 1
-0.323197 -0.0146428 2.347 9 12 13
0.126264 -0.261153 2.638 76 62 58
0.0657075 0.525353 1.473 104 96 95
-0.404889 -0.344547 1.333 172 162 162
0.694244 -0.273278 1.543 120 113 103
-1.05945 -0.75796 2.158 52 38 21
0.668039 0.149967 1.837 105 101 94
0.674799 0.226948 1.831 118 109 104
-0.205837 0.137543 2.158 35 23 23
0.313919 0.282756 1.865 55 59 52
0.399372 -0.246765 1.853 38 13 4
0.200934 -0.441709 2.449 16 7 0
-0.23444 0.0577992 1.01 116 107 112
-0.198042 0.13403 0.709 149 148 157
-0.178949 -0.81151 2.411 114 105 100
-0.197799 0.138699 0.692 168 163 171
0.260704 -0.395364 2.212 53 34 19
-0.254778 0.0462684 0.765 193 192 196
0.576457 0.116826 1.985 81 59 49
0.69996 0.28342 1.539 106 107 96
0.494168 -0.072124 1.941 38 13 4
0.0535586 0.0388133 2.136 7 10 9
0.0781977 0.359915 1.753 105 93 91
-0.28629 -0.107301 1.102 165 156 163
-0.233648 0.163182 0.566 197 199 205
0.583236 0.522857 1.466 110 106 107
-0.238859 0.11626 0.615 179 175 176
0.0250582 0.421345 1.637 103 96 90
-0.217783 -0.492999 2.593 86 75 70
-0.533233 -0.679742 1.794 184 181 178
-0.305761 -0.0800809 1.336 112 106 112
0.716644 0.311256 1.516 110 102 99
-0.434285 -0.255692 2.626 21 16 14
0.674719 -0.104906 1.799 109 102 94
0.495113 -0.476323 1.744 42 16 5
-0.368573 -0.799758 2.32 115 105 103
0.670811 0.481542 1.524 107 105 97
0.433269 -0.434373 1.758 39 15 1
0.691846 -0.278794 1.505 122 114 113
0.104533 0.479977 1.551 107 102 100
0.591558 0.0635333 2.037 57 43 26
0.338206 -0.157314 1.865 35 13 5
-0.106026 -0.206575 2.449 83 36 35
0.0240224 -0.474795 2.731 90 79 74
0.0832823 -0.38831 2.78 86 72 66
-0.358629 -0.825601 2.329 116 105 109
0.703017 -0.172657 1.477 120 114 116
-0.450462 -0.180124 1.066 104 115 111
0.395454 0.429337 1.637 118 107 100
-0.415873 -0.748945 2.269 100 90 88
0.647513 -0.561808 1.719 102 103 94
0.729019 -0.00426452 1.429 110 110 104
-0.0565261 0.409264 1.686 109 98 91
-0.193982 0.186349 0.724 121 117 120
0.0109246 0.496422 1.524 103 96 90
0.309206 -0.205772 1.837 41 10 10
-1.06999 -0.81766 2.158 57 31 27
-0.645668 -0.400521 1.384 103 141 135
0.52335 -0.444548 1.753 37 17 7
-0.140887 -0.110971 2.365 38 11 16
-0.218428 0.157308 0.928 122 115 124
-0.242687 0.414755 1.664 100 93 87
0.430397 0.28654 1.831 56 44 42
0.354429 0.438059 1.62 118 111 103
0.638756 -0.230153 1.865 100 90 88
-0.231968 0.153428 0.585 183 190 194
-0.441058 -0.455458 2.107 85 76 81
-0.189168 0.221991 0.568 143 148 155
0.72304 0.136421 1.607 109 104 102
0.206166 0.0154984 2.286 11 11 5
0.639727 -0.238488 1.859 101 93 90
0.659877 -0.565592 1.539 128 120 119
0.672031 0.286293 1.739 117 115 107
0.661163 0.301186 1.794 125 111 103
-0.323023 -0.132662 1.075 189 185 188
-0.342505 -0.0024471 0.82 207 203 206
-0.27117 0.490172 1.52 94 84 82
0.045781 0.434348 1.616 102 93 88
0.730622 0.221056 1.595 110 102 101
0.507673 -0.431512 1.758 39 14 5
-0.00204512 0.14115 2.107 101 73 74
0.219286 0.183726 1.941 27 23 28
-0.365222 -0.789969 2.347 116 109 103
-0.307245 -0.0712241 1.333 115 109 115
-0.402424 -0.449246 1.893 98 89 84
0.019319 0.441288 1.603 104 95 88
-0.505554 -0.277203 1.201 165 175 178
-0.188106 0.197394 0.6 154 153 155
-0.461087 -0.449373 1.494 184 175 178
0.46018 -0.579995 1.659 42 15 9
0.665022 -0.57505 1.551 132 118 110
-0.0969424 0.485034 1.543 106 99 93
0.641485 0.111421 1.947 89 59 43
0.441425 -0.227118 1.865 38 12 12
-0.366747 0.114949 2.196 67 56 62
0.706773 0.160767 1.516 111 107 96
-0.28194 0.0880583 0.675 209 208 212
0.514901 0.00695138 1.972 30 12 3
0.540259 0.367301 1.734 112 108 101
-0.192431 0.171861 0.617 178 178 182
-0.279086 0.151959 0.552 206 215 225
0.684232 -0.310478 1.633 120 113 107
0.727312 -0.0710279 1.463 115 112 109
-0.354138 -0.00242621 0.813 204 203 207
-0.292339 0.452064 1.595 87 83 86
0.574424 0.212979 1.978 86 78 75
-0.235605 0.156808 0.573 199 201 207
-0.511917 -0.108622 0.984 207 209 217
-0.273074 -0.565014 2.519 88 79 72
0.677042 0.133844 1.821 110 99 94
-0.200341 0.134388 0.693 176 174 181
0.277624 -0.00920937 1.997 27 9 15
0.519114 -0.148288 1.905 36 10 8
-0.517585 -0.209432 1.083 180 183 182
0.391403 -0.340137 1.789 41 12 2
0.626739 -0.548535 1.739 62 63 59
0.711725 0.392776 1.629 119 117 107
0.174442 -0.13594 2.469 21 14 8
-0.189613 0.422006 1.65 106 94 92
0.292001 0.354564 1.769 115 106 111
-0.390263 -0.0458985 0.886 204 203 210
0.45573 0.0165282 1.966 32 12 4
0.173301 0.502657 1.491 107 100 94
-0.202872 0.224099 1.991 92 89 86
0.718199 0.313798 1.459 103 105 96
0.705136 -0.22202 1.502 125 114 107
0.587419 -0.591183 1.691 41 17 3
0.326062 -0.181594 1.865 34 12 4
0.567984 0.187228 1.978 58 49 42
0.714678 -0.362157 1.419 94 90 81
0.661139 0.495378 1.491 101 103 94
-0.35672 0.0540837 0.69 201 207 218
0.720353 0.184316 1.449 113 111 103
0.715465 0.0376128 1.524 109 105 96
0.694727 -0.444347 1.416 97 89 86
-0.291777 -0.10958 1.089 175 166 173
0.18847 -0.0810972 2.392 19 14 10
-0.296232 0.120442 0.573 168 154 148
-0.471172 -0.392911 1.381 55 124 141
-0.431886 -0.469176 2.489 84 75 70
0.494853 -0.34209 1.784 39 13 2
-0.0901613 0.362768 1.753 111 100 95
0.0712237 0.200753 1.953 116 98 108
0.28606 -0.236308 1.842 35 10 1
-0.0576665 0.26402 1.905 16 15 17
0.290186 -0.510137 1.724 41 20 7
-0.369601 -0.350192 1.528 145 141 144
-0.544107 -0.624961 1.763 189 181 178
0.254138 0.128556 2.017 31 20 24
-0.120249 -0.0260007 2.338 11 11 11
0.713039 -0.538208 1.439 132 132 126
0.674006 0.251638 1.774 120 112 111
-0.0121237 0.17244 2.071 99 98 102
-0.268452 0.049088 0.751 195 194 198
-0.332902 -0.149522 1.096 191 185 189
0.291692 -0.272137 1.821 36 10 6
-0.531751 -0.184633 1.062 184 187 188
0.145289 -0.294957 2.672 100 85 86
-0.64816 -0.314962 1.242 7 116 124
-0.0995346 0.529068 1.47 99 92 86
0.111475 -0.694729 2.499 100 88 86
-0.0508132 0.352679 1.774 105 95 93
0.0138278 0.217121 1.929 23 23 23
-0.229123 0.463157 1.571 102 94 93
0.692822 0.395218 1.673 115 110 106
0.150327 -0.843086 2.469 103 91 89
-0.585536 -0.231581 1.122 23 125 122
-0.162334 0.125872 0.342 47 29 20
-0.188686 0.464337 1.575 104 95 90
-0.217123 0.196471 0.942 145 141 146
0.708699 -0.275021 1.459 125 119 123
0.485396 0.0973092 1.859 104 95 98
0.637842 -0.0712322 1.917 97 90 80
-0.00480191 0.292208 1.848 52 59 63
0.0215881 0.162329 2.071 109 103 105
-0.302701 -0.0213152 0.883 206 202 205
-0.19162 0.2328 0.733 177 180 181
0.311176 -0.219998 1.831 43 12 1
-0.324116 -0.0671235 0.941 199 199 203
0.120856 0.522956 1.473 108 101 93
0.245334 -0.399653 2.236 67 40 32
-0.217897 0.161163 0.596 185 185 189
-0.420265 -0.0541865 0.904 208 208 212
-0.413184 -0.147362 1.055 153 147 151
-0.419795 -0.224273 1.104 81 144 141
-0.535341 -0.270564 1.189 29 134 125
-0.271039 -0.397521 2.66 75 63 61
0.0933612 0.438059 1.62 113 102 97
0.269132 -0.0341822 2.136 103 96 86
-0.33953 -0.144224 1.083 198 194 197
-0.255157 0.0849662 1.156 131 122 117
0.278388 0.349792 1.774 116 107 102
-0.345596 -0.249197 1.322 166 155 163
-0.203781 0.146147 0.65 186 185 189
-0.20788 0.288644 0.848 115 115 109
0.464922 -0.510132 1.696 42 16 5
-0.0220951 0.465516 1.579 106 101 99
-0.248866 0.176223 0.541 193 199 199
-0.279411 0.100961 0.632 205 207 215
-0.236138 0.159284 1.062 129 119 129
0.18769 0.190044 1.941 152 143 148
0.500444 0.0887557 1.87 96 85 76
0.668902 0.0182124 1.815 103 96 88
0.661986 -0.510136 1.466 170 166 159
-0.223873 0.490013 1.535 98 87 80
-0.231591 0.300647 1.882 102 92 90
0.255022 0.396536 1.714 114 106 103
0.354145 0.530014 1.466 120 116 107
0.391587 -0.217312 1.859 42 12 7
-0.230445 -0.48456 2.593 88 75 79
-0.312457 0.0767972 0.645 205 210 217
-0.299306 0.0728954 0.677 206 208 214
0.599972 -0.358075 1.821 15 13 5
0.556787 -0.248363 1.865 37 16 3
0.570124 -0.466467 1.739 47 9 9
-0.54676 -0.61255 1.744 183 180 177
0.493612 -0.508658 1.719 47 16 3
0.711982 0.159143 1.456 113 108 104
-0.257799 0.060248 0.738 197 194 191
-0.227106 0.138826 0.613 183 182 186
0.145157 0.335343 1.805 101 92 97
-0.453226 -0.231168 1.12 48 140 140
0.212111 -0.610825 2.44 21 7 1
0.639119 -0.458305 1.719 113 105 104
0.610362 -0.111048 1.959 41 41 35
-0.236202 0.120502 0.632 187 186 188
-0.161391 0.474842 1.559 102 97 93
0.382666 0.303258 1.789 86 77 68
-0.333252 -0.0773656 0.954 201 200 204
-0.249626 -0.845416 2.374 123 112 107
-0.231291 0.114414 0.65 189 188 190
-0.232973 0.0882473 0.983 121 115 119
-0.4563 -0.498915 1.724 156 145 153
0.677253 -0.267302 1.629 115 110 106
-0.321185 0.427366 1.571 105 99 103
0.528924 0.070015 1.941 92 85 75
-0.232577 0.0631869 0.774 180 174 176
0.204633 -0.881872 2.269 28 12 7
0.157083 -0.931905 2.449 101 94 86
-0.492048 -0.208054 1.085 46 133 133
-0.865038 -0.505802 1.7 181 187 189
0.711901 -0.130112 1.432 121 117 108
-0.421461 -0.281332 2.626 19 15 18
-0.414272 -0.0460021 0.888 208 207 214
0.200935 0.0477364 2.228 15 16 10
0.734824 0.427764 1.459 119 117 109
-0.237131 -0.861454 2.365 123 112 107
0.371051 0.367422 1.748 108 105 100
-0.0223096 -0.87611 2.449 112 100 100
0.211182 -0.242872 2.626 22 11 2
0.14904 0.465042 1.595 108 98 96
-0.234744 0.102977 0.672 190 189 191
0.0729233 -0.439241 2.731 88 77 72
0.479714 0.533507 1.456 107 105 95
0.686504 0.0609319 1.769 111 99 97
0.125963 0.538016 1.449 109 102 92
-0.199798 0.260993 0.826 108 107 107
0.65739 0.547656 1.425 112 112 108
-0.403804 -0.65219 2.057 97 86 90
-0.185763 0.236506 0.685 167 170 173
0.482771 -0.283055 1.815 41 11 4
-0.28667 0.133944 0.567 135 130 128
-0.171592 0.437159 1.607 99 95 88
-0.631927 -0.606874 1.744 183 177 179
0.726417 0.44413 1.466 114 116 107
-0.235566 0.12789 2.173 86 75 70
-0.447819 -0.0943381 2.244 22 19 16
0.407184 0.348806 1.769 109 101 87
-0.117493 0.464119 1.583 105 94 89
-0.086566 -0.272416 2.582 74 34 35
-0.212945 0.191359 2.057 32 28 31
-0.0283254 -0.510141 2.638 97 83 79
-0.578478 -0.387932 1.333 64 123 146
0.0947604 0.549506 1.406 98 89 82
-0.394213 -0.0571919 0.905 208 206 213
0.678974 0.512359 1.477 109 111 100
0.135654 0.0259822 2.228 8 8 8
-0.393468 -0.129719 2.356 48 45 40
0.165822 0.418908 1.659 108 99 94
-0.428558 -0.113074 0.995 202 202 206
0.5956 0.0760388 2.017 86 62 37
-0.423257 -0.709024 1.991 95 93 102
-0.302178 -0.190541 1.275 156 147 154
0.647132 -0.557051 1.696 105 106 100
0.260626 0.403411 1.696 118 109 102
-0.256714 0.000240102 0.888 178 172 178
0.281593 0.481272 1.539 117 110 102
0.732477 -0.0442876 1.445 113 109 100
-0.157405 -0.26299 2.572 78 35 30
0.188955 -0.0106205 2.303 15 12 7
-0.243272 0.108671 0.629 177 171 173
0.446555 -0.596016 1.629 41 16 7
-0.339288 0.1657 2.114 97 86 81
0.712486 0.453723 1.539 118 115 110
-0.0577366 -0.900948 2.43 113 100 104
0.290286 -0.161003 2.365 15 23 20
0.0996687 -0.803666 2.509 105 96 91
-0.218713 0.136958 0.632 183 183 187
-0.125455 0.000620264 2.294 13 13 13
0.370059 -0.0153628 1.953 42 12 5
-0.199916 0.142434 0.76 120 110 120
0.405304 -0.28056 1.799 38 14 2
0.675249 -0.367181 1.637 122 113 108
-0.20652 0.277279 0.896 116 116 120
-0.314098 0.101708 0.6 203 207 219
-0.710202 -0.645245 1.748 182 182 182
0.119842 0.0149425 2.204 6 6 6
-0.391987 -0.626503 2.519 91 81 81
-0.214009 0.092107 0.753 190 186 189
-0.0417882 0.42634 1.646 108 99 92
0.288534 0.370267 1.748 123 112 107
-0.0579742 -0.666415 2.44 103 93 93
0.592945 0.221525 1.997 80 76 69
-0.26335 0.167989 0.54 196 205 215
-0.220807 0.159223 0.596 182 182 184
-0.193712 0.203989 0.741 174 169 179
-0.0201636 -0.36328 2.695 77 48 23
0.471783 -0.227118 1.865 40 14 1
-0.316991 0.401255 1.642 89 77 75
-0.416922 -0.123971 1.018 200 200 204
0.233263 0.039213 2.158 33 18 19
-0.690808 -0.579699 1.714 189 188 188
0.61072 -0.595042 1.71 18 18 12
0.421742 0.404363 1.7 121 111 109
0.0508607 -0.622404 2.519 103 84 82
0.308248 -0.501695 1.905 34 31 28
0.382795 0.16038 1.724 137 130 124
-0.325852 -0.112458 1.034 199 195 200
0.28304 -0.430443 2.136 49 55 38
-0.026296 -0.812345 2.449 112 97 96
0.408041 -0.429058 1.748 45 14 3
0.460817 -0.282275 1.81 38 12 1
0.475339 -0.496166 1.734 42 16 5
0.454865 -0.461665 1.753 39 13 2
-0.0631623 -0.0602429 2.338 32 11 10
-0.323719 0.0601157 0.682 206 209 212
0.235467 0.423284 1.655 110 102 99
0.648345 0.00359237 1.893 109 95 89
-0.452096 -0.018116 2.303 8 11 10
0.193991 0.490172 1.52 104 94 92
0.221562 0.520559 1.473 96 89 79
0.614809 0.533507 1.456 115 116 105
-0.292896 -0.00846623 1.357 124 113 117
-0.632347 -0.673148 1.769 188 187 187
0.258751 0.195147 1.929 24 25 21
0.514121 0.5061 1.494 112 103 96
-0.314126 0.0284627 0.755 201 204 205
-0.197684 -0.641862 2.499 108 91 91
-0.401856 -0.728405 2.383 109 92 94
-0.617013 -0.600572 1.734 184 178 180
0.298835 -0.221356 2.312 21 19 11
-0.157704 0.132424 0.349 70 48 40
-0.204845 0.303564 0.814 122 118 121
0.681791 -0.158566 1.81 111 101 101
-0.622443 -0.460803 1.532 177 172 170
-0.151709 0.324232 1.842 103 94 89
-0.962385 -0.791479 2.107 55 32 29
0.0766258 0.262844 1.853 138 127 133
0.650097 -0.193814 1.837 108 94 90
-0.418164 -0.033821 0.872 204 206 214
-0.862908 -0.517244 1.729 179 182 185
-0.120209 0.304001 1.865 100 85 84
0.404829 -0.318865 1.784 37 12 3
0.00989934 -0.563364 2.53 96 84 84
-0.0151882 0.188847 2.03 113 112 116
-0.1957 0.166912 0.621 183 183 187
-0.519108 -0.189152 1.068 188 191 192
-0.315175 0.04765 0.729 207 206 210
-0.197349 0.184528 0.584 188 188 192
-0.0160148 0.360942 1.758 101 91 89
-0.165945 0.123751 0.322 72 44 25
-0.0842725 0.299688 1.876 99 92 86
-0.0517887 0.237607 1.917 20 23 26
0.688628 -0.314063 1.498 121 119 109
-0.347536 -0.404498 2.649 75 63 63
0.390074 -0.425238 1.744 46 17 7
-0.350389 0.304712 1.815 93 78 79
0.318924 0.505083 1.491 111 102 105
0.590261 0.0332528 2.01 55 41 33
0.0814534 0.502579 1.498 107 97 95
-0.238763 0.10064 0.671 190 189 191
-0.268184 0.143586 0.565 186 189 192
0.063794 0.283561 1.831 127 121 127
-0.316899 0.366242 1.729 93 84 89
0.128258 -0.83633 2.509 108 93 92
0.159887 -0.512094 2.626 55 51 54
0.273433 -0.652517 2.32 38 19 15
-0.273665 0.0678517 0.693 212 208 211
0.362515 -0.44328 1.748 39 13 9
0.654193 -0.389611 1.7 116 111 109
0.499298 -0.50599 1.729 45 14 3
0.295638 -0.609132 2.204 7 20 15
-0.120569 -0.422946 2.684 80 65 64
-0.191403 0.218342 0.561 110 110 128
0.0418131 -0.818979 2.469 109 97 97
-0.122564 -0.0458908 2.383 10 11 7
-0.348598 -0.813572 2.338 119 108 112
-0.35783 -0.860869 2.374 118 109 104
-0.741885 -0.59884 1.729 181 184 185
-0.295455 0.433273 1.612 89 81 78
0.550312 0.358889 1.748 115 111 102
-0.189804 0.539891 1.429 100 95 93
0.311298 -0.400612 1.748 44 15 3
-0.211149 0.145645 0.634 182 181 183
-0.382676 0.0335058 0.731 199 206 212
0.00573301 -0.652596 2.509 102 91 86
-0.376063 -0.238457 1.769 99 95 100
0.301119 -0.214427 2.166 28 14 8
-0.482066 -0.308538 1.257 14 101 96
0.0452509 -0.521064 2.672 93 81 79
0.613581 0.471093 1.555 109 109 103
0.346312 0.21088 1.724 80 71 74
0.115856 0.3893 1.719 102 91 86
0.362372 -0.0810955 1.929 39 13 2
0.287256 0.488882 1.516 115 113 105
0.63138 -0.530246 1.744 66 68 74
-0.27011 0.485292 1.528 90 83 77
-0.140502 0.296243 1.893 101 91 89
-0.419696 -0.24611 2.615 29 20 15
-0.251784 0.0656244 0.731 202 198 201
0.457625 0.39561 1.71 115 111 104
-0.202767 0.144514 0.657 188 187 189
-1.0669 -0.84184 2.166 60 31 21
0.741949 0.0929911 1.459 113 111 103
-0.446288 -0.438781 2.572 82 73 66
-0.0970318 -0.488677 2.638 85 73 73
-0.186218 0.063161 2.261 20 19 19
-0.229671 0.0983007 0.693 184 183 185
-0.32472 -0.234484 1.429 121 112 117
-0.341682 0.124354 2.173 91 76 77
0.534866 0.275042 1.917 96 87 78
-0.0164301 -0.0172743 2.196 11 11 11
0.454724 0.0834666 1.821 128 119 124
0.0865839 0.215313 1.941 41 28 48
-0.545367 -0.271701 1.194 106 156 154
-0.407638 0.0845964 2.244 83 75 74
0.716012 -0.28414 1.445 128 119 114
0.0909636 0.5061 1.494 107 99 98
-0.300541 -0.0863801 1.403 109 103 107
0.517742 0.528929 1.463 105 106 97
0.675545 -0.207634 1.705 117 110 104
-0.0718661 -0.542356 2.509 95 85 83
0.693284 -0.43845 1.39 87 79 76
0.682173 -0.141969 1.591 112 108 101
-0.381155 -0.329728 1.449 165 156 159
0.640051 -0.194789 1.905 96 92 93
0.466333 -0.599472 1.624 49 15 7
-0.198126 0.404363 1.7 105 95 93
0.424462 0.322898 1.769 112 53 17
0.242701 -0.773327 2.212 39 19 9
-0.222023 0.515765 1.473 92 88 81
0.302046 -0.371492 1.905 29 13 10
0.332281 0.390433 1.724 114 104 102
-0.495003 -0.37308 1.342 1 101 108
-0.294264 0.274181 1.911 97 85 85
-0.458604 -0.307224 1.26 119 133 95
-0.333195 -0.0944016 0.986 202 198 201
-0.117552 -0.940392 2.44 109 102 96
0.71239 0.00984412 1.452 116 109 99
0.301688 0.438059 1.62 124 117 111
-0.314948 0.0698848 0.659 206 208 214
0.568931 -0.269608 1.865 40 14 1
0.654857 -0.168909 1.859 109 100 93
0.0676877 0.0459152 2.143 6 6 6
0.145304 0.186093 1.966 148 136 134
-0.430169 -0.862536 2.347 102 98 91
-0.334972 0.0102193 0.769 200 199 206
0.556064 0.534179 1.445 106 106 100
-0.393468 -0.769994 2.356 109 101 98
-0.24078 0.154673 0.572 202 204 210
-0.421481 -0.146664 1.05 143 144 138
0.72706 -0.0524791 1.477 118 113 109
-0.238893 0.114401 0.6 175 172 169
-0.0305189 0.0715738 2.181 9 12 11
0.224271 0.491462 1.524 97 90 82
-0.496949 -0.40602 1.403 29 104 110
0.454865 -0.378936 1.753 41 12 2
-0.393671 -0.277436 1.941 115 109 111
0.661385 0.5333 1.449 105 105 99
-0.45255 -0.0887879 0.96 204 206 214
-0.385462 -0.476904 2.53 84 73 66
0.647824 0.187463 1.947 102 97 93
0.2056 0.148764 2.024 164 154 164
-0.233796 0.0915806 0.702 183 182 186
0.177963 -0.854342 2.356 87 72 71
-0.401078 -0.190459 2.499 85 45 19
0.6193 -0.202252 1.947 33 33 29
-0.211144 0.125777 0.677 176 175 177
0.250783 -0.170806 2.509 26 16 16
-0.223865 -0.171236 2.347 83 40 42
-0.364989 0.0444078 0.715 199 198 207
-0.184407 0.255805 0.68 146 145 149
0.712992 0.401733 1.551 118 116 106
-0.0327318 0.378588 1.734 109 94 93
0.246113 0.50751 1.491 106 102 91
0.35899 -0.108327 1.911 41 16 7
-0.240981 -0.869151 2.365 117 108 103
0.575574 0.544493 1.435 111 113 100
-0.38077 -0.206136 1.075 184 178 180
0.703259 0.487953 1.498 115 113 101
-0.0118737 0.449796 1.587 102 92 92
-0.543961 -0.226889 1.108 180 188 187
-0.235136 0.0612678 1.013 116 107 110
-0.00941607 -0.0574086 2.228 7 13 11
-0.39112 -0.470523 2.54 81 71 69
-0.472114 -0.562771 2.509 90 78 78
0.401925 -0.336284 1.784 40 14 3
0.54177 0.40652 1.686 118 114 107
-0.379317 -0.147164 1.066 142 138 139
0.659686 0.0878668 1.917 103 94 87
0.708423 0.27544 1.509 105 105 99
-0.479003 -0.680643 2.42 95 83 81
0.303899 -0.560913 1.691 46 14 8
-0.401945 -0.0427235 0.88 207 205 212
0.716849 0.407194 1.543 119 120 107
0.174906 0.22682 1.905 75 72 86
0.23145 0.236863 1.911 117 107 107
-0.234466 0.169652 0.557 195 200 205
-0.185793 0.213727 0.602 118 119 115
-0.294847 -0.15421 1.187 163 154 161
-0.470365 -0.513959 1.655 153 144 149
-0.42419 -0.051643 2.294 30 29 36
-0.255091 0.0919423 1.173 122 117 113
-0.44396 -0.222879 1.106 61 147 147
0.324298 0.213855 1.821 111 105 109
-0.240425 0.0352144 0.827 177 173 178
0.115463 0.000591874 2.189 18 14 19
-0.254156 0.138184 0.577 181 178 175
0.124176 0.337156 1.799 103 93 91
-0.510078 -0.243929 1.137 138 167 164
-1.08079 -0.710552 2.071 58 37 44
-0.101748 -0.473471 2.649 83 71 69
-0.23245 0.140795 0.596 174 170 175
-0.104837 0.275042 1.917 35 29 33
-0.128016 -0.582588 2.489 97 87 85
-0.235373 0.169652 0.557 192 197 202
0.715044 0.163953 1.595 109 105 98
-0.689425 -0.37308 1.342 150 161 140
0.62072 0.507538 1.47 106 106 102
-0.138481 -0.923705 2.459 116 105 96
0.257637 -0.7509 2.099 39 23 16
-0.16071 -0.477907 2.626 86 71 70
0.582216 0.476263 1.539 115 113 105
0.727408 -0.0790094 1.435 117 115 107
-0.266895 0.100782 0.644 207 206 213
0.408052 -0.498915 1.724 47 18 4
0.433309 0.384822 1.724 122 112 112
0.00826102 0.509936 1.491 108 101 95
-0.0268697 0.0394856 2.173 5 5 5
-0.225506 0.0894494 0.945 125 116 121
-0.501796 -0.103712 0.983 203 208 217
-0.196125 0.152672 0.732 118 115 112
0.515998 0.3893 1.719 116 107 98
-0.00551129 0.135184 2.121 108 70 74
-0.259992 -0.286236 2.593 74 37 34
0.652653 -0.341775 1.696 121 113 110
0.27834 0.442389 1.607 118 111 105
-0.204562 0.295304 1.887 104 92 90
-0.384768 0.178142 1.882 71 65 71
-0.242191 0.165728 0.556 198 203 208
0.714352 0.182837 1.456 108 106 96
-0.125129 0.316267 1.848 102 92 90
-0.227981 0.149775 0.597 177 180 183
0.436495 -0.369322 1.748 42 12 5
0.132342 -0.191221 2.509 44 21 20
0.242118 0.326531 1.805 118 105 109
0.271056 -0.697071 2.071 28 17 12
-0.19842 -0.549429 2.561 91 79 79
0.184576 -0.8129 2.392 62 46 51
-0.29804 0.0131357 0.794 205 199 201
-0.573978 -0.234655 1.128 127 156 157
0.172809 0.469463 1.575 110 103 97
0.0652933 -0.533229 2.604 90 80 78
-0.25359 0.343011 1.799 98 88 86
-0.24961 0.0970317 0.64 182 178 181
0.682606 -0.0266928 1.668 108 104 93
-0.109371 0.054198 2.196 15 11 14
0.684949 -0.469712 1.459 96 88 76
-0.394294 -0.140495 1.055 196 196 200
0.738173 0.414653 1.48 119 118 118
-0.225661 0.125274 0.646 186 185 187
0.157472 -0.179686 2.519 22 17 15
0.439728 -0.034661 1.966 42 15 7
0.654923 -0.570002 1.551 124 121 116
0.327325 0.200226 1.805 107 98 101
0.0964156 0.411553 1.673 102 94 91
0.654163 0.0765683 1.947 100 68 48
0.152924 -0.00677131 2.269 14 9 17
-0.276558 0.155924 0.547 202 210 225
-0.151227 0.0893198 2.181 16 15 17
-0.231618 0.0204249 0.886 177 171 175
0.644649 -0.266809 1.805 108 99 92
0.433101 0.141537 1.769 122 122 116
0.0185952 0.138179 2.114 81 54 48
0.0295149 -0.87611 2.449 110 99 94
-0.594529 -0.327616 1.244 6 137 126
0.711074 -0.222787 1.459 121 113 112
0.420124 0.479977 1.551 111 104 94
0.699357 0.0802859 1.583 110 103 95
-0.273847 0.121375 0.573 151 120 107
-0.323542 -0.108882 1.032 200 196 199
-0.408891 -0.350456 1.339 176 171 167
-0.279941 -0.874932 2.402 117 108 103
0.693061 -0.38861 1.513 119 115 104
0.443525 0.501477 1.502 108 101 91
-0.0940636 0.475794 1.579 99 95 88
0.322784 0.438059 1.62 125 116 109
0.644578 -0.174061 1.882 101 94 86
-0.268303 0.152858 0.552 200 210 217
-0.234445 -0.432869 2.638 85 71 67
0.631488 0.420591 1.655 110 102 101
-0.415388 -0.103712 0.983 201 200 204
-0.488702 -0.638174 2.469 91 80 75
-0.14104 0.462709 1.587 107 96 91
-0.076672 0.0538278 2.181 20 15 11
-0.0178134 0.418908 1.659 104 99 97
-0.239305 0.127069 0.582 146 139 133
0.251626 0.462709 1.587 112 107 105
0.116552 0.487545 1.543 110 101 94
0.153921 0.272213 1.876 37 39 47
-0.425659 -0.403419 1.551 160 151 154
0.2542 0.0645937 2.071 43 20 17
-0.23321 0.135261 0.593 152 148 151
-0.103991 -0.0736186 2.402 14 9 5
0.69345 0.0974037 1.655 109 102 96
-0.0198194 -0.503647 2.649 93 82 75
0.243367 0.548016 1.432 99 97 85
0.397227 0.093645 1.789 139 135 140
0.702691 0.0175159 1.502 111 108 103
0.298963 -0.505995 1.71 39 15 3
0.300864 -0.607175 1.705 39 16 13
0.274917 0.338193 1.789 119 108 101
0.241775 0.386503 1.719 116 105 100
0.226465 0.437842 1.629 103 94 89
0.697112 0.286367 1.555 122 115 107
-1.10428 -0.771089 2.136 56 35 20
0.32309 0.25612 1.848 75 71 72
-0.339776 -0.827504 2.356 117 107 107
0.590542 0.423661 1.646 114 110 101
-0.383938 -0.220461 1.094 188 187 189
0.516234 -0.0905128 1.929 29 13 6
0.532184 0.521891 1.47 106 106 102
-0.251975 0.111323 0.594 203 202 206
0.609342 0.141302 1.966 64 34 18
0.181522 0.394454 1.705 101 93 90
0.709612 0.159143 1.456 112 107 103
-0.246042 0.0928575 0.67 190 189 193
0.277331 -0.307061 2.173 60 36 22
-0.0984404 0.361733 1.748 111 100 95
-0.309824 0.224099 1.991 96 86 84
-0.204203 0.270944 0.796 108 106 117
0.0144586 0.184355 2.017 122 112 122
0.00557535 -0.193904 2.44 27 23 26
-0.302977 0.247662 1.947 94 84 84
-0.218637 0.0795393 0.886 128 122 124
-0.264963 0.185921 2.071 83 73 71
0.204117 0.438059 1.62 101 92 87
-0.299331 -0.169432 1.213 160 150 160
0.365626 0.118105 1.763 87 91 84
-0.338478 -0.0795716 2.347 67 43 45
-0.195374 -0.893302 2.42 114 106 103
-0.222479 0.143049 0.614 184 187 188
0.303159 -0.637255 1.734 44 21 16
0.317137 0.212049 1.831 108 102 106
-0.270591 0.118671 0.578 177 169 168
0.209413 -0.219649 2.604 17 8 3
-0.200871 0.540699 1.425 100 95 93
-0.276476 0.104742 0.63 209 207 214
-0.325296 0.261068 1.929 96 84 82
-0.0268329 -0.572728 2.499 101 87 83
-0.948666 -0.808623 2.107 62 38 26
0.0139567 -0.58551 2.519 97 86 81
0.309425 -0.610767 1.633 52 15 10
-0.247094 0.114788 0.587 200 199 206
-0.370687 -0.260867 1.254 148 139 142
0.600619 -0.534126 1.729 19 10 3
0.6504 -0.00566713 1.899 102 92 90
0.667182 -0.353986 1.65 120 112 109
0.712241 0.438358 1.583 116 117 106
0.637492 -0.473075 1.753 92 89 86
-0.173277 -0.771996 2.499 110 100 98
-0.237378 0.193567 0.533 100 75 83
0.359612 0.260073 1.734 38 41 40
0.343962 -0.243835 1.831 34 12 4
-0.132481 -0.453794 2.66 85 70 69
-0.214021 0.093562 0.856 130 119 127
0.711649 -0.0881129 1.47 116 111 109
0.653396 -0.393466 1.603 123 114 109
0.288463 -0.261228 2.204 27 15 13
0.553936 0.0330377 1.997 36 13 8
0.630746 0.242069 1.953 95 91 82
0.324298 0.234598 1.821 101 96 94
0.335172 0.226864 1.739 69 65 70
-0.972465 -0.776907 2.114 62 29 28
0.0200133 0.53131 1.463 108 98 98
-0.0409471 0.202026 1.997 32 26 41
0.285122 0.0135865 2.004 29 13 6
-0.20102 0.187315 0.804 177 173 178
0.298211 0.493991 1.509 114 110 103
0.416519 -0.523425 1.668 47 16 5
-0.36377 -0.277497 1.366 165 156 161
0.200948 0.181126 1.947 33 25 24
-0.325513 0.0739908 0.648 206 213 221
-0.334256 0.0563294 0.69 204 206 214
-0.283739 0.0666374 0.704 210 206 211
0.369552 -0.197296 1.87 42 13 3
0.660909 0.203191 1.859 117 107 105
-0.387023 -0.299297 1.354 172 163 166
0.631601 -0.258408 1.917 64 55 50
-0.231853 0.146594 0.592 176 176 180
-0.085583 0.514762 1.477 101 92 95
-0.188309 0.219447 0.571 140 149 161
0.215442 0.040485 2.228 14 9 7
-0.35376 -0.0413781 2.347 13 12 14
0.557194 0.372945 1.734 111 108 103
0.684212 0.361658 1.734 111 107 100
0.700515 -0.224643 1.487 125 115 113
-0.447084 -0.0867713 0.955 205 208 211
-0.654638 -0.615388 1.744 188 187 187
-0.441683 -0.573006 1.826 131 122 115
-0.20505 0.170339 0.601 183 185 191
-0.251403 0.144255 0.575 141 144 143
0.708699 -0.27977 1.459 122 120 112
-0.238033 -0.833826 2.374 116 105 98
0.244904 0.42634 1.646 107 99 96
-0.406465 -0.342221 1.324 175 170 168
0.391009 0.346905 1.774 86 78 75
0.710301 0.298329 1.513 108 109 98
0.310217 -0.445816 1.758 48 14 6
0.696756 0.0230159 1.543 113 105 102
-0.237922 0.0703336 1.025 118 107 111
0.0122221 0.400003 1.705 105 94 87
-0.843353 -0.614649 1.853 170 169 169
0.688489 0.473704 1.547 116 116 112
-0.00226934 -0.105899 2.338 5 5 7
0.731982 0.382736 1.487 140 145 135
0.548391 0.287911 1.899 98 89 82
0.643784 -0.322168 1.724 117 106 101
-0.213829 0.269766 0.941 119 116 113
0.305335 -0.622856 1.887 102 44 30
-0.186852 0.209613 0.65 135 131 132
0.000936471 0.545337 1.425 103 96 90
-0.654423 -0.334331 1.254 6 132 119
-0.0198215 0.441288 1.603 102 93 88
-0.2359 0.104225 0.666 188 187 187
-0.421737 -0.0541865 0.904 209 209 213
0.543314 -0.323512 1.81 31 11 1
0.398337 -0.294377 1.794 37 12 5
0.392913 0.199136 1.744 79 69 79
0.714486 -0.176143 1.466 123 116 110
-0.38252 -0.19564 1.075 150 153 154
0.67104 -0.487873 1.571 95 87 84
0.380527 0.333408 1.779 83 75 63
0.286596 -0.281748 1.865 31 11 12
-0.300702 0.0340846 0.771 207 206 210
0.21202 -0.844948 2.269 29 6 1
0.598081 -0.452822 1.763 15 10 6
0.423965 -0.323761 1.779 33 13 3
-0.454119 -0.0689927 0.925 205 203 210
0.452012 -0.356114 1.753 36 14 6
0.674433 -0.473881 1.567 94 90 81
-0.2406 -0.0108429 0.975 161 152 157
-0.252288 0.263386 1.923 102 93 88
0.279869 -0.771814 2.037 14 13 15
-0.439645 -0.103396 0.98 209 208 217
-0.0186592 0.491536 1.509 95 91 82
0.317326 -0.475089 1.719 49 15 3
-0.798853 -0.701653 1.876 163 162 162
0.603821 -0.467167 1.763 20 16 9
0.322555 -0.522044 2.099 26 43 46
0.00169025 -0.539233 2.572 93 85 84
0.258417 0.420171 1.664 115 104 108
-0.484001 -0.367602 1.354 12 99 99
0.679683 -0.528138 1.463 152 145 139
0.694957 -0.106509 1.528 118 111 105
-0.693598 -0.590856 1.714 190 189 191
-0.396736 -0.363726 2.604 36 33 28
0.69427 -0.115517 1.484 120 113 107
-0.29843 0.462157 1.559 87 83 76
-0.367627 -0.105899 2.338 84 48 50
-0.308782 0.339016 1.763 93 87 89
-0.020777 0.217796 1.935 23 23 27
-0.481364 -0.373383 1.359 2 102 109
-0.360079 0.00909612 0.78 206 209 212
0.528968 -0.493344 1.734 42 15 9
0.713894 0.463292 1.505 113 117 110
0.398591 0.13386 1.744 130 129 129
0.679493 -0.128451 1.494 118 111 101
-0.290849 0.339139 1.794 98 89 84
-0.234424 -0.147751 2.338 78 30 34
-1.02783 -0.779031 2.158 59 32 37
0.0481363 0.486502 1.524 108 100 97
-0.0911834 -0.600418 2.479 100 88 88
0.458195 0.501477 1.502 114 110 101
0.178643 -0.915335 2.365 88 83 81
0.254532 0.338193 1.789 117 108 103
0.310153 0.320923 1.774 67 58 61
-0.272288 0.0579621 0.71 185 181 182
0.00176385 -0.401107 2.684 83 68 56
-0.375531 -0.268114 1.299 175 162 168
-0.231462 0.149231 0.591 174 177 180
0.681739 -0.125753 1.686 111 107 100
-0.157135 0.132424 0.349 70 48 40
-0.395604 0.167414 1.935 77 69 66
-0.283864 -0.117175 1.128 164 155 160
0.581193 0.0400718 2.024 25 15 3
-0.301184 -0.0242987 0.887 204 198 200
0.702399 -0.222821 1.491 126 115 110
0.301715 0.124199 1.81 124 102 106
-0.261117 0.0415046 0.769 190 189 191
0.679425 0.352174 1.729 115 113 103
0.0344589 -0.646999 2.519 99 87 85
0.645178 -0.0647896 1.911 99 94 90
-0.267774 0.136508 0.57 179 180 176
0.25272 -0.726064 2.338 14 6 3
0.27014 -0.677921 2.064 28 21 15
0.729787 -0.0302622 1.449 114 111 106
-0.274222 -0.0246 0.898 186 182 185
-0.347849 -0.134261 1.06 200 194 198
-0.387707 -0.159905 1.07 183 173 173
0.50205 0.296635 1.876 111 101 89
0.0507578 0.439774 1.607 108 99 92
-0.342705 -0.286303 1.456 148 139 142
0.308717 0.521973 1.477 126 122 115
0.311349 -0.653598 1.905 78 57 64
-0.522976 -0.132254 1.018 143 139 142
0.286971 -0.741259 2.017 7 12 17
0.319244 0.220385 1.826 99 98 102
0.717777 -0.372913 1.416 98 94 87
0.239914 -0.106549 2.44 39 15 17
-0.534441 -0.629967 1.769 187 182 178
0.445632 0.00375368 1.978 38 11 5
-0.407793 -0.082023 0.954 197 202 211
-0.211647 0.281649 0.966 139 132 141
-0.290459 0.125157 0.569 198 184 140
0.720961 0.212446 1.714 108 104 95
0.531934 0.242234 1.929 57 51 38
-0.333317 -0.230933 1.316 157 148 153
-0.0160336 0.112175 2.143 120 34 39
-0.288948 -0.302699 2.626 71 57 53
0.54613 0.404974 1.691 118 111 103
0.170446 0.129831 2.037 151 142 149
-0.463477 -0.185676 1.068 116 136 133
-0.191018 0.208126 0.568 162 161 170
-0.25267 -0.41312 2.649 82 69 73
0.299197 -0.398693 1.947 17 25 26
-0.501286 -0.403994 1.396 25 106 121
0.696517 -0.109001 1.494 120 113 107
0.678901 0.223356 1.826 129 121 118
0.412533 0.0680466 1.805 145 140 148
0.445857 -0.586165 1.646 42 12 7
-0.307517 -0.654062 2.499 99 85 79
0.551687 -0.638182 1.642 44 23 8
-0.684429 -0.592579 1.719 191 190 192
-0.218339 0.253516 1.004 131 127 132
-0.265135 0.0459055 0.759 193 192 192
-0.195062 0.153781 0.715 110 106 111
-0.0553874 0.542456 1.442 105 100 96
0.505964 0.482501 1.551 112 108 101
-0.0711102 0.138636 2.121 124 113 119
0.440873 -0.1376 1.929 41 16 7
-0.186503 0.227874 0.66 128 128 132
0.28198 -0.359572 2.128 46 51 37
0.728573 0.218378 1.456 109 109 103
-0.26299 0.116651 0.582 191 194 197
0.414111 -0.334399 1.774 39 12 4
-0.487547 -0.715748 1.865 166 160 162
0.447659 0.501217 1.516 108 100 88
0.440778 0.0602848 1.837 114 103 107
0.435549 0.318933 1.779 100 39 15
0.0739113 -0.391138 2.768 87 72 71
-0.263851 0.485017 1.535 97 86 81
0.271904 -0.445412 2.158 32 26 13
0.195225 -0.172236 2.53 32 13 9
-0.231423 -0.516279 2.604 84 75 70
-0.22252 0.128878 0.643 186 185 189
0.415471 0.0709839 1.805 145 140 148
0.324004 0.526676 1.47 119 115 106
0.651431 0.495378 1.491 104 105 94
-0.451488 -0.0725482 0.932 206 205 214
