ply
format ascii 1.0
comment Created by Open3D
element vertex 1300
property double x
property double y
property double z
property uchar red
property uchar green
property uchar blue
end_header
0.0637509 -0.698368 2.719 255 255 255
0.703963 -0.619644 1.748 255 255 255
-0.260952 -0.924512 2.561 255 255 255
-0.442435 0.120832 1.322 0 0 0
0.322681 -0.882836 2.561 255 255 255
-0.309795 0.338079 0.891 255 255 255
0.223441 0.70042 1.87 255 255 255
0.532124 -0.753673 2.649 255 255 255
0.78605 -0.350573 1.876 255 255 255
0.001869 -0.184356 2.844 255 255 255
-0.214468 -0.787483 2.604 255 255 255
-0.912083 -0.86733 2.54 255 255 255
-0.194129 0.231299 1.302 255 255 255
0.548537 0.602005 1.966 255 255 255
0.598362 -0.124621 1.972 255 255 255
-0.215405 -0.219599 2.114 255 255 255
-0.995769 -0.293268 2.286 255 255 255
-0.429889 0.12613 1.31 255 255 255
-0.3678 0.305666 0.92 255 255 255
0.00624027 -0.621454 2.731 255 255 255
0.894037 0.0222855 1.911 255 255 255
0.176164 -0.306487 2.818 255 255 255
0.236625 -0.107164 2.884 255 255 255
-1.1991 -0.411701 2.509 255 255 255
-0.319718 0.221875 0.994 255 255 255
0.901318 -0.0144031 1.831 255 255 255
0.0704454 0.590791 2.121 255 255 255
0.515042 0.162998 2.695 255 255 255
-0.449334 0.239648 0.937 255 255 255
0.218661 -0.587751 2.719 255 255 255
0.92339 0.563073 1.81 255 255 255
0.176708 0.0638913 2.982 255 255 255
-0.0703052 -0.282748 2.204 255 255 255
0.246579 -0.895643 2.55 255 255 255
0.47836 -0.0416604 2.898 255 255 255
0.233425 0.475825 2.374 255 255 255
0.089228 0.329932 2.561 255 255 255
-0.704511 -0.1446 1.748 255 255 255
0.603287 -0.340345 1.887 255 255 255
-1.10646 -0.654524 2.649 255 255 255
-0.552769 -0.749474 2.561 255 255 255
-0.0334728 -0.660045 2.707 255 255 255
-0.296131 0.097852 1.393 255 255 255
0.320217 -0.573116 2.755 255 255 255
0.121677 0.17583 2.831 255 255 255
-0.66845 -0.218598 1.87 255 255 255
0.307415 -0.411134 2.844 255 255 255
0.578714 0.666867 1.887 255 255 255
-0.250456 0.226801 1.079 255 255 255
0.416463 0.653219 1.947 255 255 255
-0.487008 0.230848 0.951 255 255 255
0.61736 0.237944 2.114 255 255 255
-0.105382 0.0522957 1.769 255 255 255
0.597055 -0.730928 2.54 255 255 255
-1.04609 -0.663146 2.649 255 255 255
-0.104456 -0.353611 2.244 255 255 255
-0.0543937 0.698921 1.899 255 255 255
-0.607853 -0.802159 2.53 255 255 255
-1.41183 -0.760216 2.672 255 255 255
-0.580452 -0.313576 1.911 255 255 255
0.581578 -0.696739 2.329 255 255 255
-0.474797 -0.305426 1.899 255 255 255
-0.290248 0.222473 1.004 255 255 255
-1.11616 -0.955423 2.479 255 255 255
-0.0413797 -0.753673 2.649 255 255 255
0.634944 -0.0762523 1.966 255 255 255
0.165599 -0.801091 2.649 255 255 255
-0.38848 0.0376128 1.524 255 255 255
-1.29065 -0.932847 2.561 255 255 255
0.518615 -0.92868 2.561 255 255 255
0.927721 0.228311 1.842 255 255 255
0.014738 0.282084 2.66 255 255 255
0.9082 0.64161 1.876 255 255 255
0.0701196 0.269932 2.626 255 255 255
-0.312928 -0.133206 1.911 255 255 255
0.88124 0.543162 2.071 255 255 255
-0.395863 0.0920972 1.409 255 255 255
0.148808 0.138165 2.911 255 255 255
-0.0363415 0.129928 2.939 255 255 255
0.394138 -0.887307 2.649 255 255 255
0.601915 0.251779 2.615 255 255 255
-0.315416 0.208168 1.022 255 255 255
-0.903791 -0.697632 2.649 255 255 255
-0.448082 0.341362 0.892 255 255 255
-0.095897 0.240145 1.655 255 255 255
-0.348156 0.155822 1.225 255 255 255
0.689361 -0.415228 1.799 255 255 255
-1.04629 -0.340692 2.411 255 255 255
0.592624 -0.655647 2.228 255 255 255
-0.273217 -0.193594 2.057 255 255 255
-0.433366 0.307797 0.913 255 255 255
-0.34443 0.223299 0.986 255 255 255
-0.960661 -0.712422 2.593 255 255 255
-0.144845 -0.832217 2.572 255 255 255
0.907261 0.0513165 1.837 255 255 255
-0.0169349 0.714451 1.859 255 255 255
0.557901 -0.326535 2.755 255 255 255
0.799874 -0.275859 1.887 255 255 255
-0.629357 -0.296155 1.899 255 255 255
0.059063 0.19456 2.707 255 255 255
-0.252614 -0.795317 2.561 255 255 255
-0.250798 0.0315783 1.595 255 255 255
-0.332197 -0.394598 2.228 255 255 255
0.089228 0.3341 2.561 255 255 255
-0.616143 -0.717803 2.582 255 255 255
0.610936 0.364833 2.092 255 255 255
0.313385 0.447081 2.365 255 255 255
-0.351952 0.321595 0.91 255 255 255
0.163152 0.166616 2.831 255 255 255
-0.0644848 0.0709548 2.54 0 0 0
-0.186045 -0.342422 2.173 255 255 255
0.850323 -0.492983 1.805 255 255 255
-0.0664525 -0.392015 2.32 255 255 255
0.830537 -0.630699 1.763 255 255 255
0.215197 0.328873 2.43 255 255 255
0.0605493 0.683708 1.917 255 255 255
-0.445288 -0.034293 1.642 255 255 255
-0.847826 -0.181394 1.774 255 255 255
-0.82781 -0.104537 1.744 255 255 255
0.491034 -0.860691 2.66 255 255 255
-0.724998 -0.0895693 1.729 255 255 255
0.796783 0.602524 1.947 255 255 255
0.0629249 -0.247961 2.884 255 255 255
0.177789 0.153497 2.844 255 255 255
-1.09995 -0.459242 2.593 255 255 255
-0.657451 -0.0558055 1.729 255 255 255
0.877406 -0.0484933 1.882 255 255 255
-0.181454 0.0955004 1.579 255 255 255
0.302117 0.633999 1.966 255 255 255
0.1551 0.648188 2.01 255 255 255
-0.354678 0.155186 1.22 255 255 255
-0.19617 0.350592 0.983 255 255 255
-1.2627 -0.882443 2.572 255 255 255
-0.18705 0.234632 1.297 255 255 255
0.881624 -0.0526741 1.815 255 255 255
-0.502706 -0.579842 2.604 255 255 255
0.0288279 0.467755 2.392 255 255 255
-0.257262 0.0794518 1.429 255 255 255
0.783302 0.520621 2.01 255 255 255
0.636403 -0.475039 1.815 255 255 255
0.675751 0.114035 2.051 255 255 255
0.474445 -0.927625 2.593 255 255 255
0.00671555 -0.0326844 2.939 255 255 255
0.737948 -0.517726 1.789 255 255 255
0.507709 0.39632 2.338 255 255 255
-0.198115 0.280722 1.222 255 255 255
0.039452 -0.107164 2.884 255 255 255
0.703963 -0.608265 1.748 255 255 255
0.91826 0.267478 2.158 255 255 255
0.933751 0.30123 1.848 255 255 255
-0.700057 -0.251398 1.865 255 255 255
-0.632563 -0.505724 2.53 255 255 255
-0.283946 0.0470652 1.509 255 255 255
0.608217 -0.528553 2.78 255 255 255
-0.588718 -0.119211 1.794 255 255 255
0.784515 0.645372 1.887 255 255 255
-0.176079 -0.322388 2.181 255 255 255
0.694599 -0.478296 1.805 255 255 255
-0.304979 0.230617 0.983 255 255 255
-0.761493 -0.701943 2.649 255 255 255
0.111515 0.674384 1.935 255 255 255
0.185364 0.527479 2.173 255 255 255
0.0807359 -0.661505 2.695 255 255 255
0.598595 -0.3225 2.158 255 255 255
0.159692 0.717953 1.837 255 255 255
0.568683 0.06987 2.831 255 255 255
-0.543123 -0.158084 1.911 255 255 255
-0.359588 0.188131 1.059 255 255 255
-0.712738 0.0236126 1.583 255 255 255
0.689016 -0.675882 1.739 255 255 255
0.478447 0.561479 2.064 255 255 255
-0.282503 -0.707464 2.53 255 255 255
-0.663155 -0.0931845 1.744 255 255 255
0.630793 -0.415228 1.799 255 255 255
0.254142 -0.472218 2.768 255 255 255
0.553913 -0.492361 2.78 255 255 255
0.774536 -0.651364 1.734 255 255 255
-0.259214 0.312854 0.928 255 255 255
-0.460792 -0.293991 1.905 255 255 255
-0.0763022 -0.240693 2.392 255 255 255
0.442426 -0.699691 2.707 255 255 255
-0.290274 0.185556 1.064 255 255 255
-0.50248 0.153024 1.203 255 255 255
-0.0121647 0.629537 2.078 255 255 255
-0.320716 -0.275949 2.151 255 255 255
0.595144 -0.685781 2.604 255 255 255
-0.117695 -0.0321928 1.826 255 255 255
-0.381344 -0.905087 2.53 255 255 255
0.574689 -0.508299 2.793 255 255 255
0.642817 -0.276878 2.402 255 255 255
-0.712812 -0.738812 2.582 255 255 255
0.908252 0.0597597 1.821 255 255 255
0.603656 -0.384461 2.151 255 255 255
-0.299806 -0.561835 2.469 255 255 255
-0.585187 0.10285 1.369 255 255 255
0.28023 0.0337956 2.898 255 255 255
0.741105 -0.0632291 1.959 255 255 255
-0.369627 0.222368 0.989 255 255 255
-0.277726 -0.503486 2.383 255 255 255
0.892912 -0.14511 1.826 255 255 255
-0.139053 0.296365 1.13 255 255 255
0.824168 -0.559575 1.774 255 255 255
-0.0441739 -0.953685 2.561 255 255 255
-0.981268 -0.623863 2.684 255 255 255
-0.483699 -0.598491 2.593 255 255 255
-0.640057 -0.268145 1.876 255 255 255
-0.342849 -0.642512 2.55 255 255 255
0.933718 0.324232 1.842 255 255 255
0.927067 0.286106 2.114 255 255 255
0.241104 0.235745 2.626 255 255 255
0.932206 0.382161 2.057 255 255 255
0.829943 0.687557 1.774 255 255 255
-0.380678 0.228037 0.972 255 255 255
0.00193143 -0.00877078 2.939 255 255 255
-0.238653 0.149215 1.429 255 255 255
-0.906235 -0.315028 2.204 255 255 255
0.907912 -0.17562 1.774 255 255 255
0.607131 0.0731162 2.228 255 255 255
-0.303888 -0.375626 2.181 255 255 255
-0.410852 -0.901657 2.509 255 255 255
0.206289 -0.47035 2.731 255 255 255
-0.221203 -0.542083 2.489 255 255 255
-0.124923 -0.661786 2.593 255 255 255
0.462399 -0.700975 2.695 255 255 255
-0.728765 -0.898945 2.479 255 255 255
0.247964 0.508321 2.294 255 255 255
-0.180994 0.100385 1.575 255 255 255
0.534293 0.3113 2.479 255 255 255
0.893155 0.519764 2.099 255 255 255
0.491536 0.218341 2.572 255 255 255
-0.451355 -0.534544 2.53 255 255 255
-0.407577 -0.837764 2.489 255 255 255
0.578099 -0.148389 1.947 255 255 255
0.114309 0.678571 1.929 255 255 255
0.926579 0.205364 2.03 255 255 255
-1.20492 -0.7162 2.638 255 255 255
0.870617 0.567322 1.935 255 255 255
0.528811 -0.925673 2.53 255 255 255
0.904978 0.049511 1.882 255 255 255
-0.460575 -0.311441 1.917 255 255 255
0.184316 -0.895643 2.55 255 255 255
0.218661 -0.578901 2.719 255 255 255
0.695364 -0.161062 1.947 255 255 255
-0.702178 0.0161754 1.612 0 0 0
0.681612 -0.03761 1.953 255 255 255
-0.0481236 0.485691 2.347 255 255 255
0.927229 0.163335 1.853 255 255 255
0.119485 0.190759 2.78 255 255 255
0.859504 0.546502 1.997 255 255 255
-0.914231 -0.720861 2.593 255 255 255
0.347484 -0.261832 2.831 255 255 255
-0.380264 0.334478 0.893 255 255 255
-0.266114 0.301745 0.931 255 255 255
-0.400962 -0.966188 2.55 255 255 255
-0.270744 -0.474777 2.356 255 255 255
-0.389786 0.221019 0.983 255 255 255
-0.854954 -0.748636 2.53 255 255 255
-0.0491544 -0.867997 2.604 255 255 255
-0.204063 0.0134092 1.595 255 255 255
-0.206399 0.348453 0.986 255 255 255
0.587858 -0.101512 2.857 255 255 255
0.274147 0.56663 2.121 255 255 255
-0.307213 -0.84333 2.53 255 255 255
0.889379 0.667169 1.789 255 255 255
0.924213 0.636759 1.853 255 255 255
-0.651822 -0.0501782 1.729 255 255 255
-0.0987308 -0.134038 2.121 255 255 255
-0.487318 0.135669 1.26 255 255 255
0.227407 0.4444 2.392 255 255 255
0.90207 0.536143 2.057 255 255 255
0.732477 0.394621 1.953 255 255 255
0.349357 0.448782 2.374 0 0 0
0.712405 -0.1238 1.959 255 255 255
0.427848 -0.519317 2.755 255 255 255
0.321303 -0.401878 2.844 255 255 255
0.412612 0.656597 1.929 255 255 255
-0.142059 -0.304268 2.204 255 255 255
0.237257 0.699325 1.859 255 255 255
0.341224 -0.582841 2.78 255 255 255
0.865039 -0.520574 1.769 255 255 255
-0.251218 0.266204 0.967 255 255 255
0.615296 -0.481021 2.53 255 255 255
0.844478 0.227623 2.114 255 255 255
-0.227812 0.20483 1.232 255 255 255
0.643379 -0.797608 2.347 255 255 255
-0.129545 0.272995 1.232 255 255 255
0.539308 0.59994 1.991 255 255 255
-0.406465 0.127478 1.324 255 255 255
-0.468443 0.222143 0.967 255 255 255
0.368196 -0.938024 2.53 255 255 255
0.763859 -0.638231 1.729 255 255 255
-0.48098 -0.283794 1.899 255 255 255
0.837984 -0.129378 1.947 255 255 255
0.146322 0.630787 2.071 255 255 255
-0.445825 -0.788263 2.499 255 255 255
-0.199369 0.0420659 1.599 255 255 255
0.258231 0.706402 1.815 255 255 255
-1.00716 -0.871211 2.469 255 255 255
0.0647359 0.0297719 2.967 255 255 255
-0.313814 0.167685 1.239 255 255 255
-0.694382 -0.152784 1.744 255 255 255
0.218451 -0.307901 2.831 255 255 255
-0.374369 -0.375117 2.22 255 255 255
0.890926 0.575834 1.911 255 255 255
0.729454 0.0861838 2.024 255 255 255
0.89174 0.00049805 1.842 255 255 255
0.513832 -0.142687 2.939 255 255 255
0.927205 0.18504 1.859 255 255 255
0.178295 0.631371 2.051 255 255 255
-0.263249 0.242803 1.007 255 255 255
0.893918 -0.208236 1.859 255 255 255
0.546616 -0.526987 1.821 255 255 255
0.619488 0.519683 1.899 255 255 255
0.189212 0.693632 1.893 255 255 255
0.736607 0.684217 1.758 255 255 255
-0.273619 0.240392 0.997 255 255 255
-0.44124 0.223534 0.98 255 255 255
-0.633099 -0.0528386 1.724 255 255 255
0.0922663 -0.921556 2.53 255 255 255
-0.472625 -0.91139 2.469 255 255 255
-0.66386 -0.677564 2.638 255 255 255
-0.414275 0.238366 0.944 255 255 255
-0.362203 0.321655 0.906 255 255 255
0.565086 -0.32696 1.935 255 255 255
-0.473106 0.151694 1.208 255 255 255
-0.53507 -0.503598 2.479 0 0 0
0.301902 -0.458303 2.793 255 255 255
-0.236956 -0.0749996 1.784 255 255 255
-0.668066 0.00568237 1.612 255 255 255
0.580445 -0.365801 2.01 255 255 255
0.455239 -0.377022 2.731 255 255 255
-0.772989 0.0384766 1.559 255 255 255
-1.28265 -0.486616 2.604 255 255 255
0.892376 -0.100813 1.831 255 255 255
0.915227 0.0325988 1.794 255 255 255
0.398914 0.682081 1.837 255 255 255
0.544815 -0.466178 1.815 255 255 255
-1.10239 -0.557682 2.66 255 255 255
-0.0314005 -0.276924 2.244 255 255 255
-0.0310074 0.659507 1.985 255 255 255
-0.231855 0.264172 1.201 255 255 255
0.358703 -0.615993 2.707 255 255 255
-0.473869 0.148619 1.215 255 255 255
0.617728 -0.0861149 2.54 255 255 255
-0.0688012 0.407169 2.402 255 255 255
0.35161 -0.322052 2.755 255 255 255
-0.095952 0.282131 2.136 0 0 0
-0.444463 0.242398 0.93 255 255 255
-0.521061 0.171204 1.094 255 255 255
0.173877 0.616011 2.078 255 255 255
0.586624 -0.265475 1.923 255 255 255
0.0236521 0.536013 2.269 255 255 255
0.620872 -0.176817 2.32 255 255 255
0.771603 0.62278 1.893 255 255 255
-0.299263 0.234698 0.98 255 255 255
-0.400942 0.20839 1.007 255 255 255
0.132305 0.54516 2.173 255 255 255
0.175593 0.672229 1.947 255 255 255
-0.274682 -0.0529919 1.729 255 255 255
0.563978 -0.801196 2.54 255 255 255
-1.05626 -0.765877 2.519 255 255 255
-0.289926 0.304169 0.92 255 255 255
0.329027 0.0428248 2.871 255 255 255
0.765049 -0.196629 1.923 255 255 255
-0.559675 -0.670225 2.593 255 255 255
0.888423 0.600031 1.899 255 255 255
0.894611 -0.269617 1.953 255 255 255
-0.234694 0.291343 1.104 255 255 255
0.79015 -0.0670612 1.978 255 255 255
-0.357237 0.177412 1.122 255 255 255
0.887304 -0.0718944 1.779 255 255 255
0.744584 -0.337274 1.887 255 255 255
0.42245 0.603857 2.037 0 0 0
0.326029 0.101181 2.805 255 255 255
-1.00314 -0.867193 2.469 255 255 255
0.53862 0.457424 2.143 255 255 255
0.284341 -0.178587 2.755 255 255 255
-0.15103 0.334541 1.002 255 255 255
0.636415 0.656874 1.876 255 255 255
-1.13912 -0.423382 2.53 255 255 255
-0.27454 0.192397 1.135 255 255 255
0.909678 0.0837092 2.044 255 255 255
0.811799 -0.348517 1.865 255 255 255
0.624082 -0.49592 1.805 255 255 255
0.606034 -0.24509 1.935 255 255 255
0.730359 -0.453286 1.799 255 255 255
-0.518547 0.170353 1.1 255 255 255
-0.280658 0.270907 0.924 255 255 255
0.680677 -0.0960309 1.978 255 255 255
-0.127432 0.215598 1.336 255 255 255
-0.662469 -0.754554 2.55 255 255 255
0.270827 0.686539 1.882 255 255 255
0.673935 0.63923 1.887 255 255 255
-0.900255 -0.892736 2.53 255 255 255
-1.30992 -0.643962 2.695 255 255 255
-0.11125 0.386076 1.378 255 255 255
0.1637 0.300404 2.489 255 255 255
-0.212999 -0.447099 2.312 0 0 0
-0.506357 0.0250306 1.513 255 255 255
-0.388296 -0.305256 1.978 255 255 255
0.919512 0.45335 1.893 255 255 255
-0.557413 0.109802 1.345 255 255 255
0.627648 0.487225 1.905 255 255 255
0.590567 -0.622839 2.365 255 255 255
0.590586 -0.621004 2.53 255 255 255
0.792403 -0.559575 1.774 255 255 255
-0.482938 0.151694 1.208 255 255 255
0.479516 0.68015 1.848 255 255 255
-0.0439407 0.582969 2.143 255 255 255
0.0876166 -0.814936 2.638 255 255 255
-0.565108 -0.0837091 1.784 255 255 255
0.779533 -0.606024 1.758 255 255 255
-0.683899 -0.115557 1.739 255 255 255
-0.444833 -0.0559669 1.734 255 255 255
-0.778303 0.0866923 1.473 255 255 255
0.501947 -0.18314 2.898 255 255 255
-0.098215 -0.0251395 1.972 255 255 255
-0.766969 -0.172733 1.774 255 255 255
0.00165542 -0.310861 2.519 255 255 255
-0.365219 -0.118555 1.876 255 255 255
-0.0927377 -0.651806 2.638 255 255 255
0.856365 -0.547499 1.763 255 255 255
0.883216 -0.0372634 1.935 255 255 255
0.854271 -0.427403 1.826 255 255 255
0.596204 -0.660612 2.572 255 255 255
-0.442246 0.283468 0.916 255 255 255
0.593416 -0.622164 2.392 255 255 255
-0.373216 -0.312637 2.092 255 255 255
0.667098 0.125727 2.743 255 255 255
0.43432 0.440824 2.312 255 255 255
0.0621891 0.523656 2.329 255 255 255
-0.157907 -0.016272 1.714 255 255 255
0.227513 -0.574477 2.719 255 255 255
-0.339936 -0.140301 1.923 255 255 255
0.463384 -0.755676 2.626 255 255 255
-0.345807 -0.685725 2.572 255 255 255
-0.681842 -0.211943 1.865 255 255 255
-0.139854 0.343765 1.066 255 255 255
-0.385076 -0.292381 1.978 255 255 255
0.542511 0.11336 2.768 255 255 255
-0.416974 0.200564 1.043 255 255 255
0.92423 0.293342 2.092 255 255 255
-0.268438 0.139239 1.313 255 255 255
0.701166 0.16458 2.057 255 255 255
0.15496 -0.829109 2.615 255 255 255
0.436021 0.400071 2.383 255 255 255
0.380434 -0.0412723 2.871 255 255 255
-0.250522 0.257042 1.135 255 255 255
-0.343536 0.053386 1.48 255 255 255
0.142807 -0.891493 2.55 255 255 255
-0.607705 -0.850535 2.479 255 255 255
0.290353 0.336782 2.43 255 255 255
-0.483347 0.276286 0.932 255 255 255
0.027978 0.20601 2.684 255 255 255
0.540175 0.334151 2.469 255 255 255
-0.881191 -0.655859 2.672 255 255 255
0.320217 -0.317569 2.755 255 255 255
-0.233492 0.282772 0.992 255 255 255
0.34772 -0.0926649 2.871 255 255 255
0.604408 -0.80292 2.374 255 255 255
0.165673 0.714964 1.837 255 255 255
0.899964 -0.252168 1.917 255 255 255
-0.314281 0.161939 1.257 255 255 255
0.117379 -0.750337 2.731 255 255 255
-0.05697 0.533759 2.244 255 255 255
-0.314127 0.276294 0.912 255 255 255
0.586019 -0.339967 2.719 255 255 255
-0.379256 -0.266458 2.051 255 255 255
0.920839 0.12973 1.805 255 255 255
-0.221816 0.275171 1.149 255 255 255
-0.216859 -0.688391 2.582 255 255 255
-0.386652 0.325321 0.908 255 255 255
0.116976 -0.975079 2.53 255 255 255
0.881927 -0.114187 1.905 255 255 255
-0.108956 -0.829109 2.615 255 255 255
-0.418522 0.0127451 1.516 255 255 255
-0.127105 0.632724 1.972 0 0 0
0.269374 -0.771146 2.695 255 255 255
-0.232479 0.0240451 1.612 255 255 255
0.902115 -0.273429 1.935 255 255 255
0.178752 -0.983313 2.53 255 255 255
-0.0392253 0.619393 2.078 255 255 255
-0.865038 -0.0521031 1.7 0 0 0
-0.0976963 0.309141 1.555 255 255 255
0.582315 -0.489979 1.794 255 255 255
-0.222528 0.120944 1.543 255 255 255
-0.216199 0.306449 1.017 255 255 255
-1.09194 -0.935252 2.479 255 255 255
0.714056 0.449415 1.929 0 0 0
-0.5173 0.0323313 1.509 255 255 255
-0.695164 -0.193376 1.805 255 255 255
0.577173 -0.352717 2.01 255 255 255
0.607223 -0.424013 2.269 255 255 255
0.638624 0.162143 2.755 255 255 255
-0.833488 -0.135755 1.744 255 255 255
-0.0483427 -0.953685 2.561 255 255 255
-0.119611 0.414595 1.254 255 255 255
0.171263 -0.825621 2.604 255 255 255
0.356805 -0.704858 2.66 255 255 255
-0.104039 0.534386 1.7 0 0 0
-0.663627 -0.248363 1.865 255 255 255
-0.224258 0.0965793 1.555 255 255 255
-0.308892 0.174462 1.189 255 255 255
-0.801954 0.0362162 1.571 255 255 255
0.545121 -0.12895 2.953 255 255 255
0.361135 -0.704858 2.66 255 255 255
0.685132 0.286543 2.143 255 255 255
0.677693 -0.616453 1.739 255 255 255
-0.553262 -0.281253 1.882 255 255 255
-0.248512 0.217184 1.169 255 255 255
0.365063 0.11731 2.755 255 255 255
0.372768 -0.40753 2.884 255 255 255
-0.727654 -0.870168 2.489 255 255 255
0.105687 -0.0133644 2.898 255 255 255
-0.66084 -0.700122 2.626 255 255 255
0.879453 -0.116548 1.893 255 255 255
-0.135073 -0.152455 2.044 255 255 255
-0.715716 -0.393372 2.181 255 255 255
-1.31486 -0.794136 2.626 255 255 255
-0.263247 0.0929163 1.387 255 255 255
-0.610022 -0.282001 1.887 255 255 255
0.900661 0.11177 1.848 255 255 255
-0.560868 -0.0839437 1.789 255 255 255
0.792597 0.525717 2.017 255 255 255
0.0690172 0.629537 2.078 255 255 255
0.866508 -0.161062 1.947 255 255 255
-0.477362 -0.0316209 1.642 255 255 255
0.631918 -0.281997 2.347 255 255 255
0.255318 0.138974 2.831 255 255 255
-0.139803 0.337422 1.079 255 255 255
0.761245 -0.494436 1.789 255 255 255
-0.524261 0.192722 1.075 255 255 255
0.602253 -0.388126 1.837 255 255 255
0.289501 -0.446578 2.805 255 255 255
0.746954 0.400448 1.966 255 255 255
0.925941 0.145217 1.815 255 255 255
-0.521165 -0.271433 1.899 255 255 255
-1.27265 -0.581939 2.672 0 0 0
-0.79996 -0.0872575 1.739 255 255 255
-0.419776 0.0556813 1.477 255 255 255
0.0356217 0.37361 2.604 255 255 255
-0.216378 0.202063 1.362 255 255 255
-0.118555 0.32652 1.31 255 255 255
0.27243 0.70071 1.831 255 255 255
-0.534634 0.179283 1.089 255 255 255
-0.230175 0.344833 0.886 255 255 255
-1.11029 -0.798041 2.53 255 255 255
-0.324574 0.261783 0.908 255 255 255
-0.280977 0.241815 0.983 255 255 255
0.602843 -0.406647 2.43 255 255 255
0.0441466 -0.215108 2.884 255 255 255
0.484315 0.314531 2.411 255 255 255
0.880043 0.682271 1.753 255 255 255
-0.713911 0.121386 1.403 255 255 255
0.154094 0.540069 2.181 255 255 255
0.353425 -0.286815 2.805 255 255 255
-0.284912 0.219379 1.02 255 255 255
0.618994 -0.00945839 2.051 255 255 255
0.606034 -0.21675 1.935 255 255 255
-0.309833 -0.0772478 1.769 255 255 255
0.305798 0.582195 2.078 255 255 255
-0.912869 -0.209714 1.794 255 255 255
0.639437 0.217714 2.085 255 255 255
-0.0713188 0.410874 2.356 255 255 255
0.37602 0.700174 1.799 255 255 255
-0.407322 0.0321813 1.502 255 255 255
0.572224 -0.523548 1.799 255 255 255
0.819604 -0.138456 1.941 255 255 255
0.924727 0.421522 1.848 255 255 255
0.800144 -0.615711 1.753 255 255 255
-0.154567 0.364989 0.983 255 255 255
0.945045 0.29577 1.972 255 255 255
0.191061 -0.724467 2.768 255 255 255
-0.183824 -0.208586 2.107 255 255 255
0.923777 0.555643 1.805 255 255 255
0.444851 -0.630805 2.695 255 255 255
-0.158017 -0.700996 2.582 255 255 255
0.659352 -0.12783 1.972 255 255 255
0.020803 0.481718 2.365 255 255 255
0.753158 0.323667 2.158 255 255 255
-0.225253 0.330418 0.957 255 255 255
-0.860093 -0.0951966 1.729 0 0 0
-0.716989 -0.00223353 1.646 255 255 255
-0.896137 -0.81451 2.53 255 255 255
0.629065 -0.118668 2.365 255 255 255
-0.188969 0.289514 1.154 255 255 255
-0.845761 -0.245629 2.017 255 255 255
0.425361 -0.454201 2.768 255 255 255
-0.451799 0.172212 1.112 255 255 255
0.381961 0.661871 1.917 255 255 255
0.229074 -0.904531 2.54 255 255 255
0.454507 -0.775227 2.649 255 255 255
-0.399954 0.326798 0.908 255 255 255
-1.26993 -0.817146 2.604 255 255 255
0.878182 -0.385637 1.784 255 255 255
-0.63154 -0.0185497 1.668 255 255 255
-0.121408 -0.273963 2.22 255 255 255
0.878826 -0.123487 1.905 255 255 255
-0.380116 0.144442 1.265 255 255 255
0.927925 0.278788 2.085 255 255 255
-0.652845 -0.0101882 1.633 255 255 255
0.817785 0.433844 2.064 255 255 255
-0.253181 0.204565 1.173 255 255 255
0.877783 0.22913 2.128 255 255 255
-0.0622677 0.633218 2.057 255 255 255
-0.227794 0.0267346 1.616 255 255 255
0.11926 -0.219801 2.884 255 255 255
-0.626797 0.145982 1.316 255 255 255
-1.18661 -0.567082 2.684 255 255 255
-0.440345 -0.165833 1.966 255 255 255
0.3452 0.682161 1.87 255 255 255
-0.547313 0.147245 1.22 255 255 255
0.569761 -0.384435 1.848 255 255 255
-0.135066 0.0412902 1.673 255 255 255
0.634672 -0.586786 1.769 255 255 255
0.630532 -0.141702 2.43 255 255 255
-0.129144 -0.847451 2.593 255 255 255
0.397182 -0.403715 2.857 255 255 255
-0.237653 -0.91379 2.626 255 255 255
0.067876 -0.686476 2.707 255 255 255
-0.164614 0.190794 1.393 255 255 255
-0.573392 0.151694 1.208 255 255 255
0.294309 0.372371 2.43 255 255 255
0.567984 -0.572422 1.978 255 255 255
-0.218322 -0.986936 2.55 255 255 255
0.61471 -0.477826 2.43 255 255 255
0.926283 0.278655 2.136 255 255 255
-1.19332 -0.536039 2.66 255 255 255
-0.192503 -0.00221046 1.629 255 255 255
-0.602663 0.161324 1.192 255 255 255
0.138823 -0.442013 2.805 255 255 255
-0.171592 0.0161252 1.607 255 255 255
-0.164879 0.326309 1.017 255 255 255
-0.477748 0.0127451 1.516 255 255 255
-0.0555709 0.626523 2.057 255 255 255
-0.685866 -0.110213 1.744 255 255 255
-0.177423 0.333268 1.013 255 255 255
0.669201 -0.670222 1.739 255 255 255
0.332822 0.492179 2.189 0 0 0
-0.141416 0.12781 1.535 255 255 255
-0.024341 -0.82544 2.672 255 255 255
-0.500027 0.000416123 1.539 255 255 255
0.225968 -0.805402 2.649 255 255 255
0.810224 0.565333 1.972 255 255 255
0.319778 0.495653 2.173 255 255 255
-0.20773 -0.883877 2.626 255 255 255
0.503903 0.39632 2.338 255 255 255
0.450271 -0.366885 2.755 255 255 255
-0.109708 0.362158 1.416 255 255 255
-0.569044 -0.0154651 1.629 255 255 255
-0.397948 0.306161 0.917 255 255 255
-0.615504 -0.654634 2.615 255 255 255
0.657118 0.0225645 2.684 255 255 255
-0.4922 0.125129 1.278 255 255 255
-0.569326 -0.148288 1.905 255 255 255
0.730227 -0.119873 1.947 255 255 255
0.92423 0.521434 2.092 255 255 255
-0.51697 -0.955226 2.489 255 255 255
-0.105524 0.417056 1.362 255 255 255
0.635687 0.0406064 2.051 255 255 255
-0.642846 0.00562244 1.595 255 255 255
-1.37166 -0.851046 2.604 255 255 255
-0.113995 0.246245 1.412 255 255 255
-0.218633 0.268948 1.26 255 255 255
0.662806 -0.302082 1.917 255 255 255
-0.0843787 -0.0703085 2.294 255 255 255
-0.0461454 0.6113 2.085 255 255 255
-0.104072 0.538807 1.848 255 255 255
-0.460568 -0.903354 2.469 255 255 255
-1.25939 -0.962399 2.54 255 255 255
0.595237 -0.258294 2.121 255 255 255
-0.134599 0.326529 1.139 255 255 255
0.642312 -0.466178 1.815 255 255 255
0.0491735 0.242121 2.649 255 255 255
-0.199073 0.35775 0.951 255 255 255
0.405391 0.48872 2.158 255 255 255
0.274918 0.273883 2.469 255 255 255
-1.4138 -0.733056 2.684 255 255 255
-0.308422 0.201807 1.032 255 255 255
-0.801622 -0.164073 1.774 255 255 255
0.48649 0.132887 2.707 255 255 255
0.745073 0.544521 1.978 255 255 255
0.623711 -0.22058 1.941 255 255 255
0.242916 -0.552765 2.743 255 255 255
-0.303209 -0.293451 2.151 255 255 255
-0.611318 0.0955851 1.393 255 255 255
-0.280627 0.060038 1.466 255 255 255
0.420393 -0.699691 2.707 255 255 255
0.554329 -0.524177 2.805 255 255 255
0.596916 -0.48122 1.794 255 255 255
0.874856 -0.00862369 1.87 255 255 255
-0.572705 0.174765 1.094 255 255 255
0.537379 0.533051 2.071 255 255 255
-0.244274 0.265777 0.977 0 0 0
-0.252123 0.0365851 1.587 255 255 255
-0.448545 -0.0374603 1.664 255 255 255
-0.625652 -0.42469 2.253 255 255 255
0.762401 0.0960649 2.024 255 255 255
-0.240631 0.314699 0.938 255 255 255
-0.387607 -0.180902 1.991 255 255 255
0.0802271 -0.974799 2.54 255 255 255
-0.856918 -0.160186 1.763 255 255 255
0.256213 -0.700975 2.695 255 255 255
0.597637 -0.338439 2.672 255 255 255
-0.238607 0.335602 0.896 255 255 255
0.658555 0.334271 2.136 255 255 255
0.16456 0.696712 1.893 255 255 255
-0.158184 0.357105 0.966 255 255 255
0.683504 -0.415228 1.799 255 255 255
0.340682 0.609884 2.024 255 255 255
-0.605416 0.000432346 1.599 255 255 255
-0.905496 -0.76793 2.499 255 255 255
0.801302 -0.24439 1.905 255 255 255
0.521675 0.449432 2.189 255 255 255
0.743939 -0.217853 1.917 255 255 255
-0.0199017 -0.739487 2.66 255 255 255
0.625344 0.384451 1.966 255 255 255
0.702839 -0.0536652 1.959 255 255 255
0.415435 0.536655 2.085 255 255 255
0.510777 0.133476 2.719 255 255 255
-0.0285885 -0.270267 2.312 255 255 255
-0.084656 -0.286335 2.204 255 255 255
0.636516 0.0783576 2.805 255 255 255
-0.492014 0.0664158 1.449 255 255 255
-0.241678 0.123933 1.406 255 255 255
0.590787 -0.600418 2.479 255 255 255
0.109087 -0.853572 2.638 255 255 255
0.619488 0.556767 1.899 255 255 255
0.864859 -0.530027 1.734 255 255 255
0.850981 -0.530851 1.794 255 255 255
0.602936 -0.402525 1.821 255 255 255
0.757953 0.431862 1.978 255 255 255
0.0705803 0.510557 2.356 255 255 255
-1.22218 -0.429188 2.54 255 255 255
-0.19513 0.324288 1.037 255 255 255
-0.368415 0.32977 0.896 255 255 255
-0.514711 -0.0292486 1.659 255 255 255
0.613428 -0.31526 2.489 255 255 255
-0.50374 0.116436 1.297 255 255 255
0.594737 -0.0165742 2.107 255 255 255
-0.371248 0.239902 0.944 255 255 255
-0.963554 -0.262222 2.044 255 255 255
-0.301184 0.338005 0.887 255 255 255
-0.902625 -0.588921 2.684 255 255 255
0.661509 -0.258876 2.615 255 255 255
-0.901873 -0.752705 2.489 255 255 255
-0.266114 0.2972 0.931 255 255 255
-0.26888 -0.0440614 1.71 255 255 255
-0.515839 -0.0851637 1.815 255 255 255
-0.112196 0.446102 1.286 255 255 255
0.01924 -0.339959 2.684 255 255 255
-0.270773 0.320734 0.916 255 255 255
-0.5809 -0.106635 1.779 255 255 255
0.125705 -0.301902 2.818 255 255 255
-1.25112 -0.412655 2.54 255 255 255
-0.391495 0.203881 1.034 255 255 255
-0.442851 -0.194707 1.935 255 255 255
0.900626 -0.218472 1.794 255 255 255
-0.587709 0.0354785 1.539 255 255 255
-0.415788 -0.312181 1.941 255 255 255
-0.312206 0.193032 1.039 255 255 255
-0.7335 -0.815915 2.509 255 255 255
0.682428 0.107359 2.051 255 255 255
-0.494498 -0.757679 2.519 255 255 255
-0.524256 -0.268342 1.899 255 255 255
-0.172408 0.257053 1.252 255 255 255
0.591318 0.00730036 2.071 255 255 255
-0.544465 0.195308 1.07 255 255 255
-0.99558 -0.329086 2.356 255 255 255
0.347694 -0.882836 2.561 255 255 255
-0.177955 -0.0386985 1.719 255 255 255
-0.775526 0.0334026 1.559 255 255 255
-0.310111 0.246308 0.945 255 255 255
0.495364 -0.908307 2.66 255 255 255
0.57019 0.507505 1.997 255 255 255
0.611671 0.407334 1.953 255 255 255
0.0277278 0.312385 2.66 255 255 255
-0.355621 0.214304 1.004 255 255 255
-0.451489 -0.287791 1.905 255 255 255
0.568866 -0.615258 2.743 255 255 255
0.887598 0.547304 2.024 255 255 255
-0.127721 -0.0504601 1.842 255 255 255
0.250769 0.432722 2.392 255 255 255
-0.150318 -0.349829 2.22 255 255 255
-0.587752 -0.783602 2.55 255 255 255
-0.233083 -0.592184 2.53 255 255 255
0.014738 0.238797 2.66 255 255 255
0.6504 0.606212 1.899 255 255 255
-0.511962 -0.439355 2.253 255 255 255
-0.254312 0.0736419 1.452 255 255 255
0.261119 0.272415 2.53 255 255 255
-0.370997 0.146153 1.262 255 255 255
-0.69564 0.121386 1.403 255 255 255
0.597055 -0.689594 2.54 255 255 255
0.218251 0.386592 2.42 255 255 255
0.248407 -0.414625 2.805 255 255 255
-0.97688 -0.651511 2.672 255 255 255
-0.14505 0.348579 1.029 255 255 255
0.896395 -0.118042 1.821 255 255 255
-0.0470971 0.582352 2.128 255 255 255
-0.0751539 -0.413434 2.356 255 255 255
-0.397396 0.21688 0.986 255 255 255
0.512138 0.276102 2.489 255 255 255
0.794497 -0.451861 1.805 255 255 255
-0.129718 0.105511 1.575 255 255 255
-0.160209 0.163882 1.456 255 255 255
-0.320832 -0.863197 2.54 0 0 0
-0.00670916 -0.999321 2.582 255 255 255
0.617611 0.158263 2.253 255 255 255
0.259034 0.0626701 2.925 255 255 255
0.824797 -0.633568 1.763 255 255 255
-0.650315 -0.778175 2.519 255 255 255
-0.461371 0.223291 0.972 255 255 255
0.42556 -0.872824 2.684 255 255 255
-0.318581 0.319333 0.912 255 255 255
-0.34162 -0.68991 2.572 255 255 255
-0.0764337 0.599103 2.078 255 255 255
-0.878684 -0.0633547 1.705 255 255 255
-0.0889555 0.137349 1.911 255 255 255
0.592119 -0.384648 2.519 255 255 255
-0.280409 0.167008 1.234 255 255 255
-0.31838 0.310157 0.92 255 255 255
-0.719573 -0.0186498 1.677 255 255 255
0.624153 0.362077 2.057 255 255 255
0.932018 0.403615 2.064 255 255 255
0.810067 0.275785 2.114 255 255 255
0.89935 0.65619 1.815 255 255 255
0.928142 0.572586 1.831 255 255 255
-0.481832 0.214105 0.988 255 255 255
0.00194983 0.0249437 2.967 255 255 255
-0.257825 0.331978 0.902 255 255 255
-0.138642 0.250494 1.26 255 255 255
0.878588 -0.11179 1.865 255 255 255
0.737916 -0.0632291 1.959 255 255 255
-0.165936 0.338139 0.984 255 255 255
0.677765 -0.407106 1.815 255 255 255
0.560006 -0.433346 1.826 255 255 255
0.0308647 -0.966188 2.561 255 255 255
0.149983 0.707652 1.865 255 255 255
0.728974 -0.00590289 1.978 255 255 255
-0.212357 -0.369879 2.189 255 255 255
0.511296 0.658747 1.899 255 255 255
-0.147455 -0.450048 2.347 255 255 255
0.891865 0.663195 1.794 255 255 255
0.053358 0.578889 2.128 255 255 255
0.387881 -0.394416 2.857 255 255 255
-0.521539 0.190618 1.073 255 255 255
0.615797 -0.282618 2.638 255 255 255
0.00649848 -0.170472 2.844 255 255 255
-0.718885 -0.533229 2.604 255 255 255
-0.0435117 0.669191 1.966 255 255 255
-0.0729209 -0.367669 2.286 255 255 255
-0.853827 -0.213937 1.805 255 255 255
0.58629 -0.286815 2.805 255 255 255
0.744236 -0.381428 1.848 255 255 255
-1.40644 -0.556249 2.695 255 255 255
0.879764 -0.374384 1.719 255 255 255
-0.837577 -0.0670601 1.729 0 0 0
-0.285965 -0.699462 2.561 255 255 255
-0.186913 0.331279 1.002 255 255 255
-0.0712669 0.219651 2.638 255 255 255
0.680099 0.123624 2.044 255 255 255
0.177058 0.54842 2.158 255 255 255
-0.20425 -0.675786 2.582 255 255 255
0.895373 0.0808941 2.057 255 255 255
-0.7148 0.131287 1.387 255 255 255
-0.521173 -0.387013 2.071 255 255 255
0.938738 0.437203 2.064 255 255 255
-0.179337 0.0364929 1.583 255 255 255
-0.476454 -0.939025 2.489 255 255 255
0.331185 0.253794 2.469 255 255 255
0.120568 -0.91345 2.519 255 255 255
-0.140056 -0.770311 2.561 255 255 255
-0.415928 -0.619325 2.54 255 255 255
0.504135 -0.578317 2.78 255 255 255
-1.07627 -0.555376 2.649 255 255 255
0.104702 -0.204794 2.871 255 255 255
-0.0964431 0.464791 1.359 255 255 255
-0.080082 0.460291 2.278 255 255 255
0.46666 0.0336323 2.884 255 255 255
0.545746 -0.573041 1.789 255 255 255
-0.19527 0.211893 1.354 255 255 255
0.907203 0.392068 2.092 255 255 255
-0.219425 -0.53371 2.469 255 255 255
-0.142216 -0.133166 2.004 255 255 255
-0.173238 0.341548 0.98 255 255 255
0.7796 -0.630603 1.739 255 255 255
-0.381905 0.150142 1.244 255 255 255
0.60983 -0.777373 2.173 255 255 255
-0.216873 0.299421 1.114 255 255 255
-0.221062 -0.688391 2.582 255 255 255
0.312794 0.299953 2.42 255 255 255
-0.386417 -0.355419 2.166 255 255 255
-0.718949 0.113774 1.422 255 255 255
0.560992 -0.447221 1.81 255 255 255
0.504086 -0.339985 2.755 255 255 255
0.89312 -0.306848 1.87 255 255 255
-0.316401 0.266802 0.91 255 255 255
0.379742 -0.238797 2.831 255 255 255
-0.308901 0.300654 0.923 255 255 255
0.0444446 0.643635 2.037 255 255 255
0.870923 -0.441576 1.799 255 255 255
0.630932 -0.334204 1.887 255 255 255
0.370526 -0.192727 2.831 255 255 255
-0.427518 0.0983437 1.4 0 0 0
0.713708 -0.672149 1.744 255 255 255
0.869151 -0.301136 1.911 255 255 255
0.803135 0.666048 1.859 255 255 255
0.412783 0.0874869 2.805 255 255 255
0.0151313 -0.701451 2.731 255 255 255
0.472141 -0.327897 2.805 255 255 255
0.512315 0.694587 1.815 255 255 255
0.640895 0.0775467 2.057 255 255 255
-0.246246 0.122788 1.393 255 255 255
0.945105 0.487511 2.078 255 255 255
0.89312 -0.212512 1.87 255 255 255
-0.197681 0.324739 1.007 255 255 255
0.584421 -0.214771 2.818 0 0 0
0.700665 0.0596272 2.017 255 255 255
-0.353909 -0.892131 2.54 255 255 255
0.540748 0.203324 2.649 255 255 255
0.280234 0.408695 2.411 255 255 255
0.798585 -0.0772219 1.991 255 255 255
-0.395863 0.0943901 1.409 255 255 255
0.482084 -0.607183 2.707 255 255 255
0.614917 0.34954 2.166 0 0 0
0.0710275 0.221483 2.66 255 255 255
-0.683876 -0.637281 2.649 255 255 255
-0.257944 0.240471 1.025 0 0 0
0.609042 0.468624 1.905 255 255 255
0.487973 0.631484 1.929 255 255 255
0.17333 0.119789 2.925 255 255 255
0.325013 0.684199 1.859 255 255 255
0.760008 0.281075 2.128 255 255 255
-0.561481 0.134597 1.289 255 255 255
-0.850835 -0.748636 2.53 255 255 255
-0.219095 0.273632 1.217 255 255 255
-0.847683 -0.104537 1.744 255 255 255
0.635846 -0.316685 1.911 255 255 255
0.131864 -0.752448 2.755 255 255 255
-0.217905 0.311247 0.98 255 255 255
-0.266089 -0.503486 2.383 255 255 255
-0.398192 0.329772 0.904 255 255 255
-0.320016 0.242206 0.947 255 255 255
0.370274 0.184926 2.695 255 255 255
-0.696483 -0.886842 2.479 255 255 255
0.937019 0.395793 2.024 255 255 255
0.537986 0.649393 1.917 255 255 255
0.397447 -0.790335 2.731 255 255 255
0.0725742 0.698029 1.905 255 255 255
0.877015 0.0989602 2.085 255 255 255
-0.347445 0.0624236 1.466 255 255 255
0.916244 0.559857 1.899 255 255 255
0.317978 0.550999 2.114 255 255 255
0.609741 -0.0467025 2.649 255 255 255
-0.2095 0.348809 0.978 255 255 255
0.133991 -0.0133644 2.898 255 255 255
-0.0257894 -0.072946 2.831 255 255 255
-0.18223 0.243674 1.278 255 255 255
-0.17739 0.287138 1.152 255 255 255
0.721921 -0.329203 1.876 255 255 255
-0.477887 0.223716 0.967 255 255 255
0.598925 -0.579783 1.774 255 255 255
0.694437 -0.32615 1.876 255 255 255
0.0609284 0.672293 1.929 255 255 255
-0.189557 0.208929 1.393 255 255 255
0.225771 0.292782 2.459 255 255 255
0.713055 -0.264414 1.893 255 255 255
0.607368 0.3861 1.991 255 255 255
0.606034 0.419324 1.935 255 255 255
0.891354 0.543162 2.071 255 255 255
0.602108 -0.368153 2.158 255 255 255
0.160785 0.251825 2.572 255 255 255
0.775806 -0.52646 1.789 255 255 255
0.0274985 -0.840694 2.638 255 255 255
0.712734 -0.292723 1.917 255 255 255
-0.799367 -0.203335 1.842 255 255 255
0.607757 -0.320593 2.499 255 255 255
0.412127 0.274269 2.402 255 255 255
0.248329 0.586891 2.107 255 255 255
0.79174 -0.552467 1.779 255 255 255
0.899651 -0.287381 1.923 255 255 255
0.0876166 0.241115 2.638 255 255 255
0.0737709 -0.910372 2.604 255 255 255
0.0940268 -0.367792 2.831 255 255 255
-0.685635 -0.91139 2.469 255 255 255
0.734224 0.0594202 2.01 255 255 255
0.706028 -0.104672 1.959 255 255 255
-1.23069 -0.7162 2.638 255 255 255
-0.270906 -0.584928 2.499 255 255 255
0.918054 0.464854 1.865 255 255 255
-0.430126 -0.442702 2.411 255 255 255
-0.20666 0.021196 1.595 255 255 255
0.210587 0.650744 1.978 255 255 255
-0.602285 0.0875114 1.409 255 255 255
-0.481213 0.141473 1.239 255 255 255
-0.295105 -0.334208 2.143 255 255 255
-0.321577 0.213941 1.01 255 255 255
-0.959422 -0.62823 2.684 255 255 255
-0.151312 -0.755728 2.54 255 255 255
0.40051 0.568669 2.078 255 255 255
-0.0109586 -0.9867 2.593 255 255 255
-0.49464 -0.800463 2.499 255 255 255
-0.245668 0.246571 1.051 255 255 255
0.741512 -0.245151 1.887 255 255 255
0.664785 0.395355 1.941 255 255 255
-0.126959 -0.0441995 1.831 255 255 255
0.754172 0.536758 1.985 255 255 255
-0.448723 0.163705 1.141 255 255 255
-1.36743 -0.670341 2.731 255 255 255
-1.38521 -0.630343 2.731 255 255 255
0.640092 -0.13104 1.972 255 255 255
0.610879 -0.342506 1.882 255 255 255
-0.0852705 -0.302864 2.22 255 255 255
0.71438 0.49163 1.947 255 255 255
-0.0876431 -0.116961 2.189 255 255 255
0.247439 -0.718518 2.695 255 255 255
-0.31239 0.290694 0.92 255 255 255
0.617728 -0.0695813 2.54 255 255 255
-0.168179 -0.0300595 1.705 255 255 255
-0.0199017 0.377316 2.66 255 255 255
0.899208 0.645644 1.87 255 255 255
-0.361943 0.176147 1.114 255 255 255
0.876106 0.372832 2.158 255 255 255
0.18941 0.101714 2.953 255 255 255
-0.079928 0.0218047 2.173 255 255 255
-0.923976 -0.841697 2.55 255 255 255
-0.558677 -0.182963 1.911 255 255 255
-0.0718613 0.290742 2.66 255 255 255
0.669955 0.161781 2.064 255 255 255
-0.267257 0.26196 0.935 255 255 255
0.221831 0.460372 2.374 255 255 255
-0.206735 -0.401083 2.244 255 255 255
-1.38521 -0.683674 2.731 255 255 255
0.645703 -0.00612074 2.051 255 255 255
0.762865 0.22304 2.136 255 255 255
0.792947 0.578751 1.985 255 255 255
0.894273 0.273612 2.151 255 255 255
-0.400825 0.2668 0.9 255 255 255
0.503861 0.386011 2.392 255 255 255
0.0907055 -0.488127 2.731 255 255 255
0.592423 -0.34487 2.469 255 255 255
0.537333 -0.636423 2.719 255 255 255
0.54912 -0.0793884 2.898 255 255 255
-0.0026275 0.353146 2.707 255 255 255
-0.100108 0.631833 2.01 255 255 255
-0.18754 0.0417502 1.587 255 255 255
-0.208977 0.235283 1.289 255 255 255
-0.478368 -0.812663 2.499 255 255 255
0.669093 -0.539504 1.784 255 255 255
0.929577 0.424856 1.876 255 255 255
0.210114 0.691433 1.887 255 255 255
0.327045 0.501136 2.151 255 255 255
0.453877 -0.337026 2.805 255 255 255
-0.345318 0.249427 0.928 255 255 255
0.0405493 0.272296 2.649 255 255 255
0.695825 0.34432 2.071 255 255 255
-0.12474 0.647478 1.799 255 255 255
0.775225 0.336618 2.151 255 255 255
0.0254914 -0.102968 2.898 255 255 255
-0.322187 0.250234 0.931 255 255 255
0.856365 -0.619223 1.763 255 255 255
0.938902 0.35873 2.057 255 255 255
-0.380537 0.236291 0.948 255 255 255
0.924723 0.579023 1.842 255 255 255
0.57584 -0.452067 2.755 255 255 255
0.36228 -0.535281 2.768 255 255 255
-0.652438 -0.0184496 1.659 255 255 255
0.04897 0.664766 1.953 255 255 255
-0.476561 0.209403 1.004 255 255 255
-0.123799 0.190794 1.393 255 255 255
-0.336958 -0.2721 2.121 255 255 255
0.793279 -0.506081 1.789 255 255 255
0.108843 0.40964 2.44 255 255 255
0.126285 -0.349364 2.831 255 255 255
0.790359 -0.596271 1.763 255 255 255
0.658242 -0.440348 1.794 255 255 255
0.35194 0.695825 1.826 255 255 255
0.506251 -0.895929 2.649 255 255 255
0.738702 -0.613485 1.763 255 255 255
0.0336607 -0.494664 2.793 255 255 255
0.035547 0.615405 2.099 255 255 255
0.116468 -0.91345 2.519 255 255 255
-0.610695 0.0158443 1.579 255 255 255
0.424548 -0.915927 2.572 255 255 255
-0.205417 0.318934 0.989 255 255 255
0.595607 -0.655671 2.253 255 255 255
0.206289 -0.577012 2.731 255 255 255
0.0189102 -0.840694 2.638 255 255 255
0.899249 -0.345946 1.774 255 255 255
0.214516 -0.442598 2.78 255 255 255
-0.426686 0.197736 1.046 255 255 255
-0.248446 -0.94535 2.561 255 255 255
-0.0831405 -0.172549 2.365 255 255 255
-0.392035 0.2668 0.9 0 0 0
0.357774 -0.819061 2.768 255 255 255
0.791851 -0.409574 1.826 255 255 255
-0.12762 0.00619703 1.758 255 255 255
-0.830756 0.00568237 1.612 255 255 255
-0.0142253 -0.291969 2.43 255 255 255
-0.354892 0.279882 0.895 255 255 255
0.590032 -0.377061 2.638 255 255 255
0.843866 0.68081 1.779 255 255 255
-1.25215 -0.588921 2.684 0 0 0
0.911234 0.263967 2.158 255 255 255
0.658139 -0.108906 1.978 255 255 255
-0.239407 0.270912 1.171 255 255 255
-0.90492 -0.151908 1.734 255 255 255
-1.19703 -0.467682 2.593 255 255 255
0.0682526 -0.0181615 2.911 255 255 255
-0.325365 0.286475 0.902 255 255 255
0.664454 -0.673938 1.734 255 255 255
-0.251653 0.252506 1 0 0 0
0.517689 0.460912 2.143 255 255 255
0.296619 0.635933 1.972 255 255 255
-0.315623 0.342335 0.887 255 255 255
-0.886543 -0.680389 2.649 255 255 255
-0.102999 0.155218 1.729 255 255 255
-1.12019 -0.963491 2.479 255 255 255
-0.176109 0.299211 1.12 255 255 255
-0.00703397 0.357551 2.707 255 255 255
-0.27336 0.236706 1.002 255 255 255
-0.315374 0.108011 1.378 255 255 255
0.166597 0.655021 1.991 255 255 255
-0.605254 -0.891301 2.469 255 255 255
0.626647 0.249918 2.099 255 255 255
-1.08906 -0.774075 2.519 255 255 255
-0.482436 -0.78013 2.499 255 255 255
-0.524621 -0.328062 1.923 255 255 255
0.212186 0.537885 2.158 255 255 255
0.0514866 -0.93714 2.55 255 255 255
0.299199 -0.557803 2.768 255 255 255
-0.7335 -0.779168 2.509 255 255 255
-0.0948207 0.239221 2.037 0 0 0
0.894273 0.343619 2.151 255 255 255
0.664334 0.0976312 2.057 255 255 255
-0.258124 0.227982 1.06 0 0 0
-0.168941 0.360444 0.93 255 255 255
0.486726 -0.899031 2.684 255 255 255
-0.221581 -0.172413 2.044 255 255 255
-0.327791 0.255424 0.917 255 255 255
-0.460447 0.331978 0.902 0 0 0
0.702444 0.604485 1.923 255 255 255
-0.474898 0.0765866 1.419 255 255 255
0.455484 0.439587 2.286 255 255 255
-0.474028 0.0886983 1.357 255 255 255
0.727752 0.384451 1.966 255 255 255
0.792053 0.438611 2.024 255 255 255
0.888742 -0.0954232 1.842 255 255 255
-0.521165 -0.299245 1.899 255 255 255
-0.537967 0.133448 1.278 255 255 255
0.559463 -0.401913 2.719 255 255 255
-0.202983 0.00566474 1.607 255 255 255
0.69063 -0.482567 1.81 255 255 255
-0.582155 -0.0976743 1.774 255 255 255
-1.16524 -0.725762 2.626 255 255 255
0.886758 -0.140739 1.929 255 255 255
-0.21976 0.101902 1.559 255 255 255
-0.1636 0.260085 1.247 255 255 255
0.607992 -0.111785 1.972 255 255 255
0.878826 -0.0800865 1.905 255 255 255
0.0726652 -0.107684 2.898 255 255 255
0.113979 0.514063 2.303 255 255 255
0.64225 -0.152491 1.959 255 255 255
-0.287694 -0.284923 2.166 255 255 255
-0.233419 0.0643771 1.637 255 255 255
-0.439157 0.21281 0.997 255 255 255
-0.0116433 -0.470001 2.755 255 255 255
0.078417 -0.526272 2.768 255 255 255
0.611555 -0.29311 2.695 255 255 255
0.0356967 0.67959 1.923 255 255 255
0.576179 -0.374623 1.859 255 255 255
0.339357 -0.941183 2.561 255 255 255
0.733498 0.0497802 2.017 255 255 255
-0.194412 0.215114 1.333 255 255 255
0.318598 0.127423 2.78 255 255 255
-0.642213 -0.0128456 1.633 255 255 255
0.600591 -0.458493 2.204 255 255 255
0.927205 0.402855 1.859 255 255 255
0.468367 0.564838 2.064 255 255 255
0.0537076 -0.800089 2.66 255 255 255
0.622176 0.213154 2.107 255 255 255
0.163418 -0.759263 2.684 255 255 255
-0.227621 0.126828 1.494 255 255 255
-0.395604 -0.144325 1.935 255 255 255
-0.68673 -0.132536 1.739 255 255 255
0.113033 0.0346002 2.967 255 255 255
0.704967 -0.449107 1.794 255 255 255
-0.0449775 0.702873 1.893 255 255 255
0.591922 0.394149 2.085 255 255 255
-1.09757 -0.540191 2.638 255 255 255
0.643831 -0.219898 1.935 255 255 255
0.626258 -0.206306 2.312 255 255 255
-0.306029 0.193403 1.041 255 255 255
-0.668709 -0.0558055 1.729 0 0 0
0.648289 0.420343 1.911 255 255 255
-0.0545052 -0.256963 2.294 255 255 255
0.795344 0.000538338 1.991 255 255 255
0.605205 -0.326025 1.893 255 255 255
0.0576852 -0.138706 2.857 255 255 255
-0.42111 0.288698 0.909 255 255 255
-0.268974 -0.757679 2.519 255 255 255
-0.0494874 -0.261382 2.236 255 255 255
0.142111 -0.560221 2.78 255 255 255
0.78603 0.0268039 2.017 255 255 255
-0.827703 0.0185537 1.591 255 255 255
0.695783 0.157424 2.051 255 255 255
-0.504206 -0.23819 1.905 255 255 255
0.657621 0.423453 1.911 255 255 255
-0.518074 -0.262162 1.899 255 255 255
0.876748 -0.0504601 1.842 255 255 255
-0.465146 -0.206017 1.923 255 255 255
-1.17303 -0.833398 2.55 255 255 255
-0.762788 -0.0187054 1.682 255 255 255
0.144883 0.608573 2.099 255 255 255
-0.391718 -0.249778 1.947 255 255 255
-0.0496204 0.422035 2.42 255 255 255
0.445947 0.463022 2.22 255 255 255
0.186242 0.666808 1.959 255 255 255
0.601424 -0.822826 2.181 255 255 255
0.201844 -0.479239 2.731 255 255 255
0.783137 -0.209799 1.929 255 255 255
-0.138667 0.394434 1.044 255 255 255
-0.302473 0.252249 0.95 255 255 255
-0.220662 0.308378 1.046 255 255 255
0.807618 0.0434941 2.03 255 255 255
-0.493951 -0.0621079 1.748 255 255 255
0.0798335 -0.366103 2.818 255 255 255
0.539686 -0.0416604 2.898 255 255 255
0.504202 0.162332 2.684 255 255 255
-0.0317077 0.130547 2.953 255 255 255
-0.663569 -0.169312 1.799 255 255 255
-0.923009 -0.408035 2.347 255 255 255
-0.349938 0.324279 0.901 255 255 255
-0.225626 0.327142 0.952 255 255 255
0.651817 -0.177995 1.959 255 255 255
0.0791253 -0.440122 2.793 255 255 255
0.792157 -0.344467 1.876 255 255 255
-0.424785 0.336351 0.898 255 255 255
-0.296301 -0.202333 2.078 255 255 255
0.605175 -0.854898 2.347 255 255 255
-0.111784 -0.616961 2.582 255 255 255
-0.548986 -0.194175 1.899 255 255 255
0.704636 -0.181547 1.929 255 255 255
-0.198955 -0.153724 2.017 255 255 255
-0.277627 -0.661954 2.561 255 255 255
0.608149 -0.543504 2.719 255 255 255
-0.363044 -0.0269169 1.682 255 255 255
-0.48792 -0.594271 2.593 255 255 255
0.369897 0.476787 2.286 255 255 255
-0.208301 -0.41148 2.261 255 255 255
0.413233 0.218514 2.479 255 255 255
-1.04696 -0.364643 2.44 255 255 255
0.445455 0.393796 2.392 255 255 255
-0.742447 -0.358187 2.004 255 255 255
0.205832 0.0493332 2.982 255 255 255
0.310999 0.474233 2.347 255 255 255
0.525979 0.324795 2.459 255 255 255
0.644755 0.0259087 2.582 255 255 255
-0.357757 -0.791417 2.509 255 255 255
-0.423853 -0.452231 2.42 255 255 255
-1.18211 -0.946864 2.499 255 255 255
0.328784 0.458627 2.365 255 255 255
-0.430959 -0.0653241 1.758 255 255 255
-0.199552 -0.176857 2.057 255 255 255
0.384809 0.104351 2.768 255 255 255
-0.104875 -0.336697 2.253 255 255 255
0.592885 -0.265475 1.923 255 255 255
0.587914 0.487174 1.917 255 255 255
0.00174808 -0.787103 2.66 255 255 255
0.371883 0.248757 2.42 255 255 255
0.132095 0.163497 2.857 255 255 255
-0.201531 0.359707 0.948 255 255 255
0.863439 0.146462 2.085 255 255 255
-0.342465 0.136376 1.286 255 255 255
-0.0365146 0.106519 2.953 255 255 255
-0.482916 0.130546 1.27 255 255 255
-0.533582 0.163676 1.128 255 255 255
-0.389051 -0.0810324 1.789 255 255 255
-0.51868 0.207943 0.997 255 255 255
0.556632 -0.442549 1.815 255 255 255
0.631601 0.415424 1.917 0 0 0
0.444851 -0.880787 2.695 255 255 255
-0.317215 -0.247946 2.151 255 255 255
0.881507 -0.440998 1.739 255 255 255
0.769356 -0.0762523 1.966 255 255 255
0.544863 -0.460694 2.78 255 255 255
-0.765991 -0.0957472 1.739 255 255 255
-0.211403 0.233547 1.291 255 255 255
0.185348 0.411078 2.402 255 255 255
0.671138 0.0303846 2.037 255 255 255
0.638071 -0.296474 2.572 255 255 255
0.689421 0.694336 1.784 255 255 255
-0.497388 0.130546 1.27 255 255 255
-0.46163 0.292412 0.916 255 255 255
0.770626 -0.161559 1.953 255 255 255
0.911449 0.0592429 2.004 255 255 255
0.893918 -0.174959 1.859 255 255 255
0.891865 -0.0695812 1.794 255 255 255
0.770991 -0.428362 1.805 255 255 255
