ply
format ascii 1.0
comment Created by Open3D
element vertex 1363
property double x
property double y
property double z
property uchar red
property uchar green
property uchar blue
end_header
0.632003 0.42519 1.563 104 105 94
-0.222919 -0.235904 1.108 132 127 125
0.845949 0.218535 1.887 93 95 84
-0.255955 -0.423807 1.409 165 162 157
-0.114372 -0.103667 2.374 10 9 16
-0.130027 0.150308 0.607 182 181 185
0.551069 -0.11925 1.887 29 13 6
-0.148699 -0.00253365 0.849 172 165 174
0.0686138 0.471318 1.484 94 89 85
0.741035 -0.482805 1.659 32 12 4
0.302548 0.263361 1.815 125 122 119
-0.326461 -0.515438 1.524 177 172 170
-0.147181 0.012306 0.825 171 167 172
0.606924 -0.404209 1.739 32 12 4
0.534394 -0.522044 2.099 16 20 15
-0.185719 -0.446187 1.794 92 84 81
0.607123 0.000513462 1.899 50 43 26
-0.144759 -0.746726 2.43 86 78 77
-0.159744 0.28952 1.831 84 74 72
-0.0429547 0.515331 1.419 93 89 82
-0.148762 -0.141861 1.12 156 152 157
-0.423491 -0.194366 1.068 167 164 159
-0.112172 0.139368 0.855 153 144 151
-0.12415 0.125456 0.321 69 65 54
0.424702 -0.682529 2.499 81 73 70
0.614727 -0.450137 1.668 30 11 5
-0.119738 0.223757 0.6 100 108 105
0.265478 -0.0302893 2.107 10 10 10
-0.115147 0.140501 1.002 128 124 129
0.535928 -0.601424 2.189 22 24 15
0.195283 0.414683 1.591 95 88 82
0.50547 -0.486097 2.121 35 31 22
0.263643 0.324974 1.734 86 81 79
-0.669543 -0.651539 1.899 172 171 175
-0.20598 -0.111824 0.984 192 188 191
0.0811765 0.364772 1.696 97 89 86
-0.111774 0.40704 1.612 88 88 84
-0.255191 0.0866263 0.597 176 182 182
0.61929 -0.513697 1.637 38 13 4
0.200131 -0.714394 2.54 95 85 83
-0.149746 0.271599 1.893 86 76 76
-0.287348 -0.0427235 0.88 197 196 196
-0.12873 0.085285 0.349 108 80 77
0.454419 0.0530625 2.017 28 17 12
0.559651 0.369972 1.682 96 94 86
0.174947 -0.414835 2.66 16 15 19
-0.110671 0.182111 0.65 115 118 121
0.525458 -0.609058 1.587 39 17 7
-0.325969 -0.110688 0.974 198 197 201
0.0575844 0.432112 1.579 90 88 78
-0.118134 0.100243 0.96 128 125 122
0.579166 -0.580122 1.607 42 17 0
0.135339 -0.752705 2.489 97 89 86
0.52962 -0.317077 1.774 25 10 0
0.500507 0.098022 1.763 115 108 102
-0.287907 0.119468 0.564 186 192 194
0.598193 -0.580741 1.616 41 17 1
-0.202434 -0.40636 1.543 137 132 130
-0.116775 0.0430085 0.848 137 127 137
-0.135025 -0.710496 2.469 88 80 79
-0.118106 0.0701044 0.767 169 165 170
0.325953 -0.881176 2.43 96 88 85
-0.260786 0.133874 0.559 171 176 183
0.162585 0.103433 2.107 122 118 123
0.438238 -0.146163 2.374 29 15 9
0.3652 0.531943 1.39 89 89 85
-0.209597 -0.635453 2.057 86 78 75
-0.913563 -0.718303 1.972 171 172 168
-0.258776 -0.113784 0.96 194 193 197
-0.221749 -0.0195048 0.808 200 196 201
0.213515 -0.886057 2.411 99 95 88
0.510602 -0.809756 2.128 29 22 12
0.867272 -0.27342 1.7 99 99 95
0.598852 0.457751 1.487 104 105 99
-0.0607274 -0.0577418 2.392 12 13 9
0.406106 -0.43335 2.615 64 57 51
0.24397 0.0893774 2.099 29 13 10
-0.272507 -0.0658094 0.902 202 198 201
-0.212319 -0.31812 2.684 21 17 6
-0.127933 0.0921946 0.698 175 169 175
-0.270446 0.0932916 0.59 173 155 92
-0.133712 0.0902785 0.34 86 46 22
-0.173298 -0.00504729 0.809 186 180 186
-0.292178 -0.132506 0.983 197 193 196
0.133286 0.122299 2.078 106 100 104
-0.206877 0.103765 0.595 143 136 130
0.498605 -0.760296 2.078 45 34 29
0.114618 -0.757749 2.479 99 91 88
0.787293 0.352498 1.677 101 103 94
0.0238643 0.436786 1.559 94 89 85
-0.118207 0.0178383 0.901 127 123 124
0.644649 0.483616 1.47 104 102 94
0.775144 0.172096 1.917 56 54 44
0.851932 -0.121006 1.821 90 92 76
-0.773093 -0.465413 1.539 164 170 172
0.243549 0.374806 1.655 94 89 85
-0.453592 -0.0827187 0.927 196 203 209
-0.0646211 -0.0499567 2.392 38 42 35
-0.431983 -0.30703 1.203 33 121 113
0.135777 -0.869678 2.356 104 94 92
-0.274214 -0.468468 1.47 172 165 159
0.589297 -0.621469 1.599 45 16 6
-0.369476 -0.226069 1.104 114 118 113
0.357438 0.380804 1.646 96 94 84
-0.105045 0.260447 0.969 142 142 146
0.301147 0.3692 1.691 96 94 84
-0.254305 0.103149 0.586 124 122 114
-0.323544 0.0576346 0.642 192 199 203
0.511787 -0.21514 2.411 15 12 7
0.356888 0.0788099 2.004 143 143 147
0.188975 -0.828286 2.449 101 92 87
-0.470185 -0.268454 1.139 68 136 133
0.224474 -0.805361 2.489 97 92 88
0.539861 -0.568608 2.107 15 15 15
-0.124673 0.122844 0.321 22 12 0
-0.464834 -0.280469 1.158 9 113 109
-0.290004 -0.203504 1.089 167 159 158
-0.170641 0.303258 1.789 93 90 87
-0.993333 -0.781209 2.01 167 168 139
-0.427294 -0.41305 1.283 17 99 107
0.215969 0.476148 1.484 99 95 86
0.26864 0.442117 1.551 97 94 89
0.0290569 -0.870363 2.411 105 95 93
0.771953 -0.600137 1.633 36 12 0
0.513484 -0.656292 2.347 16 9 1
-0.391845 -0.277623 1.154 130 160 163
-0.467311 -0.56311 1.673 158 154 155
-0.226804 -0.123909 0.991 195 191 196
0.474986 0.412094 1.591 108 106 98
-0.406492 -0.123748 0.977 193 196 197
-0.159551 0.310327 1.763 90 82 81
-0.516838 -0.254815 1.104 24 132 122
-0.147888 0.122861 0.317 31 22 17
-0.174951 -0.24053 1.899 90 80 78
0.154925 0.517384 1.412 97 90 84
0.510871 -0.488166 1.831 31 18 7
0.364077 -0.682761 2.53 89 80 75
-0.286908 0.0221134 0.709 196 196 196
0.351286 -0.462256 2.684 78 69 64
-0.147896 -0.128587 1.1 156 149 158
0.68017 0.502684 1.429 94 102 91
0.809115 -0.329551 1.779 38 42 37
-0.218296 -0.117221 0.989 195 191 196
-0.139165 0.0688145 0.727 171 167 170
-0.290543 -0.499216 1.505 173 168 166
0.53097 -0.314832 2.228 20 18 10
-0.407398 -0.587612 1.673 172 168 161
-0.13894 0.00023172 0.857 169 165 170
0.591667 -0.0921955 1.899 33 13 3
-0.281967 0.0917054 0.586 136 115 84
-0.38782 -0.344797 1.27 19 51 69
-0.26892 0.125237 0.557 184 187 190
-0.85333 -0.694441 1.959 161 167 169
-0.157915 -0.0870797 0.994 161 160 162
0.431007 0.43282 1.563 111 109 99
-0.198481 -0.00849638 0.764 199 195 196
-0.432138 -0.243116 1.108 176 176 176
-0.149621 0.116488 0.627 173 173 177
-0.203541 -0.494973 2.03 81 76 72
0.573515 0.446942 1.516 96 97 88
-0.423575 -0.665127 1.763 172 169 166
0.754094 -0.317971 1.779 33 11 1
-0.290423 0.128645 0.56 190 197 203
0.349907 0.130431 1.947 148 143 141
0.358726 -0.195523 2.411 37 14 9
0.394304 0.0214334 2.136 19 19 13
0.074265 -0.753715 2.479 95 90 88
-0.37681 -0.334331 1.254 155 170 167
-0.127358 0.212363 0.577 111 127 135
0.644371 0.356492 1.696 98 103 93
0.862974 -0.0135221 1.719 99 96 93
-0.131844 0.198883 0.568 124 126 132
-0.306933 0.070992 0.613 192 203 203
-0.111687 0.111967 0.337 54 24 8
-0.141343 0.0225435 0.807 170 166 171
0.122318 0.3775 1.655 99 88 81
0.721574 -0.283487 1.799 27 13 0
-0.106248 -0.605165 2.55 78 69 62
0.82056 -0.0314617 1.966 53 39 22
0.858571 -0.105547 1.81 91 93 82
0.268472 0.407939 1.595 100 95 91
-0.185913 -0.5661 2.561 77 66 61
0.857215 -0.264828 1.753 96 94 84
0.197483 -0.503671 2.672 68 64 57
0.110647 0.404768 1.603 94 89 85
0.0514047 -0.16039 2.356 22 9 15
-0.127629 0.0523901 1.143 119 113 117
0.725423 0.36919 1.642 101 103 94
0.129575 -0.138961 2.383 15 5 5
-0.20369 -0.229157 1.185 161 160 162
0.50194 -0.00584619 1.959 29 11 2
0.641917 -0.365992 1.719 32 10 2
-0.0355424 -0.305186 2.54 53 32 19
-0.316975 -0.0684359 0.938 203 202 204
-0.0396315 0.372322 1.668 94 87 81
-0.108098 0.196045 0.725 146 146 142
-0.192933 -0.24327 1.227 161 155 159
0.825253 -0.20398 1.821 77 73 66
-0.0013618 0.527785 1.403 91 88 85
-0.129167 0.0533483 1.124 117 113 118
0.386008 0.368873 1.677 94 90 83
0.0219817 -0.670329 2.499 84 75 68
-0.655308 -0.425229 1.445 176 176 180
-0.298775 -0.680758 1.789 176 171 167
0.506898 -0.355863 1.991 62 49 27
-0.177821 0.120225 0.595 189 189 193
-0.414742 -0.0381382 0.842 196 202 204
0.356407 -0.896037 2.449 94 86 85
0.238709 0.423971 1.587 104 96 93
0.440241 0.30172 1.763 102 97 93
0.823508 0.0654097 1.899 87 64 45
-0.109935 0.291673 0.789 106 105 105
0.661721 0.360685 1.677 107 104 99
-0.134008 -0.0989466 1.089 132 122 134
-0.28629 -0.234626 1.102 87 106 108
0.607601 0.475015 1.473 107 105 97
-0.280097 0.137184 0.554 191 199 200
-0.112332 0.378412 1.659 84 79 77
-0.179795 -0.526757 2.593 74 66 65
0.521073 -0.455345 1.959 20 21 15
-0.16537 0.0383688 0.733 188 184 185
0.138818 0.293243 1.799 95 86 81
0.466018 0.3518 1.7 111 107 98
-0.280814 0.0734633 0.617 194 197 200
-0.146903 0.156836 0.58 171 171 173
0.533829 -0.493601 1.959 22 20 10
0.447658 -0.154473 2.383 33 14 10
0.510556 0.180541 1.729 82 85 84
-0.147303 0.0874703 0.342 83 54 40
0.229109 0.340919 1.729 94 90 83
0.640643 0.430907 1.547 99 94 90
0.452097 -0.826486 2.269 18 9 12
-0.140171 0.102059 0.323 72 36 24
-0.193559 -0.110447 0.986 190 189 193
-0.141904 -0.720682 2.449 88 80 79
-0.167382 0.106419 0.33 88 87 98
0.15941 -0.708907 2.55 94 86 83
0.646099 -0.0526791 1.923 31 12 6
0.087982 -0.516579 2.649 75 64 59
-0.268342 -0.413568 1.39 164 162 150
-0.332359 -0.00103535 0.763 195 195 195
-0.0829832 0.528557 1.393 79 74 70
0.410848 -0.748655 2.489 86 79 71
0.6261 -0.4978 1.655 34 11 6
0.206191 0.496614 1.466 97 96 81
0.567205 -0.48426 1.664 40 10 3
-0.266043 -0.0656635 0.9 200 196 199
-0.176319 -0.435765 2.604 48 44 47
0.768053 0.282472 1.805 96 94 82
0.494536 0.416694 1.579 107 105 95
0.735263 -0.335187 1.748 32 10 0
-0.259817 -0.286617 1.16 175 174 174
-0.142358 0.102791 0.322 67 31 19
-0.0456811 -0.767282 2.42 103 94 89
0.581792 -0.5483 1.629 42 16 5
-0.167196 -0.122051 2.356 34 29 37
0.0101028 -0.348048 2.582 66 30 32
0.544132 0.174172 1.668 66 59 53
0.561863 0.00969676 1.882 102 102 102
0.70284 -0.185349 1.842 36 12 0
-0.129403 0.10359 0.676 170 169 173
-0.127795 0.0873059 0.348 82 48 36
-0.155096 0.129373 0.597 178 178 182
-0.950798 -0.771396 2.01 167 168 162
-0.258718 -0.0656635 0.9 196 195 197
-0.103867 0.187279 0.782 147 142 150
0.46262 -0.786402 2.303 15 5 3
-0.113213 0.097567 0.363 83 52 50
0.346308 0.195891 1.876 102 111 104
0.197674 0.502705 1.456 98 94 83
-0.374611 -0.0501496 0.86 197 199 205
0.844265 -0.105217 1.911 76 76 70
-0.29794 -0.675953 1.784 169 164 160
-0.13356 0.161044 0.592 178 177 184
0.533941 0.359252 1.696 96 97 88
0.751634 -0.36182 1.753 31 13 4
-0.136516 -0.0223669 2.356 75 67 66
-0.23274 -0.556688 1.774 144 139 137
0.523319 -0.144928 2.181 8 11 10
-0.189149 -0.323088 1.39 143 143 139
-0.503462 -0.19958 1.068 182 183 179
-0.044473 -0.133553 2.356 55 50 48
0.861497 0.000461007 1.705 93 97 92
0.750727 -0.134604 1.887 28 13 3
-0.153025 -0.00806955 0.85 177 171 177
0.246651 0.349119 1.714 98 93 91
0.116976 -0.695113 2.53 95 86 81
-0.331332 0.00389004 0.755 188 188 188
-0.194992 -0.774667 2.01 87 87 83
-0.259946 0.084967 0.599 186 186 190
0.793754 -0.421189 1.739 14 14 8
0.185674 0.335363 1.744 88 80 77
-0.41784 -0.343982 1.267 2 41 57
0.238848 0.515331 1.419 87 88 75
-0.465912 -0.281866 1.156 6 108 103
0.138294 0.470047 1.48 92 89 84
0.703413 0.285409 1.805 118 66 44
-0.107023 0.18039 1.085 104 100 105
-0.109923 0.177174 2.01 88 81 73
0.302718 0.136619 1.991 131 127 130
-0.116604 0.262637 0.672 91 91 91
-0.314088 -0.0584558 0.925 203 202 202
0.304133 -0.220397 2.383 13 10 7
0.826598 -0.170175 1.719 96 94 84
0.862875 0.310491 1.686 107 112 102
-0.343743 0.0468538 0.667 190 198 199
-0.194113 -0.812052 2.107 85 84 88
-0.142014 0.0886186 0.34 87 58 33
0.450562 -0.489256 2.53 18 11 3
-0.170605 0.119844 0.33 66 55 61
-0.603272 -0.475986 1.509 161 163 152
-0.350294 0.0096744 0.728 92 90 99
-0.403644 -0.176883 1.057 195 195 191
-0.105805 0.294672 1.826 90 83 77
-0.109983 0.103459 0.349 55 27 10
-0.136666 -0.641862 2.499 83 72 65
-0.121738 0.0956036 0.715 180 174 180
0.0730836 0.157078 2.004 58 57 59
0.305196 0.37775 1.668 95 90 88
-0.0232296 -0.559518 2.55 78 69 60
-0.174119 -0.156656 1.096 166 165 169
0.842664 0.236814 1.729 104 105 101
0.787115 0.393349 1.599 98 102 95
-0.00979382 0.367993 1.673 93 85 82
-0.162178 0.116117 0.609 177 176 176
0.20388 0.292878 1.779 78 71 63
0.0105881 0.239973 1.911 93 85 84
-0.133439 -0.75377 2.44 89 81 78
-0.191641 -0.482505 2.582 70 62 59
-0.363946 -0.546888 1.579 171 166 164
-0.217649 -0.25688 1.137 138 134 137
0.500547 -0.462551 1.714 38 14 0
0.818392 -0.334399 1.774 56 57 48
-0.801633 -0.751815 2.064 153 153 153
-0.254593 -0.279184 1.145 179 176 173
-0.164011 -0.142908 1.1 161 155 159
0.00701953 0.307025 1.794 98 89 84
0.81123 0.310866 1.734 102 103 99
0.509083 -0.618563 1.753 42 16 16
-0.346274 -0.284061 1.165 77 147 143
-0.337247 -0.0112561 0.783 193 199 201
-0.779891 -0.747079 2.051 153 153 153
0.459259 0.319065 1.748 109 105 96
-0.205065 -0.0349354 0.831 198 192 194
0.799421 0.383642 1.624 99 103 96
-0.343797 -0.388314 1.291 0 96 104
0.483509 -0.332804 2.53 10 5 1
0.0106379 0.478563 1.484 87 79 76
-0.0892925 -0.602792 2.54 81 72 67
-0.11641 0.18955 0.603 123 121 128
0.629649 -0.335194 1.763 30 12 3
-0.208904 -0.610825 2.44 80 73 67
0.35796 0.517474 1.406 84 88 81
0.285763 0.246452 1.821 109 98 104
-0.139939 0.117788 0.634 174 173 173
0.50797 -0.419818 1.769 32 12 4
0.676969 0.0856706 1.805 86 83 78
-0.404806 -0.0204331 0.793 144 156 158
0.546104 -0.182081 1.87 31 13 2
-0.370604 -0.0562013 0.867 197 197 199
-0.268184 0.123358 0.565 185 192 196
0.753388 0.424449 1.551 100 101 97
-0.326058 -0.0261114 0.809 200 200 202
-0.347862 -0.208437 1.087 181 179 171
-0.14902 0.107782 0.642 177 173 176
-0.336134 -0.0364187 0.834 200 203 206
-0.386574 -0.0520286 0.868 196 201 206
-0.129499 0.189775 0.574 154 159 164
-0.318327 -0.0733266 0.942 201 200 200
0.403051 0.294524 1.789 108 101 93
-0.0176946 -0.237976 2.365 64 28 30
-0.128691 0.511792 1.422 76 70 74
0.88932 -0.086196 1.837 88 92 87
0.758662 -0.562933 1.633 40 13 5
-0.361992 0.0285856 0.698 41 61 87
-0.164339 0.120302 0.324 63 49 41
0.782115 0.412472 1.563 97 104 98
-0.116704 0.123317 0.325 83 83 77
-0.243506 -0.024182 0.789 192 188 191
0.327262 0.287939 1.821 84 85 74
-0.108167 0.118349 0.338 67 56 47
0.223126 0.386285 1.624 92 88 81
0.551069 -0.15917 1.887 31 13 4
-0.187886 0.179906 2.004 91 85 89
-0.898448 -0.745229 2.01 118 115 110
-0.166258 0.0735341 0.644 178 167 171
0.445042 0.534078 1.378 94 98 91
-0.144784 -0.0724449 1.278 109 103 107
0.0708331 0.446673 1.532 100 92 89
-0.290159 0.130441 0.556 190 197 201
0.681536 0.530093 1.362 102 105 106
-0.166034 0.101713 2.143 87 77 77
-0.129069 0.0933305 0.698 172 166 172
-0.564972 -0.660338 1.821 170 167 162
-0.18363 -0.124215 1.02 183 179 182
0.829002 -0.423167 1.724 81 82 73
-0.143029 0.0873463 0.678 179 175 178
-0.405316 -0.123875 0.978 192 195 196
-0.163622 0.105857 0.607 121 114 106
-0.313897 -0.168799 1.039 197 193 198
0.535795 0.200229 1.659 54 53 53
0.428798 -0.813951 2.43 84 82 74
-0.151829 0.095231 0.336 77 44 27
0.0754633 -0.622404 2.519 80 73 67
0.603128 0.442008 1.516 106 106 102
0.199455 0.420326 1.583 100 91 84
-0.222712 -0.253952 1.116 158 153 151
-0.332598 -0.0853176 0.939 201 200 202
0.730555 0.341682 1.691 106 104 92
0.210456 0.15261 1.947 23 23 27
0.284158 -0.897827 2.411 98 93 89
0.584278 -0.390059 1.739 36 11 2
-0.528681 -0.661633 1.769 172 172 172
-0.192302 -0.348458 2.649 14 13 13
0.499355 0.331571 1.739 92 89 84
-0.469309 -0.133037 0.999 196 202 204
-0.107984 0.301632 0.775 125 125 127
-0.118731 0.0252811 0.905 125 119 121
-0.252231 -0.247168 1.11 162 162 164
0.651174 0.368721 1.664 104 105 96
0.600896 -0.133391 1.87 37 12 3
0.502023 -0.657477 2.365 11 4 0
0.572075 -0.557188 1.624 42 16 5
0.492852 0.501518 1.439 105 107 98
0.866807 -0.275028 1.71 100 97 92
-0.145517 0.107236 0.645 177 173 176
0.527088 -0.658162 1.815 42 22 14
0.463956 0.0302802 2.03 34 15 9
-0.144737 -0.0801818 2.365 10 14 9
-0.164192 0.0840054 0.636 175 166 161
0.699941 0.433928 1.567 91 98 90
0.466127 0.45048 1.528 106 101 97
-0.22592 -0.328059 1.302 155 149 153
0.031381 -0.0292445 2.294 20 18 25
-0.302195 -0.579542 1.62 156 150 152
-0.102383 0.298091 0.832 146 146 150
0.624789 -0.00256055 1.887 27 14 1
0.246699 -0.762837 2.509 92 87 83
0.354802 -0.831128 2.411 91 88 83
0.195381 0.0698345 2.128 99 29 33
0.594822 0.443175 1.52 107 103 104
0.684737 0.147763 1.81 94 90 91
0.424795 0.00776919 2.204 8 12 5
-0.111179 0.281651 0.869 129 124 122
-0.167851 -0.0613999 0.924 182 178 181
-0.0150385 0.167361 2.01 91 87 90
-0.535755 -0.229304 1.077 78 105 100
-0.267225 -0.0674264 0.904 199 195 196
0.112367 -0.675694 2.519 96 86 86
0.0825267 0.515391 1.432 94 91 86
0.506045 -0.354335 2.479 20 16 7
-0.126443 -0.212642 2.383 27 15 26
-0.133955 0.120798 0.317 22 9 17
-0.242163 -0.101777 0.95 195 194 198
0.464421 -0.328547 2.561 9 5 0
-0.157804 0.153613 0.575 185 188 189
-0.161357 0.0877296 0.633 178 170 169
-0.150624 0.0594506 0.714 182 181 183
-0.22528 0.0969869 0.595 180 174 176
-0.388445 -0.247613 1.112 180 181 177
0.043228 0.351155 1.724 99 92 86
0.770292 0.22682 1.905 87 84 68
0.422619 -0.781565 2.44 82 79 74
0.718827 -0.379375 1.729 27 14 3
-0.00995703 -0.145054 2.356 39 38 40
-0.150734 0.200065 0.546 115 121 123
0.600989 0.0952976 1.714 116 116 116
-0.957342 -0.771396 2.01 165 169 162
0.844568 0.0297621 1.799 98 89 80
0.842947 0.234396 1.753 105 106 95
0.795687 -0.163272 1.899 15 11 4
0.818392 -0.348833 1.774 55 57 48
0.600012 0.501409 1.432 103 108 98
0.849762 0.231309 1.842 102 104 93
-0.143023 0.195784 0.554 157 167 170
-0.247734 -0.681636 1.799 173 168 164
0.560446 -0.341851 1.753 30 12 1
-0.634888 -0.593807 1.826 139 145 145
-0.366803 0.0106503 0.714 86 95 88
-0.36946 -0.0859267 0.913 195 198 199
0.656889 0.513992 1.409 94 97 96
0.248187 0.530746 1.381 86 88 79
0.857378 0.299784 1.719 109 109 105
0.176264 0.41775 1.583 91 81 79
-0.0852508 0.528557 1.393 78 74 75
-0.118054 0.226538 1.929 92 85 79
-0.329409 -0.190037 1.073 135 127 126
0.601689 0.295045 1.724 94 37 7
-0.0265977 0.0915916 2.151 49 40 43
-0.15647 0.206542 1.978 86 76 74
0.266465 0.324974 1.734 87 82 80
-0.239598 0.130253 0.567 196 196 198
0.307681 0.422902 1.583 96 94 86
-0.239457 -0.0558016 0.883 196 192 197
0.600951 -0.335194 1.763 31 11 1
-0.187464 -0.216669 1.18 160 159 163
-0.38505 -0.0275975 0.814 191 194 195
0.473867 -0.456601 2.303 37 20 20
-0.1829 -0.047736 0.867 193 189 194
0.833404 0.262039 1.71 103 104 98
-0.188488 0.113839 0.592 196 196 198
0.489192 0.0841992 1.774 107 98 101
0.726795 0.185637 1.865 61 53 52
-0.677033 -0.439453 1.477 166 169 172
0.688281 0.486119 1.456 100 104 99
-0.458812 -0.267536 1.143 149 171 172
0.848609 0.23921 1.789 105 107 94
0.785826 0.313687 1.734 98 98 98
-0.0102275 -0.271077 2.42 69 29 30
-0.371677 -0.11703 0.961 197 200 201
0.44411 -0.720682 2.449 55 43 43
0.602991 0.28144 1.744 93 37 11
-0.736488 -0.630769 1.865 165 165 165
0.277591 0.157477 1.929 99 91 90
0.665217 -0.228624 1.805 31 10 5
0.507631 -0.61111 1.748 38 17 16
0.0189891 -0.426052 2.649 27 21 23
-0.0665506 0.197582 1.985 93 85 84
-0.112392 0.120208 0.331 116 112 101
0.374425 -0.79974 2.411 90 87 82
0.138947 -0.791893 2.411 102 92 92
-0.130061 0.0867396 0.348 84 53 42
0.616264 -0.569507 1.629 36 14 4
0.623811 0.508193 1.412 103 101 93
0.691839 -0.0834486 1.911 33 15 6
-0.295664 -0.116665 0.958 197 196 198
0.573461 0.0243322 1.831 120 120 116
-0.149886 0.14656 0.588 175 175 179
-0.0180387 -0.815434 2.411 105 95 93
-0.1208 0.117019 0.671 176 175 177
0.127012 0.396547 1.612 97 90 84
0.141176 0.388928 1.624 101 93 90
-0.166945 0.122105 0.326 58 49 40
0.595211 0.0349045 1.763 133 136 135
0.484266 -0.815727 2.181 40 32 20
0.706913 -0.187836 1.837 35 10 1
-0.16096 0.127856 0.59 188 188 192
0.705544 -0.151244 1.865 33 12 0
0.278937 -0.831032 2.469 98 86 84
-0.204983 -0.209107 1.149 162 151 157
-0.196204 -0.796129 2.057 88 87 89
0.534358 -0.200982 2.212 17 22 12
0.313616 0.0684234 2.085 22 22 22
-0.112646 0.114631 0.79 113 107 111
-0.449714 -0.0770122 0.913 198 206 207
-0.188071 -0.363213 1.47 136 132 135
0.510308 -0.126646 2.057 10 13 12
-0.1919 -0.52631 2.53 71 68 65
0.774536 -0.417156 1.734 28 12 9
0.414735 0.387475 1.629 105 96 87
0.313318 0.396547 1.612 99 97 89
-0.112396 0.146938 0.673 122 121 123
0.367752 -0.279926 2.499 97 37 37
-0.395835 -0.104206 0.944 194 197 198
0.663994 -0.521791 1.629 32 17 7
-0.0111554 0.471114 1.491 92 88 81
0.570782 0.478709 1.477 100 101 97
-0.143115 0.138269 2.064 87 77 77
0.207223 -0.0377816 2.143 4 7 8
-0.338706 -0.152732 1.022 198 197 199
0.514572 0.52952 1.372 93 95 86
0.62115 -0.196161 1.831 32 12 2
-0.178939 -0.701653 1.876 156 145 140
0.192789 0.482206 1.473 100 93 87
0.488726 -0.505807 1.646 42 15 7
-0.106831 0.120906 0.339 41 21 13
-0.133997 0.0833458 0.7 169 165 170
0.385514 -0.538133 2.649 92 90 82
0.84222 -0.233069 1.794 90 90 84
-0.337442 -0.0919167 0.944 201 200 204
0.538878 -0.46894 1.677 38 11 5
0.413671 -0.882133 2.411 87 83 76
0.23368 0.53739 1.375 90 82 79
-0.268009 -0.225085 1.108 38 44 55
-0.163988 0.143818 0.577 185 188 191
0.312209 -0.645903 2.649 83 79 72
0.389505 0.176102 1.893 41 29 42
0.773325 -0.374153 1.744 24 13 4
0.472015 -0.122572 2.294 37 16 15
0.594019 0.348304 1.71 105 102 88
-0.256563 -0.575628 1.779 137 131 135
-0.282298 -0.13954 0.999 195 194 198
-0.179815 0.120582 0.592 187 187 191
0.539904 -0.245061 2.22 23 15 12
-0.195262 0.0454277 0.695 204 200 205
-0.1349 -0.0464618 0.957 164 158 164
0.596432 0.457751 1.487 104 105 99
0.857176 -0.316001 1.691 103 104 95
-0.239628 -0.390664 1.381 142 133 138
-0.260148 0.109074 0.582 185 191 191
0.460872 0.143532 1.87 58 44 40
0.79288 0.0132408 1.953 36 34 15
-0.639763 -0.453324 1.491 165 168 169
0.616763 0.362012 1.696 103 103 97
-0.210988 -0.0102009 2.212 51 46 42
-0.494961 -0.302436 1.185 84 128 131
0.0188242 -0.396713 2.626 61 29 23
0.430152 0.466013 1.498 102 104 93
-0.938148 -0.746908 1.997 154 155 146
0.626208 0.40331 1.587 100 102 89
-0.29444 -0.166625 1.036 191 190 192
-0.366025 0.0220823 0.708 53 63 77
0.804495 0.342692 1.696 102 104 91
-0.291833 -0.036659 0.872 200 199 199
0.462061 -0.0501572 2.228 37 16 13
0.138643 0.351155 1.724 93 89 82
-0.527371 -0.232773 1.085 28 109 106
0.649738 -0.335194 1.763 26 13 2
-0.197204 0.0404022 0.706 202 198 201
0.76751 0.390087 1.607 100 102 91
0.677817 -0.551902 1.624 40 14 0
-0.163915 0.154243 0.567 160 151 156
0.0091833 -0.159778 2.347 21 17 22
-0.378934 -0.366736 1.289 0 91 113
0.237912 -0.527313 2.638 81 74 68
0.801066 -0.348833 1.774 24 25 21
-0.111024 0.185816 1.009 125 115 125
0.335238 -0.833183 2.44 96 88 85
0.657621 -0.0616798 1.911 37 11 0
0.446381 0.182841 1.899 42 46 41
0.390599 0.497871 1.442 87 86 71
0.39499 -0.4309 2.626 66 57 48
0.471 -0.512453 2.236 49 51 59
0.812489 -0.630478 1.629 57 57 61
0.846762 0.0410113 1.779 93 89 80
-0.160509 0.144067 0.578 184 187 190
0.659686 -0.0587539 1.917 37 12 5
0.688039 0.518385 1.384 98 106 93
0.0797104 0.34835 1.724 98 89 82
-0.513394 -0.28138 1.124 83 128 128
0.406183 0.499177 1.439 98 99 90
-0.113804 0.0981577 0.363 75 47 46
0.727431 -0.26885 1.799 30 13 0
-0.387613 -0.365029 1.283 0 93 108
-0.530214 -0.373412 1.305 5 129 120
0.838072 -0.514046 1.664 95 99 94
0.745503 0.397531 1.616 102 107 97
0.294037 0.491872 1.452 99 95 86
0.246899 0.50386 1.439 96 94 86
0.342386 0.374137 1.664 97 93 86
0.100073 -0.783035 2.42 100 92 89
0.516973 -0.464756 1.821 32 9 4
0.244595 0.443832 1.575 103 96 90
-0.149396 0.175435 0.561 145 144 148
0.166136 0.235578 1.876 29 42 41
-0.0281319 0.536218 1.372 87 81 83
-0.464937 -0.103169 0.963 195 201 201
-0.32006 -0.366902 1.297 117 139 80
0.500547 0.240338 1.714 52 63 59
0.465432 0.431712 1.559 107 105 95
-0.184562 0.0381044 0.706 197 193 196
-0.275492 0.13579 0.552 191 199 198
0.35394 0.287939 1.821 87 85 75
0.516765 -0.531044 1.633 30 13 0
-0.184962 0.0283542 0.721 194 188 190
0.324298 -0.754671 2.509 90 82 79
0.519776 -0.359194 2.43 13 11 3
-0.1977 -0.100451 0.967 193 187 191
0.8396 -0.209791 1.7 99 97 87
0.302984 -0.196385 2.374 23 26 25
0.453929 -0.671604 2.459 27 16 9
0.137929 0.282786 1.826 94 87 81
-0.388548 -0.0149439 0.776 107 113 126
-0.0394896 0.133336 2.092 44 40 43
0.508633 0.423728 1.567 105 102 97
-0.181397 -0.00362933 0.787 190 184 186
0.538923 -0.553645 2.064 17 28 24
0.469614 0.473733 1.484 111 112 103
0.507138 -0.505016 2.128 33 34 21
-0.445008 -0.0949891 0.944 201 204 207
-0.442947 -0.405645 1.286 3 116 100
0.00935938 -0.886859 2.392 105 100 98
0.163101 -0.806663 2.42 104 92 90
-0.194829 -0.31188 1.882 100 94 96
0.515585 -0.704139 2.092 30 31 18
-0.142785 0.294221 1.805 87 82 80
0.705498 -0.546989 1.633 38 13 4
0.487827 0.482372 1.459 103 103 97
0.542756 -0.383889 1.724 35 12 7
0.501896 -0.749865 2.196 19 11 8
0.476861 0.471318 1.484 106 106 100
-0.258518 0.130468 0.56 182 188 190
0.545767 -0.326572 2.338 17 18 9
-0.197598 0.0341733 0.72 198 197 197
-0.357182 -0.165099 1.037 197 196 196
-0.567938 -0.338397 1.239 134 157 151
0.0672625 -0.626503 2.519 79 75 68
-0.288914 0.0722244 0.615 193 199 201
0.0796874 -0.540368 2.66 73 69 62
-0.544385 -0.186495 1.053 170 176 174
-0.129344 0.167041 0.586 176 175 179
-0.197942 0.0363645 0.717 201 200 202
-0.164567 0.0970902 0.333 151 154 157
0.621147 -0.127713 1.876 35 15 7
-0.129467 -0.904656 2.44 109 100 95
0.626768 -0.617319 1.595 37 13 1
0.453344 -0.809461 2.294 19 8 3
0.0909636 0.455044 1.494 94 87 81
0.6514 -0.0647896 1.911 33 13 3
0.469651 -0.726064 2.338 15 8 0
0.56966 -0.399071 1.729 41 10 0
0.813627 -0.566036 1.642 66 74 71
0.340461 -0.864154 2.449 94 87 79
0.710429 0.38797 1.62 105 106 95
0.542756 -0.3895 1.724 33 12 7
0.865067 0.0912409 1.799 97 93 82
0.528339 -0.210123 2.158 15 15 15
0.125708 -0.313453 2.54 68 30 23
-0.155948 0.0879821 0.658 179 175 178
-0.53675 -0.231485 1.079 81 112 108
-0.142749 0.186969 0.56 163 166 169
-0.305652 -0.00986714 0.774 190 193 194
-0.134586 0.224789 1.941 87 80 74
0.523323 0.110519 1.734 114 109 107
0.483829 -0.307074 1.853 41 22 7
0.530951 -0.705467 1.972 97 51 35
0.410339 0.509661 1.429 95 96 90
0.192638 0.0666211 2.136 113 36 40
-0.45279 -0.064715 0.887 193 199 201
0.0829469 0.304106 1.794 92 87 85
0.290408 0.213523 1.87 125 119 121
0.153118 0.343733 1.729 93 84 79
0.721447 -0.554961 1.633 28 14 6
-0.0421677 0.524023 1.393 87 87 81
0.50839 -0.0624544 1.935 30 11 7
-0.30372 -0.0137868 0.782 197 197 197
0.00146418 0.0477364 2.228 81 71 69
0.533072 -0.39063 1.729 32 10 2
-0.0336114 -0.792846 2.402 107 98 93
-0.309093 0.0816317 0.596 189 197 196
-0.152086 0.100885 0.326 93 77 86
0.393551 -0.303542 2.561 66 57 52
0.248914 -0.159165 2.338 3 6 5
-0.0701865 0.314272 1.753 92 84 81
-0.161786 -0.0881619 0.988 167 166 168
0.205256 -0.397521 2.66 13 13 9
0.601828 -0.541674 1.633 39 15 3
-0.11179 0.148208 0.784 128 128 132
0.128769 -0.626503 2.519 91 82 77
-0.574623 -0.271966 1.108 47 130 133
-0.0351086 -0.742422 2.509 91 82 77
-0.232739 -0.356585 1.354 145 145 141
-0.338261 -0.088656 0.942 204 200 205
-0.259762 -0.392708 1.357 166 166 162
-0.139394 -0.0213855 1.213 112 106 110
0.734738 -0.533701 1.633 33 13 3
0.617531 0.00051184 1.893 32 13 11
-0.0510293 0.183716 2.01 94 86 83
-0.389194 -0.308816 1.21 149 168 168
-0.326217 0.063835 0.631 196 202 204
-0.129664 0.101194 0.327 80 45 42
0.00164227 -0.629662 2.499 82 75 69
0.0335014 -0.764521 2.449 103 96 90
-0.2195 -0.262431 1.137 146 140 144
-0.066423 0.386511 1.659 92 84 83
-0.134987 0.116671 0.317 39 16 15
0.495852 0.455542 1.52 105 105 99
0.770634 -0.441521 1.719 31 13 4
-0.109309 0.215313 1.941 89 79 79
-0.141469 -0.130925 1.12 146 140 144
-0.177744 0.0945565 0.598 195 187 175
0.370332 -0.756756 2.489 86 82 71
-0.157805 -0.482093 2.649 66 61 59
0.826581 -0.383174 1.696 96 96 96
-0.357569 -0.308988 1.203 31 130 126
-0.90172 -0.745229 2.01 128 125 122
0.423681 0.260408 1.815 72 65 74
0.358365 0.31112 1.784 101 94 86
-0.15471 -0.121537 1.085 156 149 160
0.00420893 0.291259 1.842 94 86 85
-0.42463 -0.366903 1.275 0 96 118
-0.137117 0.103315 0.322 68 33 16
0.670971 0.481224 1.47 105 105 99
0.843663 -0.323298 1.686 96 97 93
-0.187425 -0.309498 2.071 66 54 52
0.446491 0.348304 1.71 108 104 93
0.735019 -0.377651 1.734 31 13 4
-0.178176 -0.182293 1.145 161 160 164
-0.237348 -0.219676 1.108 166 158 155
-0.30838 -0.0191668 0.794 196 196 200
-0.358871 -0.0914729 0.924 201 201 201
0.657149 -0.309835 1.799 27 13 5
-0.134937 0.307353 1.779 87 79 76
-0.294818 0.0934529 0.585 181 166 99
0.224735 0.523219 1.403 87 89 76
0.704226 -0.513959 1.655 30 16 8
-0.129289 0.158075 0.599 177 179 185
0.640542 -0.243984 1.81 31 11 1
-0.474686 -0.0884656 0.924 190 196 198
-0.14266 0.111346 0.318 57 23 13
-0.111769 0.117499 0.775 113 107 111
0.399804 0.391083 1.633 103 95 92
0.468492 0.50501 1.429 108 112 105
0.326208 0.472456 1.48 95 96 85
0.526127 -0.623923 1.978 17 18 9
-0.0485652 0.166866 2.044 94 86 85
0.196188 0.260408 1.815 50 55 64
-0.147367 0.0259254 0.79 176 170 174
-0.174439 0.0323162 0.731 184 178 180
-0.125401 0.0955144 0.337 76 44 22
0.706793 -0.363542 1.734 30 13 0
0.110899 0.312263 1.774 99 91 88
-0.153644 0.0984688 0.334 77 54 35
0.405822 -0.913521 2.411 90 86 77
-0.0333455 -0.0575245 2.383 12 11 11
-0.515587 -0.298633 1.141 138 176 174
-0.462077 -0.354037 1.281 18 103 94
0.0908275 0.535241 1.381 90 87 84
0.0162651 0.00799832 2.269 68 61 55
-0.103375 0.31316 0.808 120 123 126
0.331267 -0.876861 2.44 96 89 81
0.341017 -0.573243 2.672 81 74 68
-0.337049 -0.148674 1.017 198 197 199
0.579775 0.277004 1.734 65 34 7
-0.409587 -0.0829552 0.913 200 203 206
0.778651 -0.353607 1.769 26 7 5
-0.173783 0.0654786 0.637 203 199 200
-0.0662433 0.52844 1.375 84 81 76
-0.811094 -0.757735 2.071 147 147 147
0.66644 0.522822 1.372 96 104 101
0.113382 -0.52302 2.638 75 67 64
-0.174527 -0.378561 1.563 107 104 101
-0.262946 -0.432345 1.422 167 168 159
0.438445 0.289983 1.779 108 104 95
-0.718494 -0.722332 2.01 161 157 158
0.591636 0.0572328 1.744 120 123 122
0.298454 0.515186 1.406 89 90 81
0.387307 0.241736 1.853 150 149 151
-0.255268 -0.0486169 0.883 205 201 204
0.728661 -0.402358 1.719 35 7 4
0.57914 -0.550951 1.629 42 13 1
-0.112734 0.182256 0.981 128 118 128
0.716086 0.184443 1.853 52 44 43
-0.11087 0.152121 1.124 112 106 112
-0.131178 0.0662081 1.066 117 113 118
-0.361326 -0.58296 1.637 169 166 163
-0.178661 0.0296504 0.724 180 174 176
-0.443309 -0.364828 1.275 0 119 107
-0.213963 0.124605 0.575 194 197 200
0.0599776 -0.894644 2.392 109 100 93
0.0996687 -0.652596 2.509 95 84 77
0.310232 -0.466217 2.707 81 70 63
0.516535 -0.645733 1.966 40 31 26
0.194755 0.187827 1.887 17 20 21
-0.0373895 0.525142 1.384 95 85 83
-0.352159 -0.00481021 0.771 174 177 180
0.48681 0.497789 1.435 104 106 95
0.839119 -0.10339 1.935 53 54 43
0.524506 0.0303907 1.837 103 99 100
-0.126762 -0.00409971 0.889 166 160 164
-0.414354 -0.0491469 0.867 196 202 204
-0.0448013 0.486906 1.48 88 83 79
0.755259 -0.597996 1.62 40 11 1
0.395775 -0.583654 2.66 61 60 62
-0.259656 -0.627741 1.821 141 133 130
0.439408 -0.428569 2.561 38 31 23
0.0836642 -0.683892 2.519 95 88 82
-0.287498 0.118761 0.565 188 194 194
0.873302 0.0711806 1.81 93 96 80
0.720424 -0.621963 1.607 32 14 3
0.32139 0.472456 1.48 95 96 85
-0.0231814 0.476148 1.484 90 82 81
-0.118949 -0.843086 2.469 108 99 94
0.0290569 -0.862516 2.411 105 95 93
-0.279622 -0.229663 1.104 50 81 77
0.544803 -0.173506 1.876 31 13 4
0.51154 -0.0498589 1.935 30 11 5
-0.145139 0.0774386 0.688 181 177 180
0.27443 0.362012 1.696 93 88 84
-0.16317 0.113144 0.609 118 118 114
0.86124 0.114554 1.71 94 96 85
-0.120528 -0.893302 2.42 108 99 94
0.501993 0.224543 1.7 38 46 47
-0.0911834 -0.701271 2.479 87 77 75
-0.494769 -0.197842 1.068 177 180 179
0.521836 -0.725546 2.22 32 16 13
-0.024103 0.442348 1.543 97 95 87
0.635555 -0.0497043 1.929 34 13 0
-0.644275 -0.623695 1.853 175 172 169
0.132432 0.537625 1.393 87 88 79
0.596511 -0.536359 1.633 42 18 2
-0.137928 0.167582 0.578 173 176 179
0.0174811 0.37706 1.677 91 87 78
-0.201158 0.0866591 0.604 178 167 162
-0.120868 0.123751 0.322 64 55 46
-0.250585 0.108499 0.584 168 164 167
-0.165125 0.13536 0.581 188 191 192
-0.253816 -0.0741218 0.914 197 196 198
0.739506 0.404768 1.603 104 105 101
-0.117392 0.176793 0.603 150 149 156
0.0200543 0.499 1.466 94 89 85
-0.122408 0.229253 0.594 101 106 111
-0.836713 -0.53603 1.682 167 170 171
0.223109 -0.248471 2.43 33 25 24
0.824671 -0.00900646 1.953 74 57 39
-0.917184 -0.70652 1.966 163 167 162
-0.0752459 0.493217 1.463 86 84 74
-0.108409 0.125433 0.332 39 28 23
0.121703 0.531213 1.4 88 88 82
0.233493 0.279185 1.784 64 55 58
-0.924474 -0.770182 2.024 155 150 146
0.311875 0.0110415 2.143 5 5 5
0.707639 0.513793 1.396 92 99 93
-0.112717 0.272984 0.732 89 92 91
0.647719 0.476305 1.477 103 103 97
-0.0843614 0.470889 1.498 89 82 76
0.206753 0.493185 1.47 97 94 89
-0.12244 0.110127 0.322 54 28 17
0.679319 0.530093 1.362 107 107 107
0.580918 0.295901 1.729 87 74 63
-0.313623 0.0512619 0.654 196 201 206
0.146381 -0.611059 2.54 90 81 74
0.721447 -0.539016 1.633 30 17 6
0.0510421 0.402791 1.616 98 96 86
0.490814 -0.567403 1.719 37 22 12
0.402762 0.489509 1.452 94 92 82
0.332098 0.181204 1.882 62 50 65
0.18361 0.459278 1.516 91 88 83
-0.231519 -0.239078 1.106 127 122 120
-0.276786 -0.364078 1.302 171 168 165
-0.142089 0.069712 0.712 177 173 176
0.450422 -0.634649 2.44 24 10 6
-0.134143 0.0694161 1.062 116 115 119
0.525667 0.494235 1.452 101 105 98
0.20397 0.206252 1.887 60 66 66
0.814412 -0.398905 1.753 50 43 37
-0.295639 0.107942 0.581 155 165 170
-0.144869 -0.352769 2.649 20 19 21
-0.222985 0.129331 0.567 193 196 199
0.85477 -0.24985 1.748 97 97 91
0.010408 -0.440808 2.66 36 33 30
-0.811575 -0.690523 1.966 167 170 169
-0.47011 -0.623902 1.744 161 156 152
-0.198475 -0.607684 2.509 76 66 64
-0.176525 0.145682 0.566 150 150 146
-0.0521432 -0.110549 2.356 12 10 17
-0.164538 0.121397 0.596 193 193 193
0.583732 -0.338063 1.763 32 10 0
-0.150276 0.106651 0.321 58 33 24
0.574216 0.416694 1.579 108 105 100
0.285209 0.416223 1.587 102 94 93
-0.0616259 0.314272 1.753 92 84 81
0.833231 0.240793 1.893 96 98 87
-0.317762 0.0732605 0.607 192 203 203
-0.115673 0.272251 0.84 108 103 101
0.788675 0.40947 1.571 96 98 89
-0.43343 -0.129439 0.984 198 201 204
0.438808 -0.411075 2.582 43 34 25
-0.71263 -0.424346 1.442 163 169 169
-0.364264 0.0274497 0.698 43 57 77
-0.136143 -0.0797874 1.025 157 150 159
0.697208 -0.49623 1.677 33 13 5
0.255883 -0.761778 2.519 95 91 84
0.0542878 0.515191 1.425 94 91 86
-0.450094 -0.0935519 0.945 197 203 205
-0.121764 0.0229265 1.158 104 100 103
0.327968 -0.381921 2.672 63 59 52
0.71339 -0.449413 1.696 31 13 2
-0.262207 -0.233556 1.114 32 48 56
0.649193 -0.542578 1.612 38 14 2
-0.28547 -0.207619 1.092 175 167 166
-0.345395 -0.402783 1.297 0 98 101
0.82252 -0.419978 1.734 65 66 62
0.538079 0.52844 1.375 100 104 97
0.146381 -0.615192 2.54 91 82 77
-0.237335 0.0852506 0.601 188 191 190
-0.134178 0.136719 0.617 175 174 176
-0.140954 0.0043486 0.844 169 163 169
-0.200802 0.09292 0.6 196 169 77
0.145436 0.100004 2.107 121 117 122
-0.146856 0.116155 0.317 41 26 16
0.450907 -0.444365 2.509 14 7 1
-0.199049 -0.20886 1.158 164 160 165
0.210193 0.441578 1.567 100 93 87
-0.36508 -0.344797 1.27 35 56 64
0.727541 0.458369 1.513 106 110 105
-0.178281 -0.785028 2.402 90 83 75
-0.146085 0.0985399 0.657 178 174 179
0.0428248 0.100669 2.121 77 75 65
0.687959 -0.317078 1.758 27 12 2
0.529299 0.49793 1.449 100 104 97
-0.344335 -0.132505 0.995 200 196 201
0.564309 -0.449413 1.696 34 11 8
-0.111187 0.172557 0.679 118 118 120
-0.730998 -0.416743 1.432 165 176 172
-0.238119 -0.637487 1.815 141 135 137
0.187936 -0.393192 2.66 11 8 5
-0.20778 0.0804392 0.609 193 192 196
0.308647 0.0963497 2.03 126 125 132
0.501952 -0.366566 2.212 34 20 12
-0.269136 0.110211 0.583 191 197 199
-0.808608 -0.480079 1.579 160 163 164
-0.133955 0.115123 0.317 38 17 12
0.0665813 0.246193 1.911 90 82 79
0.47464 -0.861769 2.236 21 10 1
-0.389839 -0.0843485 0.912 201 204 207
-0.268799 0.0363797 0.695 196 195 199
-0.26529 -0.0134519 0.763 188 188 190
0.530438 -0.0498589 1.935 33 12 0
0.632897 -0.257997 1.805 30 11 7
0.518683 0.0216791 1.859 98 98 100
0.717563 -0.299379 1.789 35 11 0
-0.172624 0.0789865 0.629 197 193 194
-0.369679 -0.401459 1.286 0 87 106
0.648805 -0.441276 1.686 36 11 4
-0.475534 -0.19291 1.06 178 179 175
0.730286 -0.553602 1.629 36 12 14
-0.0864136 0.517384 1.412 80 78 70
0.549482 -0.436427 1.71 29 13 6
0.631792 0.196233 1.769 74 72 62
0.382785 -0.540368 2.66 95 91 82
-0.191164 -0.401963 2.151 79 71 70
0.031817 0.363065 1.714 95 85 83
-0.42 -0.106415 0.95 201 204 207
0.337927 0.364772 1.696 92 87 85
-0.95712 -0.71805 1.887 148 152 147
0.607302 0.328711 1.724 106 104 92
-0.135428 0.525152 1.396 71 68 63
0.37098 0.512789 1.412 88 90 79
-0.639899 -0.480748 1.532 164 167 170
0.343506 0.345544 1.724 90 83 75
-0.170864 0.0534981 0.697 182 176 178
0.484398 -0.536997 1.668 35 15 7
0.332886 0.0980332 1.997 139 138 140
0.504035 -0.270705 2.489 18 15 10
0.482806 -0.0656805 2.143 98 97 99
-0.370994 -0.139261 0.997 201 200 200
0.645756 0.368721 1.664 103 104 93
-0.607238 -0.729466 1.917 171 171 171
-0.516902 -0.157127 1.029 198 201 204
-0.301538 -0.0510742 0.901 196 195 197
0.700302 0.409505 1.591 103 104 98
0.615474 0.448949 1.498 101 102 93
0.0207238 -0.14122 2.356 51 51 45
0.243006 0.523219 1.403 92 90 82
-0.340481 0.0400209 0.68 182 188 190
-0.13897 0.127304 0.625 176 175 179
0.131425 0.372322 1.668 97 90 82
0.0784084 0.51195 1.442 97 93 84
-0.149399 -0.00817398 0.861 173 167 171
-0.434389 -0.232411 1.1 169 169 163
0.11244 0.32283 1.753 99 91 88
-0.646258 -0.336372 1.254 169 180 180
0.75443 -0.606273 1.607 40 14 3
-0.228796 0.116588 0.577 199 199 199
0.431996 0.458369 1.513 105 106 97
-0.300401 -0.134925 0.989 197 196 198
-0.131885 0.0651487 0.753 178 174 177
-0.144398 -0.0558643 0.958 164 158 162
-0.158484 -0.198221 1.208 148 144 149
-0.111483 0.272483 0.709 87 93 93
-0.16872 0.0371253 0.732 190 184 186
-0.0178293 -0.255299 2.383 73 34 32
0.646435 -0.252821 1.81 27 12 2
-0.126149 0.0500967 0.786 182 178 183
0.477147 0.405778 1.607 114 110 101
0.832337 -0.555347 1.642 95 98 99
-0.119378 0.114922 1.118 122 118 121
0.334337 0.473733 1.484 98 99 90
-0.292065 0.0447499 0.668 197 197 201
0.681901 -0.426291 1.714 32 14 5
0.738219 0.262135 1.848 82 84 71
0.510535 0.169265 1.758 91 91 91
0.473267 -0.693314 2.356 16 7 0
-0.121693 0.0675199 0.766 179 173 177
0.835155 -0.472855 1.691 94 93 95
-0.132285 -0.576902 2.572 82 71 66
-0.945435 -0.73919 1.985 165 166 157
-0.158842 0.100207 0.329 80 57 38
-0.497068 -0.23951 1.108 166 174 171
0.107267 -0.184367 2.32 80 38 35
-0.108161 0.111256 0.345 57 31 16
-0.170247 -0.0523072 0.897 186 182 187
-0.216348 -0.324294 1.348 157 151 157
-0.464595 -0.0657855 0.882 191 196 201
0.851521 -0.130524 1.789 93 95 84
0.0988438 0.515391 1.432 92 90 80
-0.11642 0.101848 0.338 70 35 18
-0.210225 -0.132109 2.204 23 26 27
0.474721 -0.0402868 2.092 36 19 21
0.531934 -0.486042 1.929 28 14 6
-0.16429 0.0781311 2.166 81 74 68
-0.377932 -0.299083 1.187 146 168 169
-0.0325273 0.535045 1.369 87 81 83
0.687818 0.261986 1.826 90 91 78
-0.113637 0.196912 0.62 107 107 111
0.202256 0.124411 2.057 103 101 108
-0.347168 -0.0829552 0.913 201 201 201
-0.111418 0.157491 0.716 113 115 121
0.513091 -0.701201 2.294 18 11 5
0.16842 0.455042 1.535 88 84 77
-0.462804 -0.134663 0.999 198 201 200
-0.239352 -0.0435033 0.867 204 198 204
-0.22854 -0.44328 1.567 149 143 147
0.878788 -0.0842031 1.859 91 89 79
-0.303233 -0.0730152 0.938 202 198 201
-0.0992541 -0.814228 2.479 104 94 92
-0.0216263 -0.080487 2.374 12 12 8
-0.110441 0.125752 0.33 31 20 11
-0.0413797 -0.387255 2.649 31 27 20
0.500507 0.201305 1.763 84 83 83
-0.169301 0.24542 1.905 85 81 74
0.815625 -0.228672 1.853 35 35 29
0.684737 0.0652896 1.81 88 81 71
0.211071 0.383111 1.633 92 88 81
-0.209128 -0.207651 1.141 152 139 145
-0.254921 -0.425912 1.416 162 158 159
-0.0228561 -0.701592 2.509 86 76 74
0.528419 0.362012 1.696 98 99 90
-0.889943 -0.599862 1.7 112 123 123
-0.189519 -0.00596262 0.758 193 187 191
-0.119666 0.122033 0.323 25 17 14
-0.306613 -0.071565 0.939 202 201 203
-0.144276 0.116155 0.317 44 27 29
0.294236 0.0754618 2.092 15 16 12
-0.171365 0.00406007 0.788 186 182 183
-0.293719 -0.599933 1.677 163 154 157
0.565684 0.483616 1.47 95 99 94
-0.0647625 0.0263671 2.261 79 74 70
-0.3979 -0.102017 0.938 197 197 199
0.843387 0.313771 1.719 102 106 99
-0.228356 -0.146794 1.027 195 191 194
0.827196 -0.507124 1.686 77 81 76
0.730413 0.331607 1.71 105 103 93
0.438851 -0.1805 2.42 27 16 9
0.152017 0.403758 1.599 97 93 86
0.783322 0.111764 1.899 82 63 38
0.712473 -0.482709 1.668 36 15 2
0.420152 0.30172 1.763 104 100 93
-0.107571 0.273618 0.923 143 143 143
0.466584 0.000559968 2.071 31 16 6
-0.0312505 0.517384 1.412 93 89 82
0.4507 0.0935969 1.972 18 18 14
0.374125 -0.6659 2.66 86 78 77
-0.123921 0.0924792 0.342 73 37 16
0.673522 0.367613 1.659 105 106 97
-0.348804 -0.0289932 0.816 199 199 199
-0.151674 0.200733 0.543 94 93 97
0.841621 -0.522039 1.655 98 101 100
0.660007 -0.170917 1.848 35 13 3
-0.130241 0.10796 0.669 172 168 171
-0.239473 -0.181983 1.077 189 188 190
0.594689 -0.344704 1.753 30 11 0
0.609063 0.084877 1.729 123 127 122
-0.327211 0.0644506 0.627 194 201 205
-0.151834 0.066724 0.693 184 180 183
0.537047 -0.272625 2.269 21 18 13
0.754535 -0.474398 1.677 34 17 1
-0.357372 -0.670846 1.748 175 175 169
-0.392178 -0.122158 0.977 197 200 201
-0.198739 -0.184609 1.114 179 173 179
-0.323281 -0.243994 1.112 45 125 131
-0.815944 -0.550619 1.719 156 162 164
0.543685 -0.593959 1.595 39 17 7
0.233484 -0.0790726 2.128 17 17 13
-0.17318 -0.677815 1.985 92 84 83
0.500369 -0.00912175 1.978 27 13 7
0.176039 -0.0172192 2.189 13 12 16
-0.0680593 0.175633 2.03 95 87 86
0.521007 -0.704664 2.114 28 24 15
-0.0232296 -0.588566 2.55 78 70 67
0.502023 -0.228169 1.899 27 11 4
0.291093 -0.317586 2.54 33 22 30
-0.226301 -0.640441 1.815 128 122 124
-0.489853 -0.241313 1.108 162 173 169
-0.12805 0.114292 0.319 42 18 4
0.718341 0.385334 1.62 105 106 95
0.530556 0.174172 1.668 75 70 68
-0.0529076 0.460843 1.505 90 82 79
-0.0297014 -0.863205 2.402 109 97 95
-0.199658 0.118811 0.588 188 191 194
0.734626 -0.116548 1.893 31 13 4
-0.152041 0.154414 0.578 176 179 180
0.600461 0.421178 1.567 111 109 101
0.0593195 -0.616887 2.53 81 74 68
0.729225 0.043501 1.887 73 66 58
0.190477 0.365365 1.686 97 92 88
-0.153663 0.0874396 0.662 181 177 182
-0.483148 -0.261725 1.126 141 176 177
0.250783 -0.783251 2.509 95 90 86
0.800447 -0.520601 1.659 48 48 48
-0.0228561 -0.673011 2.509 89 77 75
-0.1653 0.104706 0.328 89 92 95
0.560519 -0.0436962 1.941 31 13 2
-0.323144 -0.048302 0.904 194 194 198
0.226189 0.182263 1.893 23 22 26
0.444425 0.510712 1.419 106 104 94
0.441176 0.52628 1.387 96 97 93
0.409806 0.393243 1.62 104 95 88
-0.133749 0.10132 0.324 78 45 30
0.501072 0.476552 1.463 101 103 92
-0.218383 0.088038 0.6 153 142 135
-0.946987 -0.700781 1.826 137 149 141
0.530793 -0.271576 2.356 22 19 14
0.816807 0.127618 1.905 79 61 39
0.706713 -0.560692 1.642 34 19 7
-0.0484927 -0.0378469 2.365 63 63 57
-0.15585 0.0886186 0.34 130 117 121
-0.433802 -0.203816 1.072 181 181 177
0.0428994 0.517721 1.432 91 87 80
-0.281818 0.0734633 0.617 194 197 200
0.488862 -0.733934 2.303 10 6 0
-0.0111031 0.483392 1.484 97 89 86
-0.112896 0.109933 0.741 126 120 126
0.548708 -0.606475 1.587 42 16 3
0.508373 -0.0248208 1.947 29 11 0
-0.130639 -0.276252 2.54 39 24 14
-0.260369 -0.611636 1.826 80 71 74
-0.168474 -0.0998033 2.374 12 13 9
0.514927 -0.366685 1.997 16 27 23
-0.510044 -0.18946 1.06 169 169 163
0.154897 0.0528899 2.143 110 90 91
0.708635 0.448529 1.547 96 101 91
0.378375 0.16739 1.899 125 118 112
0.0621891 -0.188873 2.329 56 23 24
0.184084 0.0427248 2.158 22 11 19
0.864272 0.0753751 1.705 98 95 90
-0.237275 -0.400468 1.449 154 148 150
0.668155 -0.228624 1.805 31 11 1
-0.141926 0.112136 0.643 175 174 176
-0.186878 -0.185421 1.13 165 161 166
-0.164925 -0.0888611 0.978 175 171 174
0.0198882 0.0116495 2.261 61 52 55
-0.4788 -0.217282 1.087 131 129 121
-0.0595874 0.395879 1.62 88 81 75
0.126264 -0.488677 2.638 73 64 57
0.244765 0.5221 1.4 91 92 83
0.146993 0.0289833 2.181 8 9 5
0.478494 0.262636 1.81 81 82 76
-0.19729 -0.0686944 0.921 196 192 195
0.730907 0.458016 1.52 105 105 105
-0.145865 0.0398868 0.762 177 173 176
-0.488217 -0.533405 1.616 154 159 164
-0.123381 -0.5661 2.561 82 68 62
0.231188 0.445262 1.571 100 93 87
-0.436682 -0.683266 1.758 180 172 171
0.563138 -0.479995 1.668 37 12 3
0.443074 0.444859 1.543 112 108 101
-0.429304 -0.243555 1.11 174 177 176
-0.238637 -0.355603 1.302 143 140 137
0.825054 -0.444775 1.71 76 75 79
0.460872 0.152661 1.87 53 37 34
-0.410494 -0.23951 1.108 180 180 174
0.492083 -0.72872 2.037 34 33 33
-0.14975 -0.00672565 0.855 171 165 171
-0.538665 -0.203643 1.062 179 182 183
0.52869 -0.545664 1.637 34 13 0
-0.246524 -0.126493 0.986 197 193 196
0.230968 -0.661954 2.561 89 82 76
0.655895 0.52735 1.378 98 106 103
-0.124284 0.11465 0.32 46 16 9
0.794784 0.281533 1.799 98 98 92
-0.553315 -0.565076 1.729 39 109 103
0.0219817 -0.30026 2.499 66 29 26
0.0797783 -0.855387 2.402 105 96 91
0.848051 -0.331695 1.673 101 102 93
-0.182149 0.128077 0.578 191 194 197
0.712789 -0.29227 1.799 31 11 1
-0.271011 0.104877 0.585 153 154 148
-0.114533 0.0697808 0.822 125 119 125
-0.140734 0.115274 0.316 43 24 18
0.695038 -0.567415 1.646 33 15 6
-0.208894 0.0965028 0.598 195 188 180
0.495465 -0.747079 2.051 39 28 23
-0.157533 0.110793 0.618 156 147 150
-0.118465 0.0413676 1.201 77 77 77
0.387734 0.299098 1.799 102 95 87
-0.123541 -0.222155 2.402 49 34 35
-0.294687 -0.0523655 0.898 197 196 200
0.0922663 -0.61277 2.53 80 70 68
-0.213176 -0.169714 1.077 190 189 189
0.324764 -0.065466 2.136 10 13 12
-0.112727 0.100535 1.162 101 92 99
0.451374 -0.883843 2.303 36 14 4
0.351555 0.410534 1.595 96 89 81
0.512606 -0.507735 1.848 22 23 19
0.839122 0.121903 1.865 103 96 86
-0.0196731 0.414683 1.591 97 92 90
0.321838 -0.851676 2.459 94 89 85
-0.364478 0.0164598 0.714 60 67 73
0.528924 -0.596459 1.941 18 30 20
0.215459 0.418806 1.587 101 94 88
0.397973 -0.81151 2.411 91 89 81
0.516633 -0.656688 1.779 40 27 16
0.62687 -0.0310616 1.941 31 10 7
-0.38444 -0.0929766 0.924 197 197 201
0.306864 0.323082 1.739 88 83 79
0.470564 -0.0953891 2.269 39 18 5
0.842605 -0.209182 1.673 96 97 91
0.544132 0.375036 1.668 104 102 94
-0.615185 -0.364917 1.305 169 177 176
-0.213299 0.0243502 0.742 199 195 200
0.831808 -0.367056 1.724 91 91 93
0.521889 -0.668077 2.024 36 26 24
0.620894 0.535153 1.375 91 104 91
-0.233997 0.0911774 0.595 128 104 81
-0.127259 -0.047093 0.97 150 146 149
-0.159159 0.117621 0.321 53 32 27
0.128568 0.418628 1.567 94 90 83
0.010275 -0.396713 2.626 56 25 23
0.137568 -0.625121 2.53 94 85 80
-0.120474 0.102971 0.331 74 39 22
-0.206255 0.101029 0.596 111 102 95
0.394816 -0.193904 2.44 25 17 14
0.825253 -0.21287 1.821 75 72 67
0.846165 0.267383 1.691 100 104 97
-0.203883 -0.406751 1.535 139 134 132
-0.243356 -0.691695 1.81 172 169 164
0.838513 0.189619 1.905 70 75 61
0.580968 -0.57668 1.612 42 16 5
-0.0718613 -0.445136 2.66 36 33 30
-0.340651 0.0496593 0.661 192 197 204
0.759662 -0.614118 1.607 31 11 1
-0.318731 -0.125851 0.981 198 197 201
0.025395 0.383811 1.659 92 85 77
0.438808 -0.335443 2.582 32 21 25
0.512619 -0.728423 2.196 25 14 9
0.0543108 0.0640319 2.166 90 28 29
-0.116542 0.122653 0.678 172 171 175
-0.280524 0.0997746 0.583 123 109 101
0.661426 -0.326656 1.779 30 11 5
-0.212864 -0.527277 1.753 121 117 120
-0.0176946 -0.0493928 2.365 65 70 60
0.571634 0.477412 1.473 102 103 99
0.306228 -0.0340542 2.128 6 9 12
0.569651 0.526251 1.381 96 99 98
0.255286 0.297828 1.774 95 88 82
0.623646 0.490856 1.449 101 103 94
0.0530211 -0.379619 2.626 66 27 23
0.0864874 -0.359489 2.604 67 30 27
-0.160568 0.0822514 0.655 181 177 182
-0.185881 0.0952102 0.596 196 189 183
-0.202257 0.125472 0.579 195 198 197
0.106358 -0.334144 2.572 71 32 30
0.658437 -0.34941 1.748 29 11 2
0.299025 0.232062 1.848 127 122 120
0.377654 0.287939 1.821 94 90 81
0.188901 -0.0206296 2.173 8 8 8
0.813158 0.0689329 1.911 86 67 40
0.555337 -0.524353 1.637 37 13 1
-0.105026 -0.00317253 2.338 74 66 65
-0.219524 -0.0410243 0.845 203 194 197
-0.136025 0.120041 0.635 174 173 175
0.634219 -0.351448 1.744 30 12 1
-0.360217 -0.670846 1.748 176 176 170
-0.592559 -0.320734 1.203 72 136 141
0.76409 0.208219 1.905 71 67 60
-0.139031 0.110861 0.654 173 172 174
0.540685 -0.329456 1.763 30 9 6
-0.280558 0.0122589 0.741 191 197 197
0.309335 0.319977 1.753 93 86 80
0.518111 -0.429485 1.972 20 20 24
0.337837 -0.229972 2.402 56 18 18
0.149963 -0.102095 2.338 12 11 11
-0.139747 0.0200651 0.813 172 168 171
-0.176582 0.148764 2.024 86 76 74
0.256761 0.440149 1.571 98 93 89
0.0696631 -0.767643 2.459 105 94 89
0.564309 0.362012 1.696 103 100 95
0.152534 -0.273317 2.44 74 32 29
0.0920044 0.269746 1.859 94 85 80
0.712059 -0.517938 1.642 38 13 4
-0.184911 0.110728 0.596 150 144 150
