ply
format ascii 1.0
comment Created by Open3D
element vertex 1309
property double x
property double y
property double z
property uchar red
property uchar green
property uchar blue
end_header
0.535118 0.205026 1.198 255 255 255
1.07788 -0.0394322 2.743 255 255 255
0.743414 0.0438242 2.649 255 255 255
-1.0853 -1.21045 3.181 255 255 255
0.0013702 -0.705176 2.085 0 0 0
0.743835 -0.232976 2.519 255 255 255
-0.250524 0.189685 2.42 255 255 255
1.28406 -0.0697509 2.707 255 255 255
-0.338582 0.538457 2.43 255 255 255
-0.633217 0.609718 2.228 255 255 255
-1.39598 -0.972328 3.181 255 255 255
-0.170933 0.0118659 2.303 255 255 255
0.385891 0.303495 1.143 255 255 255
0.542671 -0.129459 2.499 255 255 255
0.324619 0.402647 1.381 255 255 255
-1.22615 -0.216809 3.718 255 255 255
1.3949 -0.329577 2.743 255 255 255
0.0806692 -0.438559 2.212 255 255 255
-0.757553 0.585815 2.32 255 255 255
-1.68616 -0.787811 3.231 255 255 255
-0.347347 -0.706029 1.947 255 255 255
-1.29412 -1.13365 3.198 255 255 255
0.416048 0.215337 1.308 255 255 255
1.12543 -0.122613 2.707 255 255 255
-1.50769 -0.498585 3.373 255 255 255
-1.18375 -0.504074 3.373 255 255 255
0.117492 -0.00322138 2.374 255 255 255
-0.133966 -0.213141 2.189 255 255 255
-0.52236 0.414987 2.402 255 255 255
-0.788515 0.362306 2.743 255 255 255
-1.37127 0.171848 3.283 255 255 255
1.24876 -0.805389 2.44 255 255 255
0.681916 -0.452776 2.402 255 255 255
-1.11786 -0.718144 3.373 255 255 255
-1.12193 -0.124562 3.674 255 255 255
-0.199429 -0.043214 2.244 255 255 255
0.169444 -0.716046 2.107 255 255 255
0.168768 0.0287472 1.452 255 255 255
-0.99721 0.723643 1.899 255 255 255
0.275417 -0.631536 2.158 255 255 255
1.10277 0.142922 2.818 255 255 255
1.04191 -0.632048 2.43 255 255 255
-1.2836 0.404209 2.695 255 255 255
-0.326127 -0.647703 1.972 255 255 255
0.137455 -0.557399 2.143 255 255 255
-1.43533 -1.22496 3.165 255 255 255
0.800983 -0.875654 2.253 255 255 255
-0.336836 0.713556 2.057 255 255 255
-0.41815 -0.15098 2.166 255 255 255
0.592449 -0.608634 2.269 255 255 255
-0.442428 -0.668008 1.947 255 255 255
-0.97415 0.319707 2.925 255 255 255
0.0733269 0.179915 1.532 255 255 255
0.530793 -0.536121 2.356 255 255 255
-0.0315073 -0.751106 2.017 255 255 255
-0.306237 -0.522805 2.01 255 255 255
-0.972983 0.672319 2.064 255 255 255
-1.17034 0.419224 2.707 255 255 255
-0.0167294 -0.199524 2.236 255 255 255
0.342062 0.460752 1.286 255 255 255
-0.909343 0.738214 1.929 255 255 255
0.579457 0.0885907 2.572 255 255 255
-1.17115 0.368911 2.793 255 255 255
1.35831 0.0609346 2.844 255 255 255
0.454608 -0.361654 2.42 255 255 255
0.420725 0.323555 1.024 255 255 255
-1.66895 -0.71893 3.301 255 255 255
-1.55297 -0.880628 3.283 255 255 255
-0.0750901 0.674917 2.136 255 255 255
0.0959575 0.328044 1.459 255 255 255
0.0191141 -0.342422 2.173 255 255 255
-0.400657 0.747631 1.929 255 255 255
0.275057 0.245563 1.477 255 255 255
0.656366 -0.721753 2.312 255 255 255
-0.940329 0.53817 2.411 255 255 255
1.19813 -0.474413 2.561 255 255 255
-1.13209 -0.303728 3.467 255 255 255
-0.289917 0.386592 2.42 255 255 255
-0.6162 0.528343 2.402 255 255 255
0.474755 0.14632 1.47 255 255 255
-1.40338 0.287753 3.04 255 255 255
-1.40427 -0.579976 3.336 255 255 255
0.747266 -0.454473 2.411 255 255 255
0.734298 -0.444355 2.42 255 255 255
0.2936 -0.162841 2.392 255 255 255
-1.61049 0.272019 3.086 255 255 255
0.395026 0.259769 1.217 255 255 255
0.1005 0.325 1.456 255 255 255
-1.46691 -0.965609 3.318 255 255 255
-1.69142 -0.798327 3.231 255 255 255
-0.168978 0.653643 2.181 255 255 255
0.284727 0.444548 1.429 255 255 255
-0.508504 0.533929 2.392 255 255 255
-0.50083 0.586555 2.338 255 255 255
-1.18328 0.0126479 3.588 255 255 255
0.826727 0.034897 2.626 255 255 255
0.0778975 -0.576434 2.136 255 255 255
-0.963561 0.510776 2.43 255 255 255
0.270866 0.302667 1.535 255 255 255
0.911125 -0.783135 2.338 255 255 255
-0.480207 0.598844 2.312 255 255 255
0.483587 0.363536 0.954 255 255 255
0.508621 0.180744 1.289 255 255 255
-1.60958 -0.545392 3.391 255 255 255
-0.322609 0.500865 2.459 255 255 255
-1.61652 0.244317 3.117 255 255 255
-0.102797 0.732778 2.064 255 255 255
-0.360338 -0.584945 1.966 255 255 255
0.514729 0.32625 1.022 255 255 255
-0.0977067 0.700799 2.099 255 255 255
0.360246 0.23055 1.322 255 255 255
-0.654773 0.729261 1.947 255 255 255
1.05116 -0.381594 2.499 255 255 255
-1.08804 -0.987479 3.283 255 255 255
1.15148 -0.451627 2.55 255 255 255
0.299728 0.44845 1.412 255 255 255
-1.03576 -0.676079 3.41 255 255 255
-0.739099 0.746875 1.911 255 255 255
-0.477498 -0.663891 1.935 255 255 255
-0.201547 -0.723708 1.978 255 255 255
-0.633298 0.721003 1.959 255 255 255
-0.263863 -0.36364 2.173 255 255 255
0.664549 0.139806 1.477 255 255 255
-0.906033 0.300156 2.967 255 255 255
0.585922 -0.788166 2.244 255 255 255
-1.50775 -0.686699 3.301 255 255 255
0.166458 -0.118217 2.356 255 255 255
-0.401808 -0.465241 2.03 255 255 255
-0.00887088 -0.665506 2.099 255 255 255
-1.18201 -0.470394 3.448 255 255 255
0.205096 -0.817447 2.121 255 255 255
-0.481781 -0.114931 2.151 255 255 255
-1.00809 -0.224154 3.547 255 255 255
0.208548 -0.637966 2.121 255 255 255
-1.00278 0.265699 3.071 255 255 255
0.780696 -0.0290812 2.615 255 255 255
0.170787 -0.209114 2.261 255 255 255
-1.06522 -0.318646 3.507 255 255 255
-1.5105 -0.255869 3.507 255 255 255
0.715882 -0.245413 2.479 255 255 255
-0.971872 0.704903 1.941 255 255 255
-1.62468 0.115089 3.507 255 255 255
-0.42461 0.309448 2.402 255 255 255
-1.28155 -0.646366 3.429 255 255 255
0.349273 0.407097 1.196 255 255 255
-0.909568 0.654061 2.136 255 255 255
1.1115 -0.156513 2.684 255 255 255
1.23738 -0.394268 2.582 255 255 255
-1.5599 -0.534356 3.391 255 255 255
0.682107 -0.781717 2.236 255 255 255
-0.239344 0.0344866 2.312 255 255 255
0.329325 -0.514034 2.166 255 255 255
1.27185 -0.588566 2.55 255 255 255
-0.507905 -0.281523 2.114 255 255 255
0.0792469 -0.498015 2.173 255 255 255
0.106758 0.0917348 1.477 255 255 255
-1.64188 -1.17088 3.117 255 255 255
-1.48963 -0.149366 3.696 255 255 255
0.559615 0.255924 1.122 255 255 255
1.20154 -0.740609 2.449 255 255 255
0.499784 -0.0408074 2.55 255 255 255
1.17443 -0.623585 2.459 255 255 255
0.211498 -0.524476 2.151 255 255 255
1.1603 0.181711 2.78 255 255 255
-1.142 0.15717 3.429 255 255 255
0.462337 -0.352731 2.44 255 255 255
0.501022 0.203679 1.275 255 255 255
0.351729 0.166251 1.456 255 255 255
-0.31904 0.145277 2.402 255 255 255
0.962389 -0.0124836 2.707 255 255 255
-0.744908 0.714628 1.959 255 255 255
-0.339288 0.678286 2.114 255 255 255
-1.26128 0.476193 2.519 255 255 255
0.698295 -0.802326 2.253 255 255 255
-0.840696 0.333994 2.844 255 255 255
0.966195 -0.497549 2.469 255 255 255
-0.225621 0.518755 2.449 255 255 255
0.452771 0.303881 1.06 255 255 255
-0.386567 -0.644641 1.953 255 255 255
0.506045 -0.338198 2.479 255 255 255
-0.515739 0.179182 2.286 255 255 255
-1.45161 -0.0699242 3.631 255 255 255
-0.592228 0.590449 2.294 255 255 255
-1.8446 -0.051292 3.568 255 255 255
0.0812359 0.117103 1.494 255 255 255
0.250798 -0.0744767 2.43 255 255 255
0.425339 -0.100183 2.479 255 255 255
-1.01568 0.46947 2.572 255 255 255
0.0630209 0.156655 1.524 255 255 255
-1.06683 -0.0107702 3.609 255 255 255
-0.197945 0.613894 2.312 255 255 255
-0.0137394 0.0464667 2.347 255 255 255
0.90534 -0.116951 2.582 255 255 255
0.0921608 0.0534829 2.32 255 255 255
-0.0959562 -0.0256115 2.303 255 255 255
-0.180185 0.742501 1.991 255 255 255
-0.444526 0.566821 2.383 255 255 255
0.52597 0.255231 1.169 255 255 255
-0.196181 0.372371 2.43 255 255 255
-1.67951 -0.371431 3.467 255 255 255
-0.426266 0.661013 2.136 255 255 255
-0.456346 -0.536956 1.966 255 255 255
0.0782764 0.406114 1.484 255 255 255
0.42877 -0.0887916 2.499 255 255 255
0.408827 0.354673 0.999 255 255 255
1.19281 -0.60689 2.489 255 255 255
-0.0723141 0.742776 1.966 255 255 255
0.177724 0.434462 1.375 255 255 255
-0.428758 -0.278082 2.114 255 255 255
-0.446365 -0.731749 1.923 255 255 255
-0.404395 -0.591735 1.978 255 255 255
0.395355 -0.638842 2.22 255 255 255
0.320971 0.425511 1.375 255 255 255
-0.0846402 -0.484493 2.114 255 255 255
-0.385543 -0.420166 2.085 255 255 255
-0.386848 0.101414 2.294 255 255 255
0.413101 -0.592513 2.278 255 255 255
0.799285 -0.819101 2.269 255 255 255
1.13901 -0.557817 2.469 255 255 255
0.185595 0.204148 1.473 255 255 255
-0.916773 0.703324 1.972 255 255 255
-0.375337 -0.323746 2.143 255 255 255
1.20904 -0.769653 2.44 255 255 255
0.357642 0.353314 1.16 255 255 255
1.39707 0.0844595 2.857 255 255 255
-0.262404 0.71815 2.051 255 255 255
0.175646 0.196556 1.47 255 255 255
0.500138 -0.594594 2.286 255 255 255
0.155364 0.415156 1.416 255 255 255
-1.02391 -0.950081 3.283 255 255 255
-0.636966 0.659692 2.143 255 255 255
-0.0828891 -0.417318 2.158 255 255 255
0.881302 -0.153508 2.561 255 255 255
0.532991 0.154228 2.55 255 255 255
-0.246694 0.582333 2.383 255 255 255
-1.11279 -0.71094 3.391 255 255 255
0.159314 0.0358358 1.452 255 255 255
0.540343 0.263493 1.147 255 255 255
-1.14142 -0.047398 3.718 255 255 255
1.11022 -0.189743 2.66 255 255 255
0.427816 0.210484 1.345 255 255 255
1.12112 0.129165 2.818 255 255 255
0.347334 0.245609 1.322 255 255 255
0.848501 -0.561261 2.365 255 255 255
0.257353 0.445481 1.432 255 255 255
-1.36779 0.0922609 3.507 255 255 255
0.606 0.209912 1.215 255 255 255
0.6774 -0.627096 2.269 255 255 255
0.0997478 0.128048 1.48 255 255 255
-0.750707 0.435545 2.672 255 255 255
-1.16985 -1.0142 3.318 255 255 255
-1.0072 0.528343 2.402 255 255 255
0.123963 -0.660991 2.151 255 255 255
0.229005 -0.597984 2.151 255 255 255
0.425843 0.255667 1.171 255 255 255
0.181008 0.473854 1.366 255 255 255
0.0983158 -0.358067 2.204 255 255 255
0.159181 -0.26337 2.253 255 255 255
0.938964 -0.200986 2.582 255 255 255
-0.276426 0.29449 2.44 255 255 255
-0.447441 -0.303164 2.121 255 255 255
0.146175 0.403166 1.439 255 255 255
-0.46495 -0.0137506 2.204 255 255 255
0.354877 0.288677 1.222 255 255 255
0.396355 0.259342 1.215 255 255 255
-0.569823 0.594182 2.294 255 255 255
0.323405 -0.238681 2.411 255 255 255
0.105457 0.301927 1.459 255 255 255
0.0914855 -0.149287 2.303 255 255 255
-1.18341 -1.0674 3.266 255 255 255
-1.68304 -1.14491 3.215 255 255 255
-0.0307288 -0.29959 2.196 255 255 255
1.19305 -0.801223 2.392 255 255 255
1.28886 0.0933314 2.844 255 255 255
0.123502 -0.5295 2.143 255 255 255
0.63961 0.164252 1.308 255 255 255
-0.139181 0.266451 2.402 255 255 255
0.362463 0.465477 1.201 255 255 255
-0.430169 0.264169 2.347 255 255 255
-0.98139 -1.00362 3.266 255 255 255
0.0787757 0.125711 2.261 255 255 255
0.36841 0.342005 1.135 255 255 255
0.528998 0.224988 1.18 255 255 255
0.422546 0.249031 1.194 255 255 255
-1.12371 0.444728 2.649 255 255 255
-0.414624 -0.0346623 2.166 255 255 255
-0.406068 -0.00655346 2.196 255 255 255
-0.791385 0.428034 2.707 255 255 255
0.273595 0.481332 1.362 255 255 255
0.0467573 -0.641096 2.143 255 255 255
0.439142 0.352898 0.994 255 255 255
-0.170503 0.384819 2.459 255 255 255
0.590377 0.224225 1.176 0 0 0
-0.828553 0.566821 2.383 255 255 255
1.00232 -0.250434 2.572 255 255 255
0.0803115 0.404198 1.477 255 255 255
0.390522 -0.713722 2.173 255 255 255
1.24756 0.000741667 2.743 255 255 255
-0.374937 -0.354938 2.121 255 255 255
-1.05853 -0.44795 3.448 255 255 255
1.19043 -0.877346 2.356 255 255 255
-0.999731 0.618656 2.158 255 255 255
0.194377 -0.21044 2.236 255 255 255
-0.502762 0.717652 1.985 255 255 255
-0.0294664 0.469873 2.383 255 255 255
-0.967593 -0.115161 3.568 255 255 255
-1.24836 -0.725695 3.283 255 255 255
1.14283 -0.458122 2.54 255 255 255
1.17747 -0.0957556 2.695 255 255 255
0.29148 -0.639462 2.173 255 255 255
0.301385 0.312216 1.409 255 255 255
-0.0523424 0.0429744 2.365 255 255 255
0.19705 0.471894 1.354 255 255 255
1.24654 -0.181475 2.731 255 255 255
1.15068 -0.35339 2.53 255 255 255
-0.130814 0.238094 2.392 255 255 255
-0.622616 0.578946 2.338 255 255 255
-0.768665 0.46947 2.572 255 255 255
-0.352677 -0.598802 1.959 255 255 255
0.113076 -0.298173 2.212 255 255 255
-0.0763022 0.238094 2.392 255 255 255
-0.0652495 -0.106889 2.278 255 255 255
0.938487 -0.181511 2.604 255 255 255
0.382839 0.307753 1.145 255 255 255
0.0413081 0.312586 1.547 255 255 255
-1.19007 -0.948226 3.391 255 255 255
-0.605254 0.322098 2.469 0 0 0
-1.37745 -0.198658 3.718 255 255 255
1.06041 -0.783604 2.374 255 255 255
-0.475582 -0.552474 1.953 255 255 255
-0.710799 -0.162979 2.719 255 255 255
-0.180445 0.0840108 2.329 255 255 255
-1.19483 -0.0230591 3.696 255 255 255
-1.30694 0.383982 2.707 255 255 255
0.455552 0.366239 0.941 255 255 255
-0.162113 0.107164 2.338 255 255 255
-0.375722 0.162282 2.365 255 255 255
-0.28517 0.687435 2.121 255 255 255
1.25455 -0.674396 2.499 255 255 255
0.416812 -0.748292 2.181 255 255 255
0.427205 -0.585475 2.294 255 255 255
0.457082 0.302726 1.062 255 255 255
-0.393852 0.616969 2.228 255 255 255
-0.992191 -1.08161 3.198 255 255 255
-0.11737 -0.287374 2.212 255 255 255
0.446676 0.348519 1 255 255 255
0.422736 -0.690535 2.212 255 255 255
-0.507373 -0.600147 1.953 255 255 255
1.1034 -0.0653457 2.707 255 255 255
-0.259054 0.0950124 2.32 255 255 255
-0.284226 -0.48311 2.064 255 255 255
-0.20935 -0.297917 2.158 255 255 255
0.791012 -0.10901 2.593 255 255 255
0.624565 -0.513173 2.392 255 255 255
-0.557789 0.425973 2.42 255 255 255
0.390852 -0.536907 2.278 255 255 255
0.37085 0.262535 1.249 255 255 255
-0.252419 -0.493175 2.107 255 255 255
0.499983 -0.0281359 2.53 255 255 255
0.229584 0.297014 1.494 255 255 255
-0.443032 0.724777 1.978 255 255 255
0.38474 0.293412 1.162 255 255 255
-1.12336 0.543554 2.383 255 255 255
0.420887 -0.25638 2.43 255 255 255
-1.34114 0.0468704 3.527 255 255 255
-0.215185 -0.671355 1.985 255 255 255
-1.28523 -0.310736 3.547 255 255 255
-0.479989 -0.135428 2.143 255 255 255
0.53259 -0.170806 2.509 255 255 255
-1.06104 0.368375 2.755 255 255 255
0.677242 -0.802773 2.244 255 255 255
-0.302403 -0.167366 2.196 255 255 255
0.465688 -0.710033 2.228 255 255 255
-0.423783 0.417866 2.489 255 255 255
0.050052 0.146211 2.294 255 255 255
0.769908 -0.0752528 2.593 255 255 255
0.173444 0.486906 1.359 255 255 255
0.769752 -0.558561 2.42 255 255 255
0.4657 0.226247 2.615 255 255 255
-0.506485 0.292463 2.329 255 255 255
0.933188 -0.381594 2.499 255 255 255
0.588786 -0.0861149 2.54 255 255 255
0.510329 0.163988 1.416 255 255 255
-0.419643 -0.691253 1.959 255 255 255
0.325173 0.217996 1.393 255 255 255
0.501158 0.209622 1.286 255 255 255
0.395721 0.330856 1.098 255 255 255
-0.593326 0.689113 2.064 255 255 255
-0.408632 0.68372 2.099 255 255 255
0.420362 -0.755391 2.181 255 255 255
0.742926 -0.699178 2.312 255 255 255
-0.0957708 0.58064 2.392 255 255 255
1.2284 -0.413668 2.572 255 255 255
0.561634 -0.2892 2.44 255 255 255
0.612574 -0.595268 2.303 255 255 255
0.165622 0.107751 1.466 255 255 255
-1.38145 0.352095 2.768 255 255 255
-1.40522 -0.034063 3.588 255 255 255
-1.44688 0.332493 2.871 255 255 255
-0.436249 0.62467 2.204 255 255 255
0.121831 0.388974 1.456 255 255 255
0.44292 0.200431 1.351 255 255 255
-0.100449 -0.583029 2.085 255 255 255
0.464009 0.298042 1.07 255 255 255
0.335829 0.178465 1.459 255 255 255
-0.432399 -0.589239 1.959 255 255 255
0.54241 0.275649 1.128 255 255 255
-0.0952188 0.400051 2.479 255 255 255
-0.122198 -0.00687278 2.303 255 255 255
-0.106182 -0.307854 2.204 255 255 255
0.015154 -0.659942 2.114 255 255 255
0.296375 -0.282444 2.383 255 255 255
0.637738 -0.343613 2.489 255 255 255
-1.69517 -0.120256 3.547 255 255 255
-0.181769 0.526725 2.449 255 255 255
0.982125 -0.444873 2.489 255 255 255
0.159299 0.425629 1.39 255 255 255
0.44421 0.273549 1.112 255 255 255
0.424001 -0.069006 2.519 255 255 255
-1.54839 -0.202256 3.568 255 255 255
-0.209637 -0.134028 2.236 255 255 255
-1.05161 0.582624 2.278 255 255 255
-0.125017 -0.0477429 2.286 255 255 255
0.189596 -0.585029 2.181 255 255 255
0.725359 -0.00354841 2.615 255 255 255
-1.02626 0.556565 2.356 255 255 255
0.173495 0.071279 1.452 255 255 255
-0.534502 -0.0452367 2.166 255 255 255
0.0611358 -0.498089 2.158 255 255 255
0.841699 -0.843059 2.294 255 255 255
-0.28713 -0.718702 1.947 255 255 255
1.07125 -0.194072 2.66 255 255 255
0.0612949 0.527721 1.543 255 255 255
0.173247 0.468025 1.375 255 255 255
0.446286 0.146004 2.626 255 255 255
0.319126 0.480845 1.33 255 255 255
0.0254775 -0.608339 2.114 255 255 255
-1.35398 -0.152466 3.931 255 255 255
-0.0412589 0.097961 2.392 255 255 255
0.177724 0.425511 1.375 255 255 255
-1.58472 0.0523116 3.507 255 255 255
0.416123 0.357208 0.997 255 255 255
-0.762632 0.548055 2.42 255 255 255
-0.437682 -0.153935 2.158 255 255 255
0.732685 0.137458 2.626 255 255 255
-0.202324 -0.308453 2.158 255 255 255
0.123588 0.223931 1.477 255 255 255
-0.741223 0.727013 1.941 255 255 255
-0.992339 0.60315 2.204 255 255 255
0.448462 0.343377 1.004 255 255 255
-0.221291 0.176547 2.402 255 255 255
-0.978857 -0.0924515 3.588 255 255 255
-0.22387 0.487049 2.43 255 255 255
-0.718698 0.739047 1.923 255 255 255
0.747726 0.0783105 2.649 255 255 255
-0.905662 0.545607 2.392 255 255 255
0.593654 0.096547 2.561 255 255 255
-0.984168 0.563727 2.338 255 255 255
-0.141493 0.0156747 2.312 255 255 255
0.339675 0.420717 1.254 255 255 255
-0.857466 0.156156 3.181 255 255 255
-1.37909 -0.0767311 3.674 255 255 255
-0.190754 -0.129922 2.228 255 255 255
-0.396104 -0.641463 1.953 255 255 255
0.196115 -0.618146 2.136 255 255 255
0.461306 -0.599927 2.278 255 255 255
0.910811 -0.797608 2.347 255 255 255
0.500136 -0.677278 2.204 255 255 255
-1.63531 0.170958 3.266 255 255 255
0.347401 0.38403 1.203 255 255 255
-0.384366 -0.556744 1.991 255 255 255
1.09158 -0.774941 2.383 255 255 255
-1.75748 0.099672 3.568 255 255 255
-0.422218 -0.495085 2.017 255 255 255
0.153376 0.186097 1.463 255 255 255
-0.436352 -0.430382 2.037 255 255 255
-0.193941 -0.240049 2.143 255 255 255
0.014285 0.388928 1.624 255 255 255
0.428704 0.228082 1.217 255 255 255
1.17505 -0.772276 2.411 255 255 255
0.0698671 -0.22258 2.212 255 255 255
-0.518197 -0.245294 2.128 255 255 255
0.184114 -0.222149 2.244 255 255 255
0.154586 0.0192956 1.452 255 255 255
0.167175 0.490197 1.362 255 255 255
-0.976342 0.672319 2.064 255 255 255
-0.966497 -1.1271 3.165 255 255 255
-0.644093 0.182147 2.593 0 0 0
-0.410734 0.735597 1.947 255 255 255
0.772183 -0.0333367 2.615 255 255 255
-0.210982 0.595587 2.374 255 255 255
-0.232327 -0.732115 1.966 0 0 0
-1.07707 0.335521 2.857 255 255 255
0.259002 0.295538 1.524 0 0 0
-0.859999 0.730502 1.917 255 255 255
1.02149 -0.851619 2.338 255 255 255
0.288816 0.483009 1.33 255 255 255
-0.77765 0.538457 2.43 255 255 255
-1.55074 -0.60075 3.301 255 255 255
-0.609016 0.553091 2.374 255 255 255
-1.21759 -0.713558 3.301 255 255 255
-0.314538 -0.18042 2.181 255 255 255
-0.00226934 0.0424838 2.338 255 255 255
0.383084 0.362719 1.017 255 255 255
-0.0550811 0.729659 1.923 255 255 255
1.19502 -0.214168 2.695 255 255 255
1.02301 -0.328687 2.53 0 0 0
0.524422 -0.101396 2.509 255 255 255
0.447777 0.223753 1.215 0 0 0
-1.50455 -0.174457 3.718 255 255 255
0.607708 -0.0906037 2.55 255 255 255
0.158267 0.485799 1.381 255 255 255
-0.163684 -0.206611 2.158 255 255 255
-0.802137 0.450604 2.684 255 255 255
0.416024 0.311266 1.05 255 255 255
-1.4719 -0.129759 3.652 255 255 255
-0.500907 -0.397786 2.057 255 255 255
-1.05101 -0.987521 3.301 255 255 255
0.560917 -0.635923 2.261 255 255 255
-0.108191 0.423612 2.499 255 255 255
1.22201 -0.641862 2.499 255 255 255
-1.1208 -0.535048 3.467 255 255 255
-0.291932 -0.471268 2.071 255 255 255
0.22775 -0.736618 2.107 255 255 255
-0.240965 -0.315476 2.158 255 255 255
0.373615 0.358599 1.112 255 255 255
0.357287 0.404128 1.165 255 255 255
0.536171 0.202737 1.196 255 255 255
-0.373668 0.706861 2.057 255 255 255
0.0488627 0.234544 1.547 255 255 255
-0.154777 -0.361429 2.181 255 255 255
0.450468 0.352898 0.994 255 255 255
-1.60647 -0.138387 3.568 255 255 255
1.01538 0.205173 2.731 0 0 0
0.125395 0.25636 1.47 255 255 255
0.390008 0.312362 1.128 255 255 255
0.497941 -0.404974 2.42 0 0 0
0.123098 -0.642478 2.136 255 255 255
-0.139607 0.508973 2.479 255 255 255
0.847866 -0.57885 2.374 255 255 255
0.145421 0.426861 1.409 255 255 255
-1.30182 -0.421882 3.609 255 255 255
0.499983 -0.177546 2.489 255 255 255
-0.313287 -0.644494 1.972 255 255 255
0.297602 0.252591 1.435 255 255 255
-1.75164 -0.396272 3.487 255 255 255
-1.11516 0.504867 2.459 255 255 255
0.521836 -0.68942 2.22 255 255 255
0.370509 0.175881 1.419 255 255 255
0.185217 0.359223 1.47 255 255 255
0.891413 0.129052 2.719 255 255 255
0.196697 -0.428864 2.181 255 255 255
0.220052 -0.754316 2.099 255 255 255
-1.0134 -0.842482 3.301 255 255 255
-0.137927 -0.655793 2.037 255 255 255
-0.717817 0.667965 2.114 255 255 255
0.114406 0.402082 1.452 255 255 255
-0.427984 0.219174 2.356 255 255 255
0.463918 0.155465 1.466 255 255 255
0.343124 0.322415 1.237 255 255 255
0.520781 0.218894 1.21 255 255 255
-0.465729 0.141484 2.278 255 255 255
-0.149186 0.739774 2.01 255 255 255
-0.450893 -0.189263 2.121 255 255 255
-0.721355 0.433589 2.66 255 255 255
0.386271 -0.786659 2.189 255 255 255
-0.881615 -1.16524 3.102 255 255 255
-0.929431 -0.752519 3.215 255 255 255
1.01049 -0.41652 2.489 255 255 255
0.981289 -0.264891 2.55 255 255 255
-0.992191 -1.16488 3.198 255 255 255
0.862212 -0.243433 2.459 255 255 255
-0.328589 -0.0397209 2.253 255 255 255
1.24611 0.0744769 2.831 255 255 255
-1.28122 0.0532215 3.568 255 255 255
-1.16493 -1.22339 3.215 255 255 255
0.397888 0.379631 0.992 0 0 0
0.201967 0.364008 1.47 255 255 255
0.157277 -0.636608 2.128 255 255 255
-0.969306 0.662195 2.085 255 255 255
-1.62666 -1.17088 3.117 255 255 255
1.10698 -0.309031 2.572 255 255 255
0.0301499 -0.211015 2.204 255 255 255
0.257644 -0.0505414 2.42 255 255 255
0.176136 0.39971 1.435 255 255 255
-0.333639 -0.684901 1.941 255 255 255
0.344183 -0.353435 2.365 255 255 255
-0.476015 0.206879 2.347 255 255 255
1.12183 -0.865303 2.365 255 255 255
-0.66128 0.735075 1.929 255 255 255
-0.420744 0.0842948 2.236 255 255 255
0.366445 -0.830314 2.22 255 255 255
0.127788 0.00518181 1.47 255 255 255
0.526767 -0.0530476 2.54 255 255 255
0.116376 0.101349 1.477 255 255 255
-1.17849 0.582983 2.294 255 255 255
1.27084 -0.303225 2.707 255 255 255
-0.962886 0.405164 2.731 255 255 255
-1.12376 0.572508 2.312 255 255 255
-0.299026 0.253739 2.43 255 255 255
-0.712696 0.416274 2.66 255 255 255
-1.69351 0.168289 3.215 255 255 255
0.561994 -0.843575 2.236 255 255 255
0.348907 0.43433 1.229 255 255 255
1.13421 0.060099 2.805 255 255 255
0.188581 0.0787455 1.459 255 255 255
0.572971 0.198331 1.229 255 255 255
-0.474537 0.742177 1.923 255 255 255
0.391754 0.268785 1.213 255 255 255
0.374145 0.393826 1.13 255 255 255
-0.285307 -0.523153 2.024 255 255 255
0.524103 0.203998 1.227 255 255 255
0.979256 -0.783604 2.374 255 255 255
-0.139856 -0.692025 2.017 255 255 255
0.541166 0.140667 2.53 255 255 255
-0.115366 -0.728464 1.991 255 255 255
0.313379 0.355453 1.381 255 255 255
-0.383741 0.644652 2.151 255 255 255
-1.01386 -0.201066 3.547 255 255 255
-0.901644 -0.403046 3.266 255 255 255
1.23179 -0.528121 2.519 255 255 255
0.283325 0.258752 1.47 0 0 0
0.377431 0.418141 1.102 255 255 255
0.470719 0.323227 1.05 255 255 255
-1.54086 -0.150255 3.718 255 255 255
0.470278 0.333446 1.034 255 255 255
0.325696 -0.640608 2.189 255 255 255
0.240495 -0.331625 2.294 255 255 255
0.444966 0.285801 1.083 255 255 255
-0.82061 -0.777221 3.026 255 255 255
0.365139 -0.0891469 2.509 255 255 255
0.365109 0.45848 1.178 255 255 255
-1.71759 0.137358 3.354 255 255 255
0.37965 0.162644 1.445 255 255 255
0.424776 0.284101 1.09 255 255 255
1.20049 -0.309661 2.649 255 255 255
-0.236834 -0.475742 2.121 255 255 255
-0.517801 -0.400494 2.071 255 255 255
-0.253252 -0.21512 2.173 255 255 255
0.0254775 -0.570497 2.114 255 255 255
-0.0607525 -0.461936 2.121 255 255 255
0.437219 -0.297533 2.411 0 0 0
-0.926188 0.306889 2.939 255 255 255
-0.386049 0.309101 2.43 255 255 255
-0.0721361 0.0975924 2.383 255 255 255
0.329791 0.205862 1.403 255 255 255
1.09723 -0.181086 2.66 255 255 255
0.332822 -0.637046 2.189 255 255 255
-0.294746 -0.320171 2.166 255 255 255
0.156136 -0.0186745 2.374 255 255 255
1.32028 -0.102371 2.755 255 255 255
-0.289154 -0.157216 2.204 255 255 255
-1.60406 0.108758 3.487 255 255 255
0.42937 -0.29361 2.411 255 255 255
-0.0922869 0.466137 2.509 255 255 255
-0.31553 -0.407234 2.071 255 255 255
0.392125 0.171625 1.422 255 255 255
0.746501 0.156552 2.66 255 255 255
-0.151227 -0.240756 2.181 255 255 255
0.597724 -0.862828 2.22 255 255 255
-0.52185 -0.194713 2.143 255 255 255
-0.537142 0.325279 2.347 255 255 255
-0.919864 0.508907 2.44 255 255 255
-0.500751 0.593365 2.32 255 255 255
-0.212088 0.732503 2.017 255 255 255
0.109079 -0.47284 2.204 255 255 255
-1.54003 -0.579976 3.336 255 255 255
0.492918 -0.739998 2.253 0 0 0
0.148705 -0.23487 2.261 255 255 255
0.455142 -0.679736 2.212 255 255 255
1.20167 -0.609328 2.499 255 255 255
-1.36615 0.43232 2.626 255 255 255
0.376319 0.35602 1.104 255 255 255
-0.42703 0.0725911 2.212 255 255 255
-1.08258 0.654204 2.114 255 255 255
-0.499365 -0.589239 1.959 255 255 255
-0.744544 0.179122 2.884 255 255 255
0.345778 0.311314 1.225 255 255 255
-0.93285 0.683429 2.057 255 255 255
0.145832 0.0526285 1.459 255 255 255
0.112667 -0.44056 2.204 255 255 255
1.12828 -0.199296 2.672 255 255 255
0.134324 0.0694382 1.463 255 255 255
-0.602858 0.570237 2.365 255 255 255
0.846206 -0.843839 2.286 255 255 255
-0.412986 0.439048 2.449 255 255 255
-0.0332196 0.526048 2.374 255 255 255
0.648984 -0.739676 2.286 255 255 255
-1.57573 0.0127994 3.631 255 255 255
-1.7096 -0.262786 3.448 255 255 255
0.887932 0.206854 2.695 0 0 0
0.297602 0.231574 1.435 255 255 255
0.363603 0.335005 1.149 255 255 255
-0.920129 -0.89533 3.165 255 255 255
-1.6994 0.0822531 3.568 255 255 255
0.401067 0.35318 1.004 255 255 255
-0.401808 -0.475152 2.03 255 255 255
0.852836 0.198083 2.695 0 0 0
-0.105636 0.135663 2.44 255 255 255
0.0845078 0.292629 1.509 255 255 255
-0.0691992 -0.677921 2.064 255 255 255
-1.09071 0.592186 2.244 255 255 255
-0.224576 0.639016 2.204 255 255 255
0.399625 0.274449 1.178 255 255 255
1.39044 -0.26262 2.743 255 255 255
0.205445 -0.321898 2.278 255 255 255
0.369366 0.263508 1.244 255 255 255
0.438277 0.316889 1.046 255 255 255
-0.922633 0.737545 1.911 255 255 255
-0.315901 -0.217952 2.166 255 255 255
-1.42823 -0.512151 3.354 255 255 255
1.39904 -0.314203 2.805 255 255 255
0.762182 -0.825382 2.236 255 255 255
0.123963 -0.667992 2.151 255 255 255
0.47799 0.179228 1.409 255 255 255
0.941105 -0.0123775 2.684 255 255 255
-0.760028 0.672611 2.107 255 255 255
-0.445382 0.534502 2.43 255 255 255
-0.483557 -0.262609 2.128 255 255 255
0.426402 -0.072815 2.509 255 255 255
0.0215151 -0.755173 2.064 255 255 255
0.953763 -0.432722 2.489 255 255 255
-0.703308 0.730172 1.941 255 255 255
-0.185139 0.755441 1.941 255 255 255
0.890623 -0.0550943 2.638 255 255 255
-0.373139 -0.591344 1.966 255 255 255
0.0914617 -0.570812 2.128 255 255 255
-0.406888 -0.60199 1.959 255 255 255
-1.7991 -0.0221295 3.547 255 255 255
-0.181432 0.175812 2.392 255 255 255
0.127618 -0.159778 2.347 255 255 255
1.12102 -0.127018 2.707 255 255 255
-0.859826 -0.712932 3.133 255 255 255
0.0149184 0.560728 1.696 255 255 255
-0.447128 -0.162793 2.136 255 255 255
1.42032 0.158848 2.857 255 255 255
0.358842 0.441477 1.189 255 255 255
-1.34838 0.346288 2.831 255 255 255
0.339189 0.3596 1.291 255 255 255
-0.102594 -0.340134 2.204 255 255 255
-0.265084 0.13972 2.374 255 255 255
-0.293577 0.686326 2.107 255 255 255
-0.515739 0.59955 2.286 255 255 255
-0.0652765 0.735597 1.947 255 255 255
0.801493 -0.598166 2.374 255 255 255
-0.134148 0.740528 2.03 255 255 255
-0.0253941 0.0545203 2.365 255 255 255
-0.795481 0.678036 2.092 255 255 255
-0.0963312 -0.0219492 2.312 255 255 255
1.26915 0.166616 2.831 255 255 255
-0.0463003 -0.598604 2.092 255 255 255
1.03031 -0.547294 2.44 255 255 255
0.518674 0.295936 1.075 255 255 255
-0.532475 0.601159 2.278 255 255 255
0.459942 0.347473 0.997 255 255 255
-0.259717 -0.537918 2.03 255 255 255
1.04554 -0.740888 2.411 255 255 255
0.441665 0.190539 1.425 255 255 255
-0.197831 0.328992 2.402 255 255 255
0.849642 -0.505585 2.469 255 255 255
-0.285087 -0.243409 2.173 255 255 255
0.154844 0.245563 1.477 255 255 255
0.155442 0.441097 1.396 255 255 255
0.53741 0.159995 1.308 255 255 255
-0.325763 0.0843354 2.338 255 255 255
0.512469 0.0425503 2.572 255 255 255
0.404733 -0.686935 2.212 255 255 255
0.702522 -0.855602 2.22 255 255 255
-0.306129 0.693967 2.099 255 255 255
0.036202 -0.0609387 2.365 255 255 255
-1.64321 -0.65055 3.336 255 255 255
-1.12726 -0.30548 3.487 255 255 255
0.453586 -0.0961493 2.479 255 255 255
0.850232 -0.699432 2.338 255 255 255
-0.22037 0.350978 2.392 255 255 255
0.756236 -0.390642 2.479 255 255 255
-0.896764 0.258285 3.102 255 255 255
0.319031 -0.813996 2.121 255 255 255
0.90296 0.0222702 2.649 255 255 255
0.349687 -0.0112062 2.43 255 255 255
1.40467 -0.116872 2.78 255 255 255
0.318832 0.166615 1.502 255 255 255
0.156077 0.370174 1.466 255 255 255
-1.70032 -0.839526 3.248 255 255 255
0.139753 0.163065 1.47 255 255 255
-0.472126 -0.0029907 2.204 255 255 255
0.298904 0.298268 1.419 255 255 255
-0.0134224 0.505546 1.794 255 255 255
0.486741 -0.514976 2.347 255 255 255
-1.16227 -1.13225 3.165 255 255 255
-0.0435117 0.653195 1.966 255 255 255
-0.303657 -0.586731 1.972 255 255 255
0.302497 0.465085 1.393 255 255 255
-0.861418 0.22295 3.102 255 255 255
-1.05375 0.600303 2.22 255 255 255
0.188292 -0.552807 2.166 255 255 255
0.861699 -0.421209 2.469 0 0 0
-0.965261 0.570713 2.32 255 255 255
-0.501096 -0.634363 1.941 255 255 255
-1.22749 0.0990854 3.547 255 255 255
-1.63437 -0.382715 3.467 255 255 255
0.444416 0.111349 2.615 255 255 255
-1.39532 -1.00354 3.133 255 255 255
-0.265327 0.682778 2.128 255 255 255
0.647807 0.165256 1.316 255 255 255
0.245974 0.220829 1.505 255 255 255
0.421223 0.275649 1.128 255 255 255
0.325075 0.485454 1.319 255 255 255
-0.106333 -0.723437 2.004 255 255 255
0.20436 0.34487 1.47 255 255 255
0.26864 0.313394 1.551 255 255 255
-0.0554088 -0.710365 2.051 255 255 255
-0.373555 -0.730017 1.935 255 255 255
-0.10977 -0.322201 2.204 255 255 255
-0.375181 0.228214 2.411 255 255 255
0.663191 -0.145797 2.572 255 255 255
0.367593 0.286622 1.205 255 255 255
-1.68827 -0.893779 3.215 255 255 255
-1.12724 0.547432 2.383 255 255 255
0.114406 0.319382 1.452 255 255 255
0.39622 0.341859 1.034 255 255 255
-0.274549 0.607711 2.261 255 255 255
0.221211 0.436358 1.381 255 255 255
-1.05759 -0.716458 3.391 255 255 255
-0.341128 0.197561 2.42 255 255 255
-1.1897 -0.299805 3.487 255 255 255
-1.01329 -1.02488 3.266 255 255 255
0.0603812 0.58664 1.52 255 255 255
0.441045 0.345955 1.002 255 255 255
-0.12412 0.642603 2.204 255 255 255
0.0826496 0.282394 1.52 255 255 255
-1.49615 -0.240109 3.527 255 255 255
0.375637 0.353581 1.102 255 255 255
0.0626901 0.148432 1.516 255 255 255
0.114406 0.510775 1.452 255 255 255
-0.341136 -0.620138 1.966 255 255 255
1.16208 -0.376449 2.519 255 255 255
-0.849259 0.494502 2.55 255 255 255
0.704802 -0.702476 2.286 255 255 255
-0.271055 0.705271 2.092 255 255 255
-0.311847 -0.511461 2.004 255 255 255
-1.39855 -0.00478594 3.527 255 255 255
-1.59938 -0.134921 3.631 255 255 255
0.0953785 0.140753 1.487 255 255 255
-0.493181 0.345696 2.356 255 255 255
0.779205 -0.565109 2.365 255 255 255
0.00392788 0.543156 1.719 255 255 255
0.0146369 0.282069 1.664 0 0 0
0.0407644 -0.195955 2.196 255 255 255
-0.463987 -0.467849 1.985 255 255 255
0.326852 -0.533376 2.173 255 255 255
0.407191 0.299347 1.081 255 255 255
1.35616 -0.361798 2.684 255 255 255
-1.36817 -0.604938 3.354 255 255 255
0.882625 -0.51743 2.449 255 255 255
0.423725 0.358645 0.992 255 255 255
1.06041 -0.903365 2.374 255 255 255
-1.14923 0.183984 3.215 255 255 255
0.423703 0.2159 1.286 255 255 255
-0.316597 -0.455953 2.078 255 255 255
-0.981059 0.699726 1.953 255 255 255
-0.469147 -0.543354 1.966 255 255 255
-0.423273 -0.361841 2.121 255 255 255
0.127017 -0.332961 2.204 255 255 255
-0.197726 -0.734349 1.972 255 255 255
-0.468566 -0.329658 2.092 255 255 255
0.335652 0.46935 1.31 0 0 0
-1.65164 -0.935634 3.215 255 255 255
-1.12231 0.0580187 3.507 255 255 255
-0.219894 0.755441 1.941 255 255 255
-0.959638 0.676734 2.057 255 255 255
0.16585 -0.276924 2.244 255 255 255
0.140405 0.390268 1.452 255 255 255
-0.944391 0.406149 2.768 255 255 255
-1.2292 0.465285 2.572 255 255 255
0.842592 0.0610674 2.649 255 255 255
1.06692 -0.202729 2.66 255 255 255
-0.496306 -0.699692 1.947 255 255 255
-0.955536 0.440417 2.649 255 255 255
0.942422 -0.529386 2.449 255 255 255
-1.02825 -1.04454 3.149 255 255 255
0.38251 0.386867 0.994 255 255 255
0.291531 0.475593 1.384 255 255 255
0.42903 -0.818719 2.189 255 255 255
-0.00881172 -0.684818 2.085 255 255 255
0.642379 -0.84172 2.212 255 255 255
0.175646 0.354439 1.47 255 255 255
-1.17354 -0.795148 3.283 255 255 255
0.418341 -0.718977 2.189 255 255 255
-1.35517 -0.363714 3.674 255 255 255
-0.0565164 -0.622434 2.092 255 255 255
0.409419 0.311032 1.055 255 255 255
-0.297378 0.291591 2.449 255 255 255
-0.499476 -0.652166 1.947 255 255 255
-1.561 -0.371431 3.467 255 255 255
0.338991 0.316142 1.244 255 255 255
-1.28052 0.137131 3.487 255 255 255
-0.551335 0.393796 2.392 255 255 255
-0.273459 0.191958 2.449 255 255 255
-1.73367 0.12369 3.429 255 255 255
-0.21836 -0.421392 2.143 255 255 255
1.38436 0.0376212 2.831 255 255 255
-0.463458 -0.718336 1.929 255 255 255
0.528272 0.239844 1.187 255 255 255
-1.11595 -0.0289006 3.674 255 255 255
0.670013 -0.752638 2.269 255 255 255
0.189373 -0.396793 2.22 255 255 255
0.109475 -0.298173 2.212 255 255 255
-0.880606 0.416957 2.78 255 255 255
0.299195 -0.40859 2.286 255 255 255
-1.49156 -1.05071 3.231 255 255 255
0.237497 -0.151556 2.338 255 255 255
0.580257 -0.476229 2.402 255 255 255
-0.39999 -0.716488 1.941 255 255 255
-0.119052 0.688606 2.114 255 255 255
-0.360797 -0.395661 2.099 255 255 255
-1.4895 -0.199887 3.741 255 255 255
-0.441058 -0.332022 2.107 255 255 255
-0.144222 0.401665 2.489 255 255 255
-1.59572 -0.565419 3.283 255 255 255
-0.0413206 -0.391253 2.189 255 255 255
1.25649 0.000741667 2.743 255 255 255
0.688598 -0.682536 2.294 255 255 255
0.46763 -0.696645 2.22 255 255 255
1.36315 -0.368876 2.672 255 255 255
0.243541 0.451484 1.393 255 255 255
0.425392 0.217687 1.26 0 0 0
-0.440536 -0.306616 2.121 255 255 255
0.742273 -0.819476 2.22 255 255 255
-1.45857 -0.65055 3.336 255 255 255
1.27035 0.153497 2.844 255 255 255
-1.51621 -0.250162 3.507 255 255 255
0.0290883 0.227376 1.567 0 0 0
-0.265742 0.714812 2.051 255 255 255
-0.126744 -0.602705 2.071 255 255 255
-1.61645 -0.434321 3.429 255 255 255
-0.337072 -0.298635 2.189 255 255 255
0.0823237 0.435773 1.47 255 255 255
-0.440612 -0.609681 1.953 255 255 255
0.699246 -0.385915 2.449 255 255 255
0.112322 0.17705 1.487 255 255 255
0.555955 -0.739676 2.286 255 255 255
-0.500819 0.615546 2.236 255 255 255
-1.74456 0.0408975 3.507 255 255 255
0.193312 0.211913 1.477 255 255 255
-0.0531613 0.356354 2.402 255 255 255
0.0243713 0.0538979 2.338 255 255 255
0.690966 -0.302582 2.42 255 255 255
0.126556 -0.346047 2.196 255 255 255
1.04223 -0.69421 2.44 255 255 255
1.22546 -0.776477 2.449 255 255 255
-1.53134 -0.0643856 3.652 255 255 255
0.317342 0.454844 1.369 255 255 255
-0.10454 -0.559618 2.099 255 255 255
1.22072 -0.27881 2.684 255 255 255
-0.569557 0.593745 2.278 255 255 255
-0.181523 -0.07831 2.204 255 255 255
0.753024 -0.125889 2.593 255 255 255
-0.966147 0.38419 2.805 255 255 255
-0.264244 -0.421576 2.092 255 255 255
0.645998 0.170637 1.308 255 255 255
-0.696425 0.698124 2.051 255 255 255
0.0227629 0.631385 1.664 255 255 255
0.594705 -0.139299 2.53 255 255 255
0.481382 0.173572 1.419 255 255 255
-0.292564 0.745965 1.941 255 255 255
-1.09127 -0.615038 3.41 255 255 255
-0.450682 -0.404481 2.057 255 255 255
0.403514 0.29583 1.135 255 255 255
-0.465349 -0.0421548 2.189 255 255 255
1.42942 -0.103783 2.793 255 255 255
-1.0909 0.6746 2.071 255 255 255
0.335739 0.419885 1.27 255 255 255
1.1619 -0.801223 2.392 255 255 255
0.529444 0.21017 1.194 255 255 255
0.778976 -0.549313 2.449 255 255 255
-1.30667 0.309507 3.011 255 255 255
1.08592 -0.483763 2.44 255 255 255
0.351361 0.479131 1.252 255 255 255
0.647848 -0.0951621 2.561 255 255 255
-0.0255874 -0.0691583 2.383 255 255 255
0.159746 -0.216473 2.261 255 255 255
0.193312 0.207106 1.477 255 255 255
-0.998386 0.387091 2.793 255 255 255
-1.52625 -0.960766 3.283 255 255 255
-0.224909 -0.54828 2.044 255 255 255
0.148918 0.332004 1.466 255 255 255
0.65486 -0.58456 2.32 255 255 255
-0.299684 -0.398466 2.078 255 255 255
-1.74889 -0.262786 3.448 255 255 255
-0.0293551 0.0624544 2.374 255 255 255
0.40356 0.210301 1.33 255 255 255
1.03533 -0.313453 2.54 255 255 255
0.370466 0.364404 1.13 255 255 255
0.623132 0.148052 1.375 255 255 255
0.398268 -0.577685 2.278 255 255 255
0.759043 -0.505475 2.449 255 255 255
-0.765083 0.517041 2.479 255 255 255
0.0920828 0.309618 1.473 255 255 255
-1.06604 0.624818 2.143 255 255 255
-0.321935 -0.661729 1.966 255 255 255
-0.841295 0.431141 2.755 255 255 255
-0.33122 -0.335455 2.151 255 255 255
1.15229 -0.501579 2.489 255 255 255
0.0477513 0.016034 2.365 255 255 255
0.131392 -0.522671 2.158 255 255 255
-1.34056 0.356802 2.805 255 255 255
-1.00707 0.506821 2.43 255 255 255
0.268861 0.337027 1.567 0 0 0
-0.800198 0.436845 2.707 255 255 255
0.949843 -0.0298485 2.684 255 255 255
-1.41099 0.340112 2.818 255 255 255
-1.05388 -1.03941 3.149 255 255 255
-1.3141 0.241887 3.086 255 255 255
-1.35262 0.0755683 3.527 255 255 255
-1.52925 -0.675956 3.301 255 255 255
-0.244478 0.664309 2.158 255 255 255
0.496334 0.330622 1.015 255 255 255
-1.60441 0.204784 3.133 255 255 255
0.0965407 -0.757671 2.017 255 255 255
-0.292089 -0.665749 1.959 255 255 255
-1.45006 -0.948796 3.354 255 255 255
0.297331 -0.687463 2.114 255 255 255
-1.63394 0.0870475 3.527 255 255 255
0.931262 -0.542808 2.42 255 255 255
0.37098 -0.835089 2.204 255 255 255
-0.0693247 -0.763231 1.972 255 255 255
-0.23397 0.741042 1.953 255 255 255
-0.138602 0.561177 2.392 255 255 255
0.430973 -0.239572 2.42 255 255 255
-0.123466 0.508973 2.479 255 255 255
0.704802 -0.654115 2.286 255 255 255
-1.45457 -0.233945 3.609 255 255 255
-0.816751 0.606793 2.244 255 255 255
1.11572 0.168925 2.793 255 255 255
-1.12664 -0.728032 3.318 255 255 255
-0.797981 0.300667 2.925 255 255 255
-0.290896 -0.0443502 2.303 255 255 255
-0.40267 0.585632 2.365 255 255 255
-0.413093 -0.069652 2.158 255 255 255
0.0589356 0.294963 1.547 255 255 255
-0.150023 -0.515454 2.114 255 255 255
-0.768689 0.559614 2.402 255 255 255
0.222163 0.38497 1.477 255 255 255
-1.6703 0.155428 3.391 255 255 255
-1.46825 -0.380618 3.448 255 255 255
-0.473103 0.720148 2.01 255 255 255
0.0441662 0.360676 1.559 255 255 255
0.295788 0.4154 1.449 255 255 255
-1.51868 -0.504074 3.373 255 255 255
-0.0258681 -0.663287 2.092 255 255 255
0.148613 0.171812 1.463 255 255 255
-0.686361 0.691451 2.071 255 255 255
0.586953 -0.0823043 2.55 255 255 255
0.102157 0.0485691 1.48 255 255 255
0.978301 -0.529386 2.449 255 255 255
-1.05022 0.522476 2.411 255 255 255
-0.338967 -0.573894 1.972 255 255 255
0.545935 0.167376 1.283 255 255 255
0.331367 0.311322 1.327 255 255 255
-1.66734 -0.899011 3.215 255 255 255
-0.447012 -0.0173372 2.204 255 255 255
0.382895 -0.58601 2.253 255 255 255
-0.204406 -0.243536 2.143 255 255 255
-1.53462 -0.665212 3.301 255 255 255
-0.236707 0.437435 2.44 255 255 255
-0.0177619 0.0779075 2.374 255 255 255
-1.28967 -0.993293 3.149 255 255 255
0.428155 0.174039 1.442 255 255 255
1.16393 -0.226397 2.684 255 255 255
-0.177783 0.447019 2.449 255 255 255
0.636319 -0.719867 2.294 255 255 255
-1.26023 0.487049 2.43 255 255 255
1.26791 0.0603775 2.818 255 255 255
-0.125934 0.692046 2.114 255 255 255
0.44074 -0.679736 2.212 255 255 255
-0.366405 0.691653 2.092 255 255 255
-1.21 -0.79103 3.266 255 255 255
-1.11907 0.461305 2.55 255 255 255
0.548761 -0.650939 2.212 255 255 255
0.244176 0.160865 1.494 255 255 255
1.42728 0.164298 2.871 255 255 255
-0.94534 -0.935891 3.198 255 255 255
0.250803 -0.79189 2.099 255 255 255
0.61334 -0.607341 2.278 255 255 255
1.01817 -0.529386 2.449 255 255 255
-0.0324602 -0.567545 2.078 255 255 255
0.584604 -0.67767 2.253 255 255 255
0.60706 -0.00755021 2.53 255 255 255
0.868786 -0.755595 2.347 255 255 255
-0.139699 0.698927 2.114 255 255 255
-0.0409484 0.506731 2.374 255 255 255
-0.448517 -0.391702 2.078 255 255 255
-0.784957 0.557284 2.392 255 255 255
0.514402 0.193893 1.252 255 255 255
-0.354262 0.0226074 2.253 255 255 255
0.056855 0.490064 1.559 255 255 255
-0.490098 -0.745762 1.935 255 255 255
0.812874 -0.104346 2.582 255 255 255
-0.813277 0.691448 2.051 255 255 255
-0.0446429 0.570237 2.365 255 255 255
-0.148958 -0.580112 2.099 255 255 255
-0.296285 0.322285 2.44 255 255 255
0.378196 0.290556 1.189 255 255 255
-0.380187 0.510938 2.469 255 255 255
0.13958 -0.791436 2.071 255 255 255
0.868533 -0.858719 2.286 255 255 255
0.282333 0.330218 1.571 255 255 255
-1.20783 -0.257437 3.609 255 255 255
-1.06519 0.308351 2.953 255 255 255
0.36224 0.286219 1.22 255 255 255
1.00644 -0.0126496 2.743 255 255 255
-0.144955 0.753755 1.953 255 255 255
-0.4523 -0.720571 1.935 255 255 255
0.332633 -0.349586 2.365 0 0 0
-1.10874 0.341681 2.831 255 255 255
1.158 -0.801223 2.392 255 255 255
0.33921 0.0165425 2.44 255 255 255
0.209573 0.352765 1.473 255 255 255
0.346907 0.29233 1.229 255 255 255
-0.301364 0.427092 2.449 255 255 255
0.572554 0.131509 1.52 255 255 255
1.05268 -0.787467 2.374 255 255 255
0.994518 -0.740888 2.411 255 255 255
0.510081 -0.156661 2.479 255 255 255
1.18075 0.15668 2.818 255 255 255
-1.61688 0.183012 3.198 255 255 255
-0.0602698 0.703621 1.991 255 255 255
0.260601 -0.475004 2.181 255 255 255
-1.06438 -1.06015 3.165 255 255 255
0.167207 0.0906169 1.459 255 255 255
0.229123 0.179953 1.491 255 255 255
-0.477627 0.383106 2.374 255 255 255
-1.62132 -0.104129 3.588 255 255 255
0.494993 0.350058 0.986 255 255 255
0.655325 -0.835638 2.244 255 255 255
-0.90868 0.723855 1.941 255 255 255
-0.258908 -0.0580528 2.253 255 255 255
0.0875983 -0.0306213 2.402 255 255 255
-1.24006 -0.922413 3.318 255 255 255
0.193705 0.315907 1.48 255 255 255
-1.32565 0.0471361 3.547 255 255 255
0.454608 -0.365592 2.42 255 255 255
-1.05347 -0.577856 3.487 255 255 255
-0.171896 -0.275235 2.173 255 255 255
0.464358 0.287564 1.083 255 255 255
0.0742871 -0.702201 2.037 255 255 255
0.490408 0.330621 1.041 255 255 255
-1.25799 0.0938657 3.568 255 255 255
-0.185073 0.461259 2.44 255 255 255
-1.74029 0.0122918 3.487 255 255 255
0.194789 0.337694 1.47 255 255 255
-0.209597 -0.531683 2.057 255 255 255
-0.458274 -0.617313 1.947 255 255 255
0.408827 0.35955 0.999 255 255 255
1.01537 0.0766256 2.743 255 255 255
0.961237 -0.254579 2.53 255 255 255
0.116918 0.42939 1.425 255 255 255
0.0638713 0.0084319 2.392 255 255 255
0.759491 0.0613209 2.66 255 255 255
-0.0808329 0.518552 2.411 255 255 255
-1.23649 -0.449908 3.507 255 255 255
-0.318804 0.206286 2.43 255 255 255
-0.757021 0.727013 1.941 255 255 255
0.0039393 0.620485 1.724 255 255 255
-0.572535 0.244954 2.383 255 255 255
-1.24378 0.236865 3.086 255 255 255
-0.419218 -0.599567 1.972 255 255 255
0.348185 -0.681966 2.196 255 255 255
-0.0382555 0.46296 2.449 255 255 255
-0.562213 0.21534 2.356 255 255 255
-1.17354 0.171848 3.283 255 255 255
-0.48194 -0.596968 1.953 255 255 255
-0.454187 -0.0137506 2.204 255 255 255
1.39769 -0.265916 2.731 255 255 255
1.30121 -0.41808 2.626 255 255 255
0.870384 0.0840561 2.695 255 255 255
-0.221291 0.180456 2.402 255 255 255
0.934262 -0.48753 2.459 255 255 255
-0.255849 -0.410884 2.107 255 255 255
-0.10477 0.173932 2.42 255 255 255
0.64368 -0.0201455 2.561 255 255 255
-1.24064 -1.18974 3.181 255 255 255
0.384757 -0.312058 2.402 255 255 255
0.158788 -0.118217 2.356 255 255 255
-0.43781 0.241253 2.347 255 255 255
-1.05529 -1.16723 3.248 255 255 255
-1.2751 -0.178773 3.81 255 255 255
-1.06522 -0.312939 3.507 255 255 255
-0.463246 0.528364 2.42 255 255 255
-1.33581 -1.05479 3.149 255 255 255
-0.066161 0.383254 2.449 0 0 0
-0.492987 -0.531856 1.959 255 255 255
0.482348 0.322437 1.053 255 255 255
0.561635 -0.592941 2.294 255 255 255
0.27721 -0.34671 2.32 255 255 255
-0.461904 -0.465805 2.004 255 255 255
-0.585395 0.7461 1.917 255 255 255
0.330255 0.18851 1.445 255 255 255
0.95412 -0.877319 2.286 255 255 255
0.069446 0.415928 1.502 255 255 255
-0.792745 0.553392 2.392 255 255 255
0.123003 0.261144 1.47 255 255 255
0.506129 0.187157 2.604 255 255 255
0.00520518 -0.140252 2.278 255 255 255
0.483886 0.350592 0.983 255 255 255
0.446842 0.356476 0.986 255 255 255
-1.41185 -0.937879 3.354 255 255 255
0.481163 0.329559 1.043 255 255 255
0.245713 -0.763147 2.114 255 255 255
-0.0504201 0.21275 2.459 255 255 255
1.24107 -0.101033 2.719 255 255 255
0.657455 0.190309 1.297 255 255 255
1.20544 -0.488974 2.55 255 255 255
-0.143643 0.452495 2.479 255 255 255
1.1321 -0.334144 2.572 255 255 255
-1.38916 -0.368458 3.547 255 255 255
-0.40121 -0.141897 2.189 255 255 255
0.159394 -0.103274 2.365 255 255 255
0.358259 0.32745 1.162 255 255 255
-1.17916 0.442881 2.638 255 255 255
-1.51319 -0.498585 3.373 255 255 255
-0.661163 0.72038 1.966 255 255 255
-0.541905 0.62955 2.196 255 255 255
-0.68641 0.694786 2.051 255 255 255
0.576382 0.14949 2.54 255 255 255
-1.80623 -0.400841 3.429 255 255 255
-0.411628 0.498875 2.489 255 255 255
0.0905202 -0.337819 2.189 255 255 255
-0.367792 -0.279797 2.181 255 255 255
-0.373851 -0.657354 1.953 255 255 255
-0.291671 0.368081 2.402 255 255 255
-1.72744 0.0294835 3.507 255 255 255
-0.36987 0.192183 2.402 255 255 255
-1.49054 -0.299805 3.487 255 255 255
1.26851 -0.35989 2.638 255 255 255
0.317383 0.20821 1.419 255 255 255
-0.0854255 0.506821 2.43 255 255 255
1.05034 -0.51154 2.459 255 255 255
-0.0392253 -0.679138 2.078 255 255 255
0.998442 -0.580025 2.411 255 255 255
0.927323 -0.550685 2.42 255 255 255
0.325179 -0.398188 2.312 255 255 255
-1.19199 -0.127579 3.763 255 255 255
-1.62589 -0.154889 3.547 255 255 255
1.13799 -0.0738274 2.695 255 255 255
-0.00609853 0.241253 2.347 255 255 255
-0.325644 0.708301 2.071 255 255 255
-0.0088413 -0.680309 2.092 255 255 255
0.76962 -0.60819 2.383 255 255 255
-0.369032 0.679468 2.107 255 255 255
0.270014 -0.613197 2.143 255 255 255
-1.55512 -0.0643856 3.652 255 255 255
-1.62354 -0.85222 3.318 255 255 255
-1.03608 -0.55456 3.448 255 255 255
0.573432 -0.0279024 2.509 255 255 255
-0.08436 -0.520605 2.107 255 255 255
0.37406 -0.554456 2.244 255 255 255
1.20034 -0.0829665 2.707 255 255 255
1.18133 -0.536128 2.499 255 255 255
0.233259 0.220388 1.502 255 255 255
-1.0634 0.238094 3.102 255 255 255
-1.54252 -0.598445 3.318 255 255 255
-0.71955 0.515076 2.489 255 255 255
-1.00317 0.484768 2.479 255 255 255
0.468794 0.232293 1.208 255 255 255
-0.335854 0.71815 2.051 255 255 255
0.97756 -0.298563 2.519 255 255 255
1.13109 -0.278325 2.638 255 255 255
0.159155 -0.801765 2.107 255 255 255
-1.06185 0.655467 2.107 255 255 255
-1.29111 -0.966108 3.283 255 255 255
1.0419 -0.0921837 2.719 255 255 255
0.0206447 0.0120926 2.347 255 255 255
0.666076 -0.367482 2.459 255 255 255
0.130181 0.129575 1.47 255 255 255
-0.445154 -0.557359 1.959 255 255 255
-0.274174 -0.383031 2.143 255 255 255
1.1685 -0.517781 2.489 255 255 255
0.394007 0.34072 1.046 255 255 255
0.398762 0.300574 1.132 255 255 255
-0.0676862 -0.283215 2.236 255 255 255
-1.3342 0.226822 3.086 255 255 255
-0.201668 -0.202441 2.151 255 255 255
-0.0155473 -0.70619 2.078 255 255 255
0.146232 0.174193 1.463 255 255 255
0.325547 0.178263 1.477 255 255 255
-1.68715 -0.464783 3.448 255 255 255
-1.6263 -1.1408 3.248 255 255 255
0.657127 -0.518998 2.383 255 255 255
-0.419501 -0.0347743 2.173 255 255 255
-0.312546 0.659692 2.143 255 255 255
0.310854 0.355787 1.4 255 255 255
0.539415 0.245255 1.149 255 255 255
-0.41037 0.193071 2.365 255 255 255
-1.0513 0.174623 3.336 255 255 255
-0.337117 0.00429073 2.261 255 255 255
0.350289 0.351691 1.213 255 255 255
0.554875 -0.133525 2.499 255 255 255
-0.189463 -0.749521 1.953 255 255 255
0.714137 -0.172236 2.53 255 255 255
-1.49311 0.306526 2.982 255 255 255
0.130835 0.420114 1.425 255 255 255
-0.564527 0.644173 2.173 255 255 255
0.882297 -0.0633904 2.626 255 255 255
-1.58589 -0.0411029 3.696 255 255 255
0.327329 -0.281839 2.411 255 255 255
-0.0022606 -0.0903314 2.329 255 255 255
0.0839878 -0.149287 2.303 255 255 255
