ply
format ascii 1.0
comment Created by Open3D
element vertex 1298
property double x
property double y
property double z
property uchar red
property uchar green
property uchar blue
end_header
-0.295507 -0.364142 1.899 255 255 255
-1.14527 -0.563998 2.649 255 255 255
-0.450207 0.357218 0.914 255 255 255
0.381869 -0.750527 2.684 255 255 255
-0.622583 -0.224697 1.774 255 255 255
-1.29186 -0.96366 2.731 255 255 255
-0.094357 0.095483 1.244 255 255 255
-0.786041 -0.813411 2.719 255 255 255
-0.380207 -0.916392 2.55 255 255 255
0.470953 0.591211 1.815 255 255 255
-1.17326 -0.658031 2.831 255 255 255
-0.210274 -0.273148 1.911 255 255 255
-0.506814 -0.156643 1.724 255 255 255
-0.911363 -0.964547 2.684 255 255 255
-0.210174 -0.0456975 1.491 255 255 255
0.605187 0.598419 1.81 255 255 255
-0.157098 0.217872 0.969 255 255 255
-0.14853 0.140802 1.066 255 255 255
0.190276 -0.790472 2.519 255 255 255
0.294024 0.624058 1.799 255 255 255
-0.380796 0.0657537 1.149 255 255 255
-0.0749203 0.330976 0.928 255 255 255
0.853492 -0.826375 2.181 255 255 255
0.785783 -0.610285 1.668 255 255 255
0.598394 -0.705361 2.695 255 255 255
0.316252 0.542131 1.935 255 255 255
0.685073 0.230927 2.32 255 255 255
0.485507 -0.880656 2.519 255 255 255
0.737579 0.269207 2.261 255 255 255
0.907152 -0.210117 2.54 255 255 255
0.0882925 -0.115644 1.784 255 255 255
0.905909 -0.304691 2.469 255 255 255
-1.25962 -0.751311 2.818 255 255 255
-0.241005 -0.226698 1.837 255 255 255
0.918963 0.0845231 1.985 255 255 255
0.589522 0.164135 2.392 255 255 255
-0.489966 -0.0839408 1.571 255 255 255
-0.317146 -0.361051 1.899 255 255 255
-0.183673 -0.00417798 1.4 255 255 255
-0.476543 -0.0137182 1.445 255 255 255
-0.407093 -0.0837271 1.567 255 255 255
-0.759174 -0.145717 1.633 255 255 255
-0.12662 0.328271 0.888 255 255 255
-0.359368 0.233882 0.97 255 255 255
0.408083 -0.820411 2.684 255 255 255
-0.536814 -0.617148 2.329 255 255 255
0.839114 -0.705467 1.972 255 255 255
-0.517203 0.215297 1.057 255 255 255
0.440621 -0.25388 2.898 255 255 255
-0.233256 0.329985 0.855 255 255 255
0.960121 0.518094 1.882 255 255 255
-0.13039 0.114095 1.185 255 255 255
0.0154625 0.273857 1.283 255 255 255
-0.768703 -0.202634 1.642 255 255 255
-0.0969621 0.285006 0.983 255 255 255
-0.467437 0.141483 1.009 0 0 0
0.637224 -0.884755 2.519 255 255 255
0.893918 0.523863 1.859 255 255 255
0.900661 -0.222041 1.848 255 255 255
-0.695376 -0.908307 2.66 255 255 255
-0.110259 -0.442426 2.078 255 255 255
0.179967 0.595055 1.893 255 255 255
-0.906994 -0.968915 2.684 255 255 255
-0.0971901 0.208778 1.114 255 255 255
-0.0445309 0.10715 1.396 255 255 255
-0.0225137 0.343364 1.098 255 255 255
0.586073 0.31764 2.347 255 255 255
-0.146012 0.168582 1.024 255 255 255
0.899793 -0.0792578 2.731 255 255 255
0.415585 0.201561 2.469 255 255 255
-0.639926 -0.348034 1.815 255 255 255
0.693888 -0.061751 2.743 255 255 255
-0.347292 0.0376328 1.273 255 255 255
0.310175 0.234077 2.561 255 255 255
-0.722651 -0.161536 1.659 0 0 0
-0.128845 -0.612801 2.356 255 255 255
-1.44672 -0.5507 2.755 255 255 255
0.591987 0.266451 2.402 255 255 255
0.423503 0.585496 1.853 255 255 255
0.278405 -0.84613 2.615 255 255 255
-0.405274 -0.158153 1.71 255 255 255
0.0379471 -0.955423 2.479 255 255 255
-0.730847 -0.89833 2.695 255 255 255
-0.727523 -0.00200421 1.477 255 255 255
-0.110697 0.213279 0.704 0 0 0
-0.368989 -0.925673 2.53 255 255 255
0.38841 0.40165 2.181 255 255 255
-0.575149 -0.18684 1.744 255 255 255
-0.0033286 0.154607 1.281 255 255 255
0.622447 -0.42778 2.743 255 255 255
0.211466 0.279026 2.479 255 255 255
0.0958627 0.0262975 1.763 255 255 255
0.986478 0.121205 2.004 255 255 255
0.0608273 -0.603634 2.278 255 255 255
0.200926 0.117594 2.66 255 255 255
-0.8079 -0.622218 2.604 255 255 255
-0.35666 0.280233 0.93 255 255 255
-0.457691 -0.393193 1.905 255 255 255
-0.495523 -0.218923 1.774 255 255 255
-0.134478 -0.687611 2.459 255 255 255
0.95634 -0.0951621 2.561 255 255 255
0.392831 -0.612837 2.793 255 255 255
0.454063 0.634373 1.739 255 255 255
-0.228637 0.0561445 1.27 255 255 255
-0.229743 -0.00418693 1.403 255 255 255
0.657401 0.231823 2.329 255 255 255
0.167691 -0.592111 2.32 255 255 255
-1.35426 -0.834574 2.805 255 255 255
0.432142 0.244954 2.383 255 255 255
0.771704 0.363161 1.972 255 255 255
0.858987 -0.426403 2.099 255 255 255
0.923629 -0.287546 2.684 255 255 255
0.482374 0.0440062 2.66 255 255 255
-0.0318145 0.128923 1.339 255 255 255
0.166404 0.141293 2.469 255 255 255
-0.122539 -0.44465 2.057 255 255 255
0.791062 -0.376928 1.784 255 255 255
-0.0456806 -0.348758 2.064 255 255 255
-0.130639 -0.788795 2.54 0 0 0
0.766841 -0.289474 2.831 255 255 255
-0.398773 -0.430393 1.905 255 255 255
-0.479962 -0.0700711 1.547 255 255 255
0.66356 0.451786 2.024 255 255 255
-0.904761 -0.269617 1.953 255 255 255
-0.281218 0.343275 0.897 255 255 255
0.880316 0.109564 2.03 255 255 255
-0.582271 -0.948016 2.638 255 255 255
0.689925 -0.288144 2.818 255 255 255
0.858721 0.624745 1.705 255 255 255
-1.43517 -0.715216 2.857 255 255 255
-0.740971 -0.750527 2.684 255 255 255
-1.29768 -0.837703 2.831 255 255 255
0.869886 0.0264584 1.991 255 255 255
0.517477 -0.519237 2.731 255 255 255
0.871058 -0.121904 1.929 255 255 255
-0.263974 0.311227 0.893 255 255 255
-0.393039 0.293144 0.923 255 255 255
0.124501 0.601216 1.893 255 255 255
0.759476 0.300193 2.166 255 255 255
0.522749 -0.413013 2.857 255 255 255
0.378072 0.54045 1.929 255 255 255
0.717448 -0.37986 2.818 255 255 255
-0.255653 -0.860828 2.509 255 255 255
0.898571 -0.20259 2.449 255 255 255
0.18847 0.327623 2.392 255 255 255
0.795712 -0.261201 1.87 255 255 255
0.894395 -0.266809 1.805 255 255 255
0.855164 0.0133696 1.972 255 255 255
0.718059 0.243193 2.329 255 255 255
0.382099 0.662846 1.696 255 255 255
0.0789321 -0.820797 2.499 255 255 255
-0.0809578 0.0910406 1.359 255 255 255
0.899624 0.0262857 1.978 255 255 255
0.699196 0.401614 2.071 0 0 0
-0.322468 -0.0271339 1.409 255 255 255
0.735476 0.635247 1.696 255 255 255
-0.373226 0.0709904 1.143 255 255 255
-0.173008 0.219201 0.961 255 255 255
-0.101011 0.306495 0.918 255 255 255
-0.221925 0.150326 1.036 255 255 255
-0.0631653 -0.0316615 1.516 255 255 255
-0.295278 -0.474473 1.959 255 255 255
0.785822 -0.395643 2.768 255 255 255
-0.0103577 0.281549 1.137 255 255 255
0.783023 -0.67847 1.753 255 255 255
-0.221947 0.0070536 1.369 255 255 255
-0.946434 -1.02546 2.672 255 255 255
-0.883921 -0.893519 2.707 255 255 255
0.561233 -0.800196 2.604 255 255 255
0.820827 -0.152491 1.959 255 255 255
-0.394531 0.307318 0.916 255 255 255
0.888129 0.490325 1.905 255 255 255
0.771441 -0.930924 2.489 255 255 255
0.793865 -0.577424 1.691 255 255 255
-0.0206131 0.325494 1.092 255 255 255
-0.106518 0.221861 1.098 255 255 255
-1.11357 -0.985974 2.719 255 255 255
0.38771 -0.866595 2.55 255 255 255
0.585958 0.627683 1.744 255 255 255
-0.554514 -0.874375 2.649 255 255 255
-0.305122 -0.848058 2.582 255 255 255
-1.12684 -0.862083 2.719 255 255 255
-0.225049 0.092491 1.156 255 255 255
-0.946315 -0.66754 2.684 255 255 255
0.342589 -0.561203 2.719 255 255 255
0.628594 0.0850429 2.469 255 255 255
0.887227 -0.550149 2.212 255 255 255
-0.780206 -0.107383 1.616 255 255 255
-0.715726 -0.824181 2.755 255 255 255
-0.291067 0.15707 1.036 255 255 255
-0.400088 -0.785589 2.626 255 255 255
0.623533 -0.925673 2.53 255 255 255
0.680401 0.105348 2.383 255 255 255
0.182167 -0.383138 2.312 255 255 255
-0.00143654 0.053386 1.48 255 255 255
0.0911994 0.675744 1.729 255 255 255
-1.31209 -0.894635 2.793 255 255 255
-0.0938897 -0.324405 2.017 255 255 255
-0.131853 -0.6428 2.411 255 255 255
0.665687 -0.485983 2.719 255 255 255
0.00489671 -0.393493 2.143 255 255 255
0.476882 0.174489 2.374 255 255 255
0.868182 0.138269 2.064 255 255 255
0.0522387 -0.565005 2.228 255 255 255
0.427169 -0.405693 2.871 255 255 255
-0.428758 0.0894506 1.118 0 0 0
0.680209 -0.759129 2.638 255 255 255
1.0091 0.0649119 1.978 255 255 255
0.917293 -0.304401 2.604 255 255 255
0.681086 0.431484 2.037 255 255 255
-0.193938 -0.209129 1.789 255 255 255
-0.0024062 -0.790023 2.479 0 0 0
0.796802 -0.383336 1.887 255 255 255
-0.0874144 0.0948887 1.291 255 255 255
0.347604 0.190073 2.53 255 255 255
0.371519 -0.217122 2.911 255 255 255
0.791518 -0.57846 1.686 255 255 255
-0.0820441 -0.423491 2.136 255 255 255
0.599621 -0.963131 2.499 255 255 255
-0.37107 -0.0830859 1.555 255 255 255
0.755232 -0.355285 2.805 255 255 255
-0.226734 0.188105 0.97 255 255 255
-0.0988258 0.226499 1.112 255 255 255
-1.218 -0.87798 2.755 255 255 255
-1.02957 -0.928107 2.731 255 255 255
-0.420885 0.260526 0.952 255 255 255
-1.49123 -0.602747 2.831 255 255 255
0.704189 -0.603678 2.731 255 255 255
0.348593 0.489239 2.071 255 255 255
0.0678356 -0.259283 1.947 255 255 255
0.625583 -0.963327 2.489 255 255 255
0.290174 0.409126 2.303 255 255 255
-0.528763 -0.369152 1.893 255 255 255
-0.357806 -0.459213 1.935 255 255 255
-0.0277477 -0.583669 2.244 255 255 255
0.939141 -0.416788 2.42 255 255 255
-0.775507 -0.664685 2.638 255 255 255
0.874332 -0.0543864 2.253 255 255 255
-0.853681 -0.832545 2.695 255 255 255
-0.746229 -0.0342186 1.52 255 255 255
-0.0611029 0.242188 1.085 255 255 255
-0.49024 -0.397541 1.911 255 255 255
-0.131526 0.233508 0.67 255 255 255
-0.729695 -0.889114 2.707 255 255 255
-0.570745 0.102581 1.232 255 255 255
0.319881 -0.848959 2.572 255 255 255
0.459415 0.383904 2.181 255 255 255
-0.00905684 -0.438829 2.143 255 255 255
-0.974247 -0.353441 2.22 255 255 255
-0.669555 -0.069999 1.603 255 255 255
-0.448357 -0.299119 1.805 255 255 255
-0.241883 0.231819 0.955 255 255 255
0.344293 -0.455707 2.805 255 255 255
0.55207 0.312379 2.365 255 255 255
-0.127947 0.16366 1.068 255 255 255
0.699744 -0.510349 2.731 255 255 255
-0.158721 -0.41858 1.966 255 255 255
0.610382 0.647963 1.686 255 255 255
-0.346299 -0.477661 1.959 255 255 255
0.567861 0.0943273 2.615 255 255 255
-0.100274 0.204048 1.108 255 255 255
-1.11403 -0.972549 2.731 255 255 255
0.912677 -0.328492 1.789 255 255 255
0.0434985 0.118537 1.452 255 255 255
0.842772 -0.225657 1.853 255 255 255
-0.385462 -0.983313 2.53 255 255 255
0.754747 0.436608 2.03 255 255 255
0.619034 0.0894215 2.479 255 255 255
-0.515737 -0.242018 1.774 255 255 255
0.808582 0.556526 1.837 255 255 255
0.0784446 -0.398462 2.151 255 255 255
-0.107714 0.217094 1.092 255 255 255
-0.438078 0.000381784 1.412 255 255 255
0.861013 -0.804917 2.071 255 255 255
0.518414 -0.316602 2.911 255 255 255
0.907627 -0.341963 2.42 255 255 255
-0.706963 -0.222794 1.673 255 255 255
-1.02957 -0.750337 2.731 255 255 255
-0.388185 0.0477028 1.213 255 255 255
0.641562 -0.763422 2.638 255 255 255
-0.0792538 0.208633 1.143 255 255 255
0.652078 -0.0620212 2.755 255 255 255
0.949349 -0.0869843 2.695 255 255 255
0.817532 -0.211155 2.831 255 255 255
-1.22972 -0.476904 2.53 255 255 255
0.259383 -0.733371 2.638 255 255 255
0.19281 0.578119 1.929 255 255 255
-0.915732 -0.995121 2.684 255 255 255
-0.0068127 -0.0389129 1.612 255 255 255
-0.401716 0.322301 0.912 255 255 255
0.274149 0.627564 1.784 255 255 255
-0.161453 0.236392 0.672 255 255 255
0.0274999 0.275205 1.362 255 255 255
-0.328839 0.264045 0.937 255 255 255
-0.388946 0.203055 0.989 255 255 255
-0.412853 0.216491 0.977 255 255 255
-0.26577 -0.930924 2.489 255 255 255
0.780701 0.4355 1.923 255 255 255
0.757536 0.564629 1.815 255 255 255
-0.357626 -0.262571 1.837 255 255 255
-0.624764 0.109524 1.22 255 255 255
-0.72461 -0.721082 2.672 255 255 255
-0.506891 0.121448 1.079 255 255 255
0.298574 0.523837 1.985 255 255 255
-0.284592 0.196471 0.942 255 255 255
0.367516 -0.730528 2.707 255 255 255
0.531116 0.234201 2.392 255 255 255
0.178148 -0.201755 2.261 255 255 255
-0.384541 0.346769 0.91 255 255 255
0.949843 -0.0647905 2.684 255 255 255
0.894781 -0.72749 2.204 255 255 255
-0.406352 0.130891 1.029 255 255 255
-0.158807 -0.122098 1.637 255 255 255
-0.450328 -0.652862 2.479 255 255 255
-0.469605 0.125883 1.043 255 255 255
0.0458621 0.146891 1.452 255 255 255
0.76893 -0.341591 2.805 255 255 255
0.381759 0.621278 1.758 255 255 255
0.849142 -0.339187 1.784 255 255 255
-0.580514 -0.235579 1.769 255 255 255
-0.409723 0.328999 0.91 255 255 255
-0.576379 -0.247792 1.774 0 0 0
-0.403576 0.277768 0.937 255 255 255
0.363041 0.266695 2.44 255 255 255
0.16292 -0.718527 2.54 255 255 255
-0.704036 -0.739487 2.66 255 255 255
0.671578 -0.716734 2.672 255 255 255
0.426678 0.470313 2.107 255 255 255
0.857946 -0.654902 2.024 255 255 255
-0.295828 0.000373402 1.381 255 255 255
0.515294 0.474577 2.037 255 255 255
-0.014962 0.18542 1.21 255 255 255
0.206677 -0.679793 2.519 255 255 255
-0.154199 0.235336 0.669 255 255 255
-0.589053 0.162132 1.143 255 255 255
0.439058 0.367614 2.278 255 255 255
0.775912 -0.830979 2.53 255 255 255
-0.492532 0.0624841 1.232 255 255 255
-0.00509034 -0.295948 1.959 255 255 255
0.749971 0.439619 2.044 255 255 255
-0.60527 -0.725762 2.626 255 255 255
0.240657 0.554726 1.935 255 255 255
0.320856 0.327623 2.392 255 255 255
0.799163 0.299237 2.017 255 255 255
0.234975 0.328873 2.43 255 255 255
-0.179606 0.00928141 1.369 255 255 255
0.0154192 -0.464969 2.151 255 255 255
-0.723907 -0.237456 1.7 255 255 255
0.5274 -0.115459 2.857 255 255 255
-0.191495 0.0302686 1.313 255 255 255
-0.360979 0.121949 1.053 255 255 255
0.946919 -0.092778 1.911 255 255 255
-0.13115 -0.407442 2.143 0 0 0
-1.17787 -0.704101 2.831 255 255 255
0.0293154 -0.407442 2.143 255 255 255
0.958283 0.215041 2.092 255 255 255
-0.281005 0.324279 0.901 255 255 255
-0.173267 0.214458 0.693 0 0 0
0.87598 -0.6749 2.107 255 255 255
0.924531 0.217714 2.085 255 255 255
-0.102346 0.226061 0.694 0 0 0
0.259769 -0.112348 2.78 255 255 255
-0.391642 0.276879 0.934 255 255 255
-0.0907535 0.250407 1.06 255 255 255
-0.306558 0.284959 0.916 255 255 255
-1.19972 -0.567082 2.684 255 255 255
-0.452479 -0.0923102 1.583 255 255 255
0.822141 -0.252618 2.831 255 255 255
-0.102466 0.103568 1.22 255 255 255
0.841037 0.234503 2.114 255 255 255
0.443779 0.237198 2.383 255 255 255
-0.379376 0.1076 1.081 255 255 255
0.316271 0.609652 1.826 255 255 255
0.698353 -0.414388 2.743 255 255 255
-0.0604378 0.0912475 1.396 255 255 255
0.886456 -0.657008 2.731 255 255 255
0.590739 -0.368317 2.871 255 255 255
0.954295 -0.0166704 2.672 255 255 255
0.496451 0.61653 1.769 255 255 255
-0.423299 0.0876313 1.118 255 255 255
-0.107943 0.216933 0.701 0 0 0
-0.284346 0.0641225 1.225 255 255 255
-0.428826 0.301356 0.916 255 255 255
-0.379661 -0.105722 1.591 255 255 255
0.00127557 -0.280595 1.941 255 255 255
-0.181754 -0.0428648 1.477 255 255 255
0.25583 0.509363 2.057 255 255 255
0.458016 0.59771 1.799 255 255 255
0.838727 -0.29151 1.831 255 255 255
0.637738 0.0735806 2.489 255 255 255
0.395212 -0.236071 2.911 255 255 255
-0.664198 0.00274979 1.449 255 255 255
0.914517 -0.130854 2.449 255 255 255
-0.250857 0.211801 0.942 255 255 255
0.989778 0.0810062 1.978 255 255 255
-0.376348 0.156373 0.969 255 255 255
0.529701 0.604338 1.784 255 255 255
0.349567 0.309448 2.402 255 255 255
-0.248328 0.183256 1.013 255 255 255
-0.518577 0.229688 1.029 255 255 255
0.914391 0.000524818 1.941 255 255 255
0.332121 -0.235016 2.898 255 255 255
0.869481 0.513414 1.865 255 255 255
0.684958 -0.521519 2.743 255 255 255
-0.395381 0.148731 0.981 255 255 255
0.204266 -0.689594 2.54 255 255 255
0.022422 -0.464969 2.151 255 255 255
0.126102 -0.0890496 1.966 255 255 255
0.89396 -0.373121 2.768 255 255 255
0.120563 0.426112 2.092 255 255 255
-0.844263 -0.7922 2.707 0 0 0
0.813069 -0.428076 1.744 255 255 255
0.823141 -0.588921 2.684 255 255 255
-0.709716 -0.0267274 1.516 255 255 255
-0.681115 -0.75152 2.672 255 255 255
-0.439617 -0.898479 2.582 255 255 255
-0.603799 -0.199216 1.753 255 255 255
0.437457 -0.603678 2.731 255 255 255
-0.944441 -0.828664 2.755 255 255 255
-0.567727 -0.121404 1.664 255 255 255
-0.0991604 0.054714 1.336 255 255 255
0.776671 -0.617467 1.758 255 255 255
-0.120667 -0.22534 1.826 255 255 255
-0.440104 -0.450107 1.923 255 255 255
-0.235044 0.255468 0.928 255 255 255
0.321055 0.656957 1.724 255 255 255
0.84727 0.577856 1.774 255 255 255
0.633518 0.432966 2.044 255 255 255
-0.24279 0.0430887 1.313 255 255 255
-0.170729 -0.224723 1.821 255 255 255
0.638145 0.506025 1.966 255 255 255
0.806559 -0.331039 2.793 255 255 255
-1.24939 -0.963163 2.755 255 255 255
0.696669 -0.68067 2.719 255 255 255
-0.237463 -0.21453 1.81 255 255 255
-0.154314 0.2679 0.924 255 255 255
0.728646 0.603244 1.739 255 255 255
-1.01619 -0.742616 2.719 255 255 255
-0.786041 -0.835534 2.719 255 255 255
0.444786 0.429982 2.128 255 255 255
-0.538737 -0.0393718 1.528 255 255 255
-0.46309 0.35237 0.913 255 255 255
-0.0492489 0.206134 1.182 255 255 255
-1.26075 -0.531605 2.638 255 255 255
0.791213 -0.610285 1.668 255 255 255
-0.218735 0.0754623 1.215 255 255 255
-0.0884401 0.252181 1.053 255 255 255
0.595897 0.27036 2.402 255 255 255
0.352128 0.466965 2.092 255 255 255
-0.276298 0.32099 0.9 255 255 255
0.807084 0.0557924 2.604 255 255 255
0.799099 -0.23419 2.831 255 255 255
0.709947 -0.472708 2.719 255 255 255
0.81702 0.33829 1.87 255 255 255
-0.173729 -0.24375 1.853 255 255 255
-0.274968 -0.786554 2.615 255 255 255
0.324443 -0.303294 2.831 255 255 255
-0.847734 -0.714876 2.649 255 255 255
-0.0958396 0.15131 1.237 255 255 255
-0.749501 -0.79478 2.731 255 255 255
-0.340832 0.351918 0.908 255 255 255
0.95867 -0.0339103 2.66 255 255 255
-0.0535413 0.251001 1.041 255 255 255
-0.103488 -0.153644 1.691 255 255 255
0.0726436 -0.348913 2.085 255 255 255
0.732471 -0.738475 2.672 255 255 255
-0.162174 0.229758 0.675 255 255 255
-0.151255 0.235946 0.972 255 255 255
-0.0464095 0.311779 0.997 255 255 255
0.842501 0.170784 2.092 255 255 255
0.817188 -0.114027 2.071 255 255 255
0.59315 0.609612 1.774 255 255 255
0.425662 0.615385 1.774 255 255 255
0.0419824 -0.894911 2.479 255 255 255
0.796927 -0.0123775 2.684 255 255 255
-0.0857436 -0.227315 1.842 255 255 255
0.86994 -0.797062 2.54 255 255 255
0.263932 0.405378 2.303 255 255 255
0.558555 -0.343484 2.898 255 255 255
-0.261917 0.298066 0.906 255 255 255
-0.0416281 0.146886 1.305 255 255 255
0.989733 0.257457 2.024 255 255 255
0.862952 -0.253778 2.844 255 255 255
-0.356479 -0.307356 1.911 255 255 255
-0.460006 0.172564 1.018 255 255 255
-0.214721 -0.0304084 1.456 255 255 255
-0.137133 0.0744506 1.265 255 255 255
0.968815 -0.141193 1.893 255 255 255
0.843506 0.373405 1.848 255 255 255
-0.888328 -0.867088 2.707 255 255 255
0.918687 0.268803 1.917 255 255 255
-0.12554 0.311083 0.901 255 255 255
-0.235931 0.0942089 1.154 255 255 255
-1.34377 -0.681066 2.831 255 255 255
-0.524533 -0.781958 2.672 255 255 255
0.137661 0.636273 1.784 255 255 255
0.919556 -0.67306 2.54 255 255 255
0.188765 -0.81673 2.499 255 255 255
0.814548 0.246262 2.22 255 255 255
-0.209779 0.171208 1.01 255 255 255
0.91313 -0.221473 2.731 255 255 255
0.762337 0.0942097 2.499 255 255 255
-0.419335 0.262075 0.952 255 255 255
-0.332412 -0.499909 2.01 255 255 255
0.431593 0.343055 2.338 255 255 255
0.894331 0.26712 1.905 255 255 255
-0.265387 0.282593 0.918 255 255 255
0.903216 -0.339985 2.755 0 0 0
0.746255 -0.608983 2.755 255 255 255
0.38323 -0.1759 2.857 255 255 255
-0.0237042 -0.277125 1.917 255 255 255
-0.233937 0.242461 0.948 255 255 255
0.12608 0.583881 1.917 255 255 255
-0.124267 0.258362 0.678 255 255 255
0.322686 -0.0652404 2.898 255 255 255
0.443283 0.38175 2.189 255 255 255
-0.598625 -0.957853 2.561 255 255 255
0.282861 0.627564 1.784 255 255 255
-0.11333 0.0658821 1.299 255 255 255
-0.258935 0.265753 0.927 255 255 255
-0.278809 0.18066 0.981 255 255 255
-0.202335 -0.00885304 1.419 255 255 255
0.328251 0.622323 1.794 255 255 255
-0.640755 -0.749362 2.649 255 255 255
-0.0972204 0.108332 1.229 255 255 255
-0.563912 0.0842075 1.257 255 255 255
-0.360685 0.106037 1.083 255 255 255
-0.619469 -0.966188 2.561 255 255 255
-0.871985 -0.233069 1.794 255 255 255
0.756218 -0.753582 2.604 255 255 255
-0.205623 -0.110621 1.587 255 255 255
-0.376348 0.15795 0.969 0 0 0
-0.310404 -0.00629945 1.366 255 255 255
-1.37574 -0.771917 2.793 255 255 255
-0.59444 0.169783 1.132 255 255 255
-0.0516056 0.0985545 1.403 255 255 255
-0.220713 0.0754623 1.215 255 255 255
0.118591 -0.421766 2.181 255 255 255
0.681315 0.39338 2.099 255 255 255
-0.0828979 0.328187 0.916 255 255 255
-0.358809 0.13545 1.013 255 255 255
0.690529 -0.921648 2.519 255 255 255
0.0353296 0.119612 1.409 255 255 255
-0.482541 -0.375313 1.893 255 255 255
-1.34838 -0.671852 2.831 255 255 255
-0.105563 0.253167 1.036 255 255 255
0.0331064 0.0945911 1.412 255 255 255
0.447791 0.599703 1.805 255 255 255
0.269132 0.47331 2.136 255 255 255
-0.196979 0.242202 0.941 255 255 255
0.103536 -0.333063 2.092 255 255 255
-0.392987 0.145835 0.983 255 255 255
-0.74061 -0.799224 2.731 255 255 255
-0.312408 0.175319 0.952 0 0 0
0.908265 0.104533 1.997 255 255 255
-0.302643 -0.25059 1.905 255 255 255
0.528681 -0.798272 2.743 255 255 255
0.860913 -0.775302 2.55 255 255 255
0.374104 0.365576 2.312 255 255 255
-0.739302 -0.199962 1.642 255 255 255
0.651242 -0.722173 2.66 255 255 255
0.167752 -0.805361 2.489 255 255 255
-0.37911 -0.160466 1.705 255 255 255
-0.581688 0.112843 1.213 255 255 255
0.6636 0.651903 1.668 255 255 255
-0.259987 0.0629912 1.242 255 255 255
-0.374689 0.0462566 1.227 255 255 255
-0.696665 -0.522875 2.383 255 255 255
0.450037 0.499321 2.057 255 255 255
-0.502752 -0.0839408 1.571 255 255 255
-1.45155 -0.704705 2.871 255 255 255
0.745862 0.397735 2.051 255 255 255
-0.210416 -0.346926 1.941 255 255 255
0.819604 -0.201628 1.941 255 255 255
0.548596 -0.705895 2.731 255 255 255
0.886467 -0.34596 1.789 255 255 255
-1.29874 -0.538457 2.672 255 255 255
-0.036579 0.123757 1.354 255 255 255
0.312196 0.607345 1.837 255 255 255
0.360024 -0.785469 2.684 255 255 255
0.339367 -0.868033 2.53 255 255 255
0.931015 -0.0549298 2.44 255 255 255
0.781334 0.311815 1.972 255 255 255
-0.236455 -0.685135 2.479 255 255 255
1.02925 0.255796 2.037 255 255 255
-0.985114 -0.856999 2.731 255 255 255
0.516099 -0.0652404 2.898 255 255 255
0.194376 -0.86016 2.519 255 255 255
-0.535327 0.228013 1.029 0 0 0
0.341318 0.407527 2.294 255 255 255
-0.712812 -0.969909 2.582 255 255 255
0.68816 0.105348 2.383 255 255 255
-1.00329 -0.452776 2.402 255 255 255
-0.685039 -0.0291945 1.516 255 255 255
0.813919 -0.550519 1.71 255 255 255
0.882294 -0.534285 2.236 255 255 255
0.224874 0.59466 1.882 255 255 255
-0.283916 0.244519 0.95 255 255 255
0.699949 0.37211 2.114 255 255 255
0.916568 0.0293255 1.966 255 255 255
-0.156779 -0.0554028 1.491 255 255 255
-0.313039 -0.757983 2.649 255 255 255
-0.334651 0.136047 1.03 255 255 255
0.860163 0.0296984 1.991 255 255 255
-0.288988 0.0346998 1.319 255 255 255
-0.0230104 -0.456265 2.143 255 255 255
-0.173303 0.256539 0.921 255 255 255
-0.382298 -0.0109577 1.393 255 255 255
0.0749432 -0.482471 2.151 255 255 255
-0.289883 -0.178567 1.719 255 255 255
0.847919 0.217302 2.114 255 255 255
-0.178223 0.166092 0.999 255 255 255
0.916669 -0.447584 2.755 255 255 255
0.13874 0.530434 2.01 255 255 255
-0.194109 -0.380792 1.905 255 255 255
-0.0683836 0.308376 0.942 255 255 255
-0.294951 0.282285 0.917 255 255 255
0.778936 0.280977 2.181 255 255 255
-0.0795474 -0.356681 2.071 255 255 255
0.618218 0.645045 1.7 255 255 255
0.870218 0.124715 2.459 255 255 255
-0.373579 0.177055 0.97 255 255 255
0.425086 -0.389767 2.857 255 255 255
-0.06319 -0.79726 2.489 0 0 0
-0.460172 0.0227476 1.375 255 255 255
-0.299253 0.12609 1.059 255 255 255
-0.331137 0.297532 0.918 255 255 255
-0.509562 0.212257 1.059 255 255 255
-0.864982 -0.650214 2.649 255 255 255
0.443718 -0.887283 2.469 255 255 255
0.101681 0.606083 1.87 255 255 255
0.64601 -0.812908 2.604 255 255 255
0.648641 -0.329417 2.818 255 255 255
-0.414654 0.0682709 1.16 0 0 0
0.172653 0.534129 2.024 255 255 255
0.780799 0.435141 1.842 255 255 255
-0.184024 -0.0920769 1.579 255 255 255
0.025827 -0.414417 2.143 255 255 255
0.595657 -0.530446 2.743 255 255 255
0.796618 -0.574672 1.691 255 255 255
-0.422447 0.0556902 1.215 255 255 255
0.607232 -0.429651 2.755 255 255 255
-0.411874 0.0731054 1.147 255 255 255
0.936508 0.458528 1.941 255 255 255
-0.0886647 -0.383813 2.128 255 255 255
-0.369298 0.299677 0.92 255 255 255
-0.188824 0.248719 0.931 255 255 255
0.130142 0.617991 1.842 255 255 255
0.60786 -0.846809 2.604 255 255 255
-0.219461 -0.028039 1.456 255 255 255
-0.142479 -0.748636 2.53 0 0 0
0.902398 -0.0955763 2.365 255 255 255
-1.37603 -0.69028 2.831 255 255 255
-0.0638319 -0.0494471 1.532 255 255 255
-0.70529 -0.171987 1.682 255 255 255
-0.0831128 -0.955423 2.479 255 255 255
0.875828 -0.425914 2.166 255 255 255
0.959126 0.376042 1.923 255 255 255
-0.525869 0.00970853 1.432 255 255 255
0.573906 -0.250289 2.857 255 255 255
-0.00401978 0.0230756 1.547 255 255 255
-0.679473 -0.350144 1.826 255 255 255
0.699099 -0.141398 2.818 255 255 255
0.771449 -0.206548 2.831 255 255 255
-0.44103 0.263624 0.952 255 255 255
-0.473196 -0.399393 1.905 255 255 255
-0.477768 0.2878 0.93 255 255 255
-0.0372077 0.150438 1.299 255 255 255
-1.17696 -1.01676 2.672 255 255 255
0.81707 0.274476 1.935 255 255 255
-1.38622 -0.747845 2.805 255 255 255
0.803262 -0.528499 1.729 255 255 255
0.20705 0.365883 2.338 255 255 255
0.0443391 -0.539022 2.196 255 255 255
0.724546 -0.975151 2.509 255 255 255
0.730002 -0.700975 2.695 255 255 255
-0.492539 -0.954493 2.53 255 255 255
0.890603 -0.121146 1.917 255 255 255
-0.282162 0.275418 0.924 255 255 255
-0.125 0.265436 0.682 255 255 255
0.888677 -0.575817 2.684 255 255 255
-0.366072 0.283855 0.927 255 255 255
-0.123056 0.245997 1 255 255 255
-0.292075 -0.551677 2.121 255 255 255
-0.371985 -0.135418 1.637 255 255 255
-0.63662 -0.143059 1.696 255 255 255
0.641952 -0.590345 2.731 255 255 255
0.277418 -0.279248 2.731 255 255 255
-0.452776 0.223661 1.002 255 255 255
0.865013 -0.307931 1.805 255 255 255
-0.224874 -0.140402 1.633 255 255 255
-0.877234 -1.00354 2.66 255 255 255
-1.07373 -0.888631 2.719 255 255 255
-0.492451 -0.260601 1.763 255 255 255
-0.662872 -0.05897 1.587 255 255 255
0.0936871 0.357854 1.893 255 255 255
0.692626 0.21205 2.32 255 255 255
0.789882 -0.307901 2.831 255 255 255
-0.022263 -0.038406 1.591 255 255 255
-1.4064 -0.751311 2.818 255 255 255
0.681199 -0.820323 2.561 255 255 255
-0.26987 0.284087 0.918 255 255 255
0.580517 -0.941732 2.54 255 255 255
-0.121627 -0.260505 1.887 255 255 255
0.487674 0.608435 1.779 255 255 255
0.704784 0.644868 1.65 255 255 255
-1.03957 -0.339004 2.244 255 255 255
-0.425031 0.270626 0.944 255 255 255
0.701805 0.255547 2.338 255 255 255
-0.522966 0.123587 1.098 255 255 255
-1.10764 -0.45737 2.469 255 255 255
0.0374879 -0.732638 2.449 255 255 255
0.522749 -0.422312 2.857 255 255 255
-0.51112 -0.535527 2.085 255 255 255
0.0839373 0.0390979 1.696 255 255 255
-0.157701 0.236778 0.67 255 255 255
0.746351 0.550024 1.876 255 255 255
0.106155 -0.110411 1.842 255 255 255
0.541033 -0.418469 2.831 255 255 255
0.0436184 0.24918 1.456 255 255 255
-0.294532 0.333446 0.902 255 255 255
-0.425182 -0.262263 1.794 255 255 255
-0.116358 0.224758 0.69 255 255 255
0.348978 -0.850797 2.54 255 255 255
0.779806 -0.457735 1.805 255 255 255
-0.0169349 -0.235463 1.859 255 255 255
0.99338 0.287962 1.941 255 255 255
-0.575302 0.0316287 1.372 255 255 255
0.59317 -0.963327 2.489 255 255 255
0.154346 0.261829 2.469 255 255 255
-0.345871 -0.834096 2.604 255 255 255
-0.146158 0.263746 0.92 255 255 255
0.769848 0.469409 1.859 255 255 255
-0.458001 -0.040653 1.484 255 255 255
-0.117914 0.168727 1.176 255 255 255
-0.520043 -0.275881 1.769 255 255 255
-0.572338 -0.703983 2.593 255 255 255
0.687032 -0.253778 2.844 255 255 255
-0.264925 -0.122289 1.571 255 255 255
-0.171542 -0.0807626 1.559 255 255 255
0.909197 -0.349531 2.593 255 255 255
-1.08292 -0.968105 2.731 255 255 255
0.876872 -0.870643 2.338 255 255 255
0.971805 -0.126986 1.911 255 255 255
-0.688669 -0.866507 2.719 255 255 255
0.208139 0.302432 2.44 255 255 255
-0.131514 -0.124153 1.629 255 255 255
0.674176 -0.785031 2.582 255 255 255
-0.144517 -0.00416604 1.396 255 255 255
0.308357 0.3687 2.356 255 255 255
-1.51915 -0.961329 2.884 255 255 255
0.834045 -0.733083 2.519 255 255 255
1.0494 0.201401 2.057 255 255 255
-0.66242 0.0699328 1.336 255 255 255
1.03588 0.169609 2.037 255 255 255
0.898302 -0.237467 2.286 255 255 255
0.835 -0.317621 1.81 255 255 255
-0.287819 0.130764 1.055 255 255 255
-0.101208 -0.560346 2.253 255 255 255
-0.262073 -0.844773 2.572 255 255 255
-0.746849 -0.568662 2.499 255 255 255
0.880409 -0.722141 2.085 255 255 255
0.671115 0.453506 2.017 255 255 255
-0.0140346 0.240419 1.135 255 255 255
-0.872904 -0.999209 2.66 255 255 255
0.550421 -0.826353 2.593 255 255 255
-0.885135 -0.59175 2.582 255 255 255
-0.657327 -0.152945 1.714 255 255 255
-0.545053 -0.0713393 1.575 255 255 255
0.560519 0.521701 1.941 255 255 255
-0.28445 0.238534 0.957 255 255 255
-0.0416237 -0.329799 2.03 255 255 255
0.590669 0.442415 2.057 255 255 255
-0.461802 0.257268 0.963 255 255 255
0.9317 0.494961 1.899 255 255 255
0.590856 -0.113358 2.805 255 255 255
-0.494388 0.148585 1.024 255 255 255
-0.642408 -0.290645 1.789 255 255 255
0.971905 0.215041 2.092 255 255 255
-0.376786 0.301174 0.92 255 255 255
0.132792 -0.364978 2.181 255 255 255
0.627651 -0.913321 2.53 255 255 255
0.450794 -0.781447 2.731 255 255 255
0.433613 -0.770174 2.707 255 255 255
-0.635792 -0.103451 1.637 255 255 255
0.431842 -0.368317 2.871 255 255 255
-1.13626 -0.839222 2.731 255 255 255
-0.0163019 0.206961 1.165 255 255 255
0.671115 0.456788 2.017 255 255 255
0.66633 0.33294 2.196 255 255 255
-0.741772 -0.187198 1.624 255 255 255
0.83574 0.13191 2.181 255 255 255
0.67218 0.532684 1.935 255 255 255
-0.311282 0.0583319 1.229 255 255 255
0.86912 -0.599467 2.107 255 255 255
0.751566 0.351469 2.114 255 255 255
-0.340103 0.296038 0.918 255 255 255
-0.140734 -0.715062 2.499 255 255 255
-0.299281 0.305976 0.912 255 255 255
0.365917 -0.335543 2.831 255 255 255
0.286983 0.616092 1.81 255 255 255
-0.712169 -0.320429 1.826 255 255 255
0.917969 -0.561203 2.719 255 255 255
0.832751 0.187575 2.128 255 255 255
-0.866842 -0.841316 2.695 255 255 255
-0.273344 -0.261527 1.917 255 255 255
-0.516478 0.23317 1.015 255 255 255
0.884703 -0.6776 2.672 255 255 255
-0.21912 0.213787 0.944 255 255 255
-0.956041 -0.61208 2.615 255 255 255
0.448892 0.545027 1.923 255 255 255
-0.292032 -0.623931 2.312 0 0 0
-0.22553 0.259254 0.92 255 255 255
-1.21728 -0.638294 2.805 255 255 255
0.293351 -0.910672 2.489 255 255 255
-0.367858 -0.480831 1.972 255 255 255
-0.55219 0.0816391 1.249 255 255 255
0.86268 -0.218598 1.87 255 255 255
0.260803 0.595817 1.876 255 255 255
-0.0908171 -0.0110836 1.409 255 255 255
-0.312832 -0.917989 2.509 255 255 255
-0.791385 -0.875899 2.707 255 255 255
-0.269153 0.234106 0.958 255 255 255
0.00295676 0.147753 1.294 255 255 255
-1.42364 -0.913091 2.78 255 255 255
-0.140329 -0.0997856 1.579 255 255 255
-0.463427 -0.0305546 1.463 255 255 255
0.803756 -0.611588 2.707 255 255 255
0.893231 -0.178411 2.392 255 255 255
-0.622998 -0.353115 1.826 255 255 255
-0.45766 -0.275317 1.784 255 255 255
-0.184738 -0.902571 2.489 255 255 255
-1.04849 -0.379376 2.312 255 255 255
-0.641057 0.146883 1.217 255 255 255
-0.45214 0.151157 0.997 255 255 255
-0.119465 0.171204 1.154 255 255 255
-0.202982 0.146671 1.034 255 255 255
0.0249116 0.192544 1.342 255 255 255
-0.564774 -0.966532 2.54 255 255 255
-0.186892 0.18929 0.96 255 255 255
-0.336838 0.150399 0.992 255 255 255
-0.387934 0.254062 0.951 255 255 255
-0.152563 -0.761976 2.561 255 255 255
-1.29438 -0.71659 2.844 255 255 255
-0.612069 -0.593631 2.356 255 255 255
-0.567936 -0.295844 1.821 255 255 255
-0.115994 0.19705 1.07 255 255 255
0.23049 0.562424 1.929 255 255 255
-0.134879 0.17138 1.041 0 0 0
-0.672411 -0.77458 2.707 255 255 255
-0.176592 0.234927 0.955 255 255 255
0.711862 -0.743816 2.66 255 255 255
0.148086 -0.837063 2.499 255 255 255
0.353989 -0.39345 2.884 255 255 255
0.845101 -0.513097 1.734 255 255 255
-0.0926069 -0.658494 2.411 255 255 255
0.652625 0.371112 2.128 255 255 255
0.530813 -0.657008 2.731 255 255 255
-1.40368 -0.745563 2.831 255 255 255
-0.117867 0.0267475 1.351 255 255 255
0.782645 -0.0211996 2.695 255 255 255
0.860541 -0.807638 2.078 255 255 255
-0.00115408 0.234444 1.189 255 255 255
0.226799 -0.270201 2.561 255 255 255
-0.327794 0.106232 1.085 255 255 255
0.219231 0.174651 2.672 255 255 255
0.401954 0.657187 1.71 255 255 255
0.650636 0.0944617 2.402 255 255 255
-0.27322 -0.0326877 1.452 255 255 255
0.347366 -0.462848 2.793 255 255 255
0.199592 0.476786 2.136 255 255 255
0.880678 -0.558658 2.338 255 255 255
-1.29307 -0.932185 2.743 255 255 255
0.248556 -0.813075 2.66 255 255 255
-0.696705 -0.135268 1.668 255 255 255
-0.761832 -0.140402 1.633 255 255 255
0.0150889 0.409859 1.252 255 255 255
1.02945 0.235675 2.064 255 255 255
-0.298707 0.275418 0.924 255 255 255
-0.0619964 0.0563152 1.432 255 255 255
0.8164 -0.404209 1.739 255 255 255
0.278913 0.61484 1.815 255 255 255
-0.489748 -0.317077 1.774 255 255 255
0.202378 -0.503331 2.244 255 255 255
0.885277 -0.317569 2.755 255 255 255
0.808276 -0.625069 1.664 255 255 255
-0.297558 0.133944 1.053 255 255 255
0.829616 0.18778 2.212 255 255 255
-0.519418 -0.941183 2.561 255 255 255
-0.0716779 0.303207 0.945 255 255 255
-0.372787 -0.302336 1.899 0 0 0
0.530994 -0.501384 2.755 255 255 255
0.246527 0.483792 2.121 255 255 255
0.827837 -0.556084 1.71 255 255 255
-0.0409452 0.244886 1.066 255 255 255
0.427304 -0.76676 2.695 255 255 255
0.207939 0.3393 2.392 255 255 255
-0.17516 0.0882737 1.201 255 255 255
-0.285722 0.327575 0.902 255 255 255
-0.399514 0.229297 0.964 255 255 255
-0.348523 0.189074 0.975 255 255 255
-0.338818 -0.820598 2.615 255 255 255
-0.256632 -0.947354 2.479 255 255 255
0.790162 -0.955718 2.459 255 255 255
-0.357571 0.316712 0.913 255 255 255
0.967344 -0.107983 2.672 255 255 255
-0.329582 0.228201 0.966 255 255 255
-0.272973 0.184185 0.966 255 255 255
-0.667958 -0.829518 2.743 255 255 255
-1.07847 -0.817001 2.731 255 255 255
0.00129594 -0.294703 1.972 255 255 255
-0.512528 0.255981 0.97 255 255 255
-0.13839 -0.00647008 1.403 255 255 255
-0.00558924 -0.394962 2.151 255 255 255
-0.0937912 0.352617 0.906 255 255 255
0.00480098 0.347763 1.227 255 255 255
0.65361 0.307624 2.329 255 255 255
-1.23924 -0.518317 2.593 255 255 255
0.484591 0.603121 1.789 255 255 255
0.375888 -0.963131 2.499 255 255 255
-0.386369 -0.321891 1.905 255 255 255
0.982121 0.194615 2.092 255 255 255
0.161874 0.453937 2.143 255 255 255
-0.48728 -0.0161921 1.456 255 255 255
0.0626972 -0.290186 1.985 255 255 255
-0.129943 0.134701 1.147 255 255 255
-0.869979 -1.00382 2.638 255 255 255
-0.636048 0.142687 1.215 255 255 255
-0.655133 -0.295639 1.784 255 255 255
0.977145 0.0486696 1.972 255 255 255
-0.521822 0.139589 1.07 255 255 255
-0.266223 0.0288175 1.345 255 255 255
0.812334 -0.099601 1.985 255 255 255
-0.0828979 0.350546 0.916 255 255 255
-0.131435 -0.424981 2.092 255 255 255
0.205773 0.485389 2.128 255 255 255
-0.4505 0.11435 1.062 255 255 255
-0.470786 -0.0184722 1.449 255 255 255
0.131357 0.671162 1.739 255 255 255
0.498648 0.497725 2.01 255 255 255
0.181906 0.535564 2.017 255 255 255
-0.451841 -0.711207 2.604 255 255 255
0.779997 0.370937 1.929 255 255 255
-0.162564 0.22616 0.964 255 255 255
0.206433 0.32752 2.42 255 255 255
0.852044 0.174651 2.43 255 255 255
0.00570875 0.0597513 1.459 255 255 255
0.543305 -0.937598 2.54 255 255 255
-0.679564 -0.921794 2.649 255 255 255
0.138903 0.557215 1.966 255 255 255
0.983902 0.430101 1.941 255 255 255
0.711541 -0.271046 2.831 255 255 255
0.721971 -0.492572 2.731 255 255 255
-0.488421 -0.954493 2.53 255 255 255
-0.0595589 0.211371 1.158 255 255 255
0.193304 -0.290746 2.356 255 255 255
-0.852046 -0.6847 2.649 255 255 255
-0.444403 -0.0504145 1.487 0 0 0
-0.395467 0.24346 0.958 255 255 255
0.912677 -0.325113 2.743 255 255 255
0.977908 0.282162 1.923 255 255 255
-0.319479 -0.00841008 1.348 255 255 255
0.862159 0.576227 1.769 255 255 255
-0.91036 -0.867088 2.707 255 255 255
-0.154721 -0.0349782 1.449 255 255 255
0.0625661 0.069628 1.575 255 255 255
-0.627094 -0.0559611 1.575 255 255 255
-0.589775 -0.795002 2.672 255 255 255
0.514607 -0.825621 2.604 255 255 255
-1.17553 -0.985974 2.719 255 255 255
-0.10196 0.344423 0.9 255 255 255
0.625705 -0.127641 2.818 255 255 255
-0.0421172 -0.00465248 1.559 255 255 255
0.315207 0.0994498 2.638 255 255 255
0.408647 0.475581 2.085 255 255 255
-0.561559 -0.285221 1.81 255 255 255
-0.438304 0.330445 0.914 255 255 255
0.459883 -0.214139 2.871 255 255 255
-0.00309734 0.351422 1.192 255 255 255
0.518098 -0.389767 2.857 255 255 255
-1.39907 -0.708708 2.831 255 255 255
0.154972 0.258856 2.479 255 255 255
-0.578501 0.0293317 1.369 255 255 255
-0.445624 -0.268102 1.794 0 0 0
-0.719845 -0.0472912 1.543 255 255 255
-0.127753 0.232926 0.986 255 255 255
0.880189 0.0231484 1.985 255 255 255
0.976338 0.000710032 2.626 255 255 255
-0.694763 -0.185981 1.71 255 255 255
0.167677 -0.420218 2.173 255 255 255
0.99338 0.461687 1.941 255 255 255
-0.135452 0.216898 0.69 255 255 255
-0.0881831 0.344909 0.909 255 255 255
0.928192 0.227128 2.078 255 255 255
-1.10445 -0.473226 2.489 255 255 255
-0.321663 -0.779537 2.649 255 255 255
0.183196 -0.136545 2.278 255 255 255
-0.26433 -0.313003 1.966 255 255 255
-0.417413 0.149186 0.984 0 0 0
-0.498574 -0.94535 2.561 255 255 255
0.91537 -0.704858 2.66 255 255 255
0.855357 -0.131321 1.929 255 255 255
0.834933 0.286621 1.911 255 255 255
0.659734 -0.634787 2.731 255 255 255
0.0892655 0.607498 1.865 255 255 255
0.0918021 -0.537688 2.22 255 255 255
-0.0260409 0.365925 1.096 255 255 255
-0.485439 0.267283 0.954 255 255 255
0.560707 0.16873 2.402 255 255 255
-0.072209 0.338469 0.932 255 255 255
-0.357626 -0.247624 1.837 255 255 255
-0.0953441 0.307497 0.921 255 255 255
-0.363514 -0.416677 1.899 255 255 255
-0.356973 0.257157 0.951 255 255 255
-0.272412 0.0268069 1.354 255 255 255
-0.320981 0.0627092 1.198 255 255 255
0.503611 0.465847 2.057 255 255 255
0.789615 -0.707218 2.719 255 255 255
0.827344 0.55109 1.859 255 255 255
-0.165513 0.247845 0.945 255 255 255
-0.431976 0.149793 0.988 0 0 0
0.801825 -0.083702 1.991 255 255 255
-0.817847 -0.201495 1.677 255 255 255
0.0848281 0.15945 1.714 255 255 255
0.790659 0.516399 1.887 255 255 255
0.828288 -0.145311 2.805 255 255 255
-0.200905 -0.146914 1.677 255 255 255
-0.813593 -0.0604666 1.559 255 255 255
0.614766 -0.215762 2.831 255 255 255
0.844434 -0.235265 2.844 255 255 255
-0.110631 -0.412464 2.151 255 255 255
0.0016357 -0.870168 2.489 255 255 255
-0.289426 0.216957 0.958 255 255 255
0.0412701 -0.332073 2.044 255 255 255
0.569348 0.115001 2.509 255 255 255
-0.240047 0.13188 1.064 255 255 255
0.772207 -0.645572 1.668 255 255 255
-0.123578 -0.598198 2.329 255 255 255
-0.28012 0.178881 0.98 255 255 255
-0.434853 0.334541 0.913 255 255 255
-0.450773 -0.93299 2.55 255 255 255
-0.528627 0.228013 1.029 255 255 255
0.608825 0.330424 2.303 0 0 0
-0.627103 0.140478 1.213 255 255 255
0.742711 0.20306 2.347 255 255 255
0.369414 0.655935 1.714 255 255 255
0.310065 0.470313 2.107 255 255 255
-0.447694 0.307989 0.918 255 255 255
-0.238337 0.246796 0.941 255 255 255
-0.389189 0.300003 0.921 255 255 255
-0.226097 -0.040653 1.484 255 255 255
0.729794 -0.971264 2.499 255 255 255
-0.0955592 0.167421 1.208 255 255 255
0.575269 0.00962689 2.731 255 255 255
-1.26569 -0.507804 2.604 255 255 255
-0.270938 -0.575811 2.173 255 255 255
0.325327 0.17297 2.582 255 255 255
0.232861 -0.700996 2.582 255 255 255
-0.814201 -0.497726 2.32 255 255 255
0.128353 -0.468212 2.166 255 255 255
-0.401855 -0.0595281 1.473 255 255 255
-0.217932 -0.155564 1.682 255 255 255
0.485224 0.572609 1.87 255 255 255
0.793049 -0.382395 1.769 255 255 255
0.229264 0.487244 2.121 255 255 255
0.862518 0.250085 1.917 255 255 255
-0.386572 0.0597453 1.178 255 255 255
-0.586273 -0.244215 1.769 0 0 0
0.301455 0.276102 2.489 255 255 255
0.235566 -0.774117 2.66 255 255 255
0.870688 -0.665611 2.078 255 255 255
-0.690623 -0.138396 1.673 255 255 255
0.848058 -0.315926 2.78 255 255 255
0.801991 -0.692562 2.731 255 255 255
-0.16966 0.240134 0.951 255 255 255
0.830714 0.141619 2.114 255 255 255
-0.557201 -0.294869 1.815 255 255 255
0.485734 -0.487573 2.831 255 255 255
-0.161345 -0.429842 1.959 255 255 255
-0.391787 0.14858 0.98 255 255 255
0.669984 0.573994 1.826 255 255 255
-0.262819 0.185901 0.975 255 255 255
-0.467222 -0.932669 2.572 255 255 255
0.858089 -0.596248 1.682 255 255 255
-0.372262 -0.0747176 1.539 255 255 255
0.880643 -0.354694 1.789 255 255 255
0.866044 -0.571331 1.714 255 255 255
-0.513517 -0.748145 2.66 255 255 255
-0.222656 0.125894 1.072 255 255 255
0.719836 0.526077 1.911 255 255 255
-0.252986 0.143028 1.032 255 255 255
-1.36795 -0.802621 2.805 255 255 255
0.112552 0.556708 1.953 255 255 255
0.903216 -0.438618 2.755 255 255 255
0.267685 0.499349 2.071 255 255 255
0.208863 0.666102 1.748 255 255 255
0.508937 -0.349762 2.911 255 255 255
0.170005 0.675744 1.729 255 255 255
-0.249202 0.040952 1.313 255 255 255
-0.67451 -0.223735 1.744 255 255 255
0.450271 -0.00373838 2.755 255 255 255
0.755285 -0.457407 2.707 255 255 255
0.688849 0.215825 2.32 255 255 255
-0.758447 -0.719953 2.684 255 255 255
0.742466 0.151883 2.383 255 255 255
-0.0888674 0.246116 1.079 255 255 255
-0.680103 -0.0291945 1.516 255 255 255
-0.610641 -0.0216927 1.509 255 255 255
0.652741 0.48654 1.991 255 255 255
0.766822 0.466384 1.859 255 255 255
0.87329 0.416384 1.893 255 255 255
-0.434599 0.15879 0.994 255 255 255
0.485572 0.658141 1.691 255 255 255
-0.960682 -0.343683 2.181 255 255 255
0.7549 0.314442 2.143 255 255 255
-0.533152 -0.415381 1.966 255 255 255
-0.396051 -0.566589 2.22 255 255 255
0.775772 0.65034 1.664 255 255 255
-0.0281296 0.416811 1.108 255 255 255
-0.507382 -0.39255 1.917 255 255 255
0.766155 0.448438 1.966 255 255 255
0.819488 -0.343049 1.789 255 255 255
-0.234776 0.0367624 1.316 255 255 255
0.613428 0.0938327 2.489 255 255 255
0.598823 -0.863916 2.53 255 255 255
0.849469 0.042937 2.004 255 255 255
0.464208 -0.27746 2.898 255 255 255
0.904133 -0.770801 2.236 255 255 255
0.315383 0.170207 2.604 255 255 255
0.104472 0.648866 1.763 255 255 255
0.167137 0.441185 2.166 255 255 255
-1.12502 -0.342781 2.269 255 255 255
0.769614 0.358318 2.017 255 255 255
-0.52694 -0.118055 1.655 255 255 255
-0.339367 0.230011 0.967 255 255 255
0.89278 -0.652517 2.32 255 255 255
-0.0371019 -0.503474 2.151 255 255 255
-0.799788 -0.077048 1.587 255 255 255
0.755911 0.330795 2.136 255 255 255
0.41058 0.564726 1.905 255 255 255
-0.76209 -0.558688 2.509 255 255 255
-0.459613 0.186693 1.032 255 255 255
-0.234778 0.118011 1.096 255 255 255
0.88249 -0.846366 2.303 255 255 255
0.863698 -0.211457 2.136 255 255 255
-0.12326 0.27359 0.928 255 255 255
-0.430513 -0.00889047 1.425 255 255 255
-0.937577 -0.671908 2.684 255 255 255
-0.61985 -0.00925857 1.484 255 255 255
-1.24851 -1.02113 2.695 255 255 255
0.240333 -0.221135 2.572 255 255 255
0.898116 -0.340137 1.789 255 255 255
0.0136243 -0.755638 2.459 255 255 255
0.842682 -0.389951 2.051 255 255 255
-0.591244 -0.27822 1.784 255 255 255
0.582802 -0.849997 2.55 255 255 255
0.869823 0.619196 1.705 255 255 255
-0.241288 -0.0280968 1.459 255 255 255
0.725615 -0.648348 2.695 255 255 255
0.778235 -0.562782 1.705 255 255 255
-0.0884065 0.0937127 1.275 255 255 255
0.659727 0.642278 1.7 255 255 255
0.820907 0.340421 1.865 255 255 255
-0.100264 0.285296 0.984 255 255 255
-0.392498 -0.846809 2.604 255 255 255
-0.782837 -0.112643 1.616 255 255 255
-0.653605 0.0989717 1.237 255 255 255
-1.26518 -0.972549 2.731 255 255 255
0.77642 0.175812 2.392 255 255 255
-0.392065 0.134462 1.018 255 255 255
-0.014457 -0.0176489 1.587 255 255 255
-0.077406 -0.0412283 1.505 255 255 255
0.296208 -0.947354 2.479 255 255 255
-0.120876 -0.87716 2.509 255 255 255
-0.344649 -0.76546 2.66 255 255 255
0.400052 0.543589 1.929 255 255 255
0.526761 -0.492361 2.78 255 255 255
-0.129595 -0.0698899 1.543 255 255 255
0.485274 0.570159 1.882 255 255 255
0.83075 0.063315 2.03 255 255 255
-1.15184 -0.461388 2.469 255 255 255
-0.117914 0.182123 1.176 255 255 255
0.447492 0.549566 1.917 255 255 255
-0.226537 -0.429985 1.917 255 255 255
0.419283 -0.0129955 2.818 255 255 255
0.854979 0.0596272 2.017 255 255 255
-0.765564 -0.192484 1.624 255 255 255
-0.2711 0.0116101 1.381 255 255 255
-0.201464 0.196075 0.955 255 255 255
-0.508662 -0.648946 2.449 255 255 255
-0.0956798 0.290708 0.97 255 255 255
0.0520452 0.428828 1.567 255 255 255
0.840318 -0.939025 2.489 255 255 255
-0.187087 0.217637 0.961 255 255 255
-0.118076 0.263781 0.947 255 255 255
0.785826 -0.51874 1.734 255 255 255
-0.148395 0.228506 0.974 255 255 255
0.895901 -0.84401 2.338 255 255 255
-0.135895 -0.133808 1.65 255 255 255
-0.260667 -0.963491 2.479 255 255 255
0.476568 0.374048 2.228 255 255 255
0.6885 -0.266439 2.831 255 255 255
0.0801579 -0.190699 1.865 255 255 255
-0.117933 0.0500265 1.327 255 255 255
0.198028 -0.396039 2.278 255 255 255
-0.74061 -0.843666 2.731 255 255 255
0.522411 -0.962641 2.519 255 255 255
0.912417 -0.150391 2.509 255 255 255
0.906525 0.0262059 1.972 255 255 255
-0.390011 0.0322078 1.305 255 255 255
-0.394922 -0.041762 1.439 255 255 255
-0.199718 0.0446742 1.297 255 255 255
-0.119392 0.335496 0.888 255 255 255
0.806713 -0.311514 1.826 255 255 255
0.22793 0.170303 2.672 255 255 255
0.26662 -0.430374 2.43 255 255 255
-0.485581 -0.717215 2.626 255 255 255
-0.117383 0.104688 1.21 255 255 255
-0.121463 0.209789 0.7 255 255 255
-0.5086 0.136173 1.057 255 255 255
-0.689974 0.0631614 1.378 255 255 255
-0.440736 -0.941732 2.54 255 255 255
-1.21628 -0.990326 2.731 255 255 255
-0.237769 0.259536 0.921 255 255 255
-0.509632 -0.184952 1.753 255 255 255
0.83507 0.171356 2.099 255 255 255
-0.190724 -0.335398 1.966 255 255 255
0.678845 0.577801 1.81 255 255 255
-0.286154 -0.530348 2.078 255 255 255
0.814159 -0.101847 1.966 255 255 255
-0.708429 -0.0551083 1.551 255 255 255
0.341017 0.0572494 2.672 255 255 255
0.156222 -0.85333 2.499 255 255 255
-0.417129 0.327518 0.91 255 255 255
0.886467 -0.325581 1.789 255 255 255
-0.439124 -0.719682 2.604 255 255 255
-0.00909065 -0.426465 2.151 255 255 255
0.140252 0.66174 1.744 255 255 255
0.829946 -0.633193 1.664 255 255 255
0.670225 -0.0123775 2.684 255 255 255
0.539888 0.526386 1.935 255 255 255
0.935202 0.000654333 2.42 255 255 255
0.201638 0.546449 1.985 255 255 255
0.412316 -0.2303 2.898 255 255 255
-0.200147 0.121134 1.092 255 255 255
0.464556 -0.405693 2.871 255 255 255
-0.154601 0.132872 1.072 0 0 0
0.447791 0.567826 1.905 255 255 255
-0.401356 -0.22533 1.779 255 255 255
-0.00785613 0.12266 1.342 255 255 255
0.655572 -0.713515 2.66 255 255 255
0.735797 -0.109298 2.818 255 255 255
0.762285 0.556851 1.848 255 255 255
0.886467 -0.311024 1.789 255 255 255
-0.409104 0.0844433 1.124 255 255 255
0.890902 -0.110367 2.731 255 255 255
0.908781 -0.731329 2.499 255 255 255
-0.0768155 -0.158153 1.71 255 255 255
-0.489057 0.266009 0.955 255 255 255
-0.307872 -0.379593 1.899 255 255 255
0.677684 -0.530776 2.768 255 255 255
0.831772 -0.25729 1.842 255 255 255
0.78101 -0.565556 1.705 255 255 255
-0.133476 -0.0832996 1.559 255 255 255
-0.438558 -0.264444 1.789 255 255 255
-0.480791 0.177432 1.027 255 255 255
-0.310532 0.182873 0.951 255 255 255
-0.330717 0.2628 0.938 255 255 255
-0.174349 0.155251 1.024 255 255 255
0.831644 -0.0900921 2.143 255 255 255
-0.566682 -0.409745 2.017 255 255 255
-0.737908 -0.172291 1.633 255 255 255
-0.404438 0.272249 0.939 255 255 255
-0.311957 0.320114 0.91 255 255 255
0.0918511 -0.678112 2.411 255 255 255
0.45727 -0.247961 2.884 255 255 255
-0.417035 -0.0447167 1.459 255 255 255
0.0341854 -0.824863 2.499 255 255 255
0.661187 0.295854 2.356 255 255 255
-0.688669 -0.870932 2.719 255 255 255
0.497223 -0.0408841 2.844 255 255 255
-0.0756167 0.123525 1.305 255 255 255
0.412465 0.655051 1.719 255 255 255
-0.693095 -0.875357 2.719 255 255 255
-0.61946 0.159158 1.176 255 255 255
-0.558433 -0.983313 2.53 255 255 255
0.936278 -0.198518 1.853 255 255 255
-0.433114 -0.288962 1.815 255 255 255
-0.471603 0.305001 0.918 255 255 255
0.422495 -0.452414 2.871 255 255 255
-0.72461 -0.729779 2.672 255 255 255
0.534658 -0.0599605 2.871 255 255 255
-0.110768 0.268244 0.992 255 255 255
-0.0447695 -0.00975145 1.563 255 255 255
-0.121824 0.134778 1.215 255 255 255
-0.226371 -0.0795193 1.535 255 255 255
-0.331106 0.144049 1.004 255 255 255
0.836863 -0.780529 2.54 255 255 255
