ply
format ascii 1.0
comment Created by Open3D
element vertex 1357
property double x
property double y
property double z
property uchar red
property uchar green
property uchar blue
end_header
-0.138645 0.0980582 0.344 122 118 123
-0.131566 0.0946869 0.346 80 46 34
0.685001 -0.517626 1.616 39 15 1
-0.431135 -0.0606323 0.85 185 191 193
-0.126998 -0.357733 1.429 159 153 155
-0.133128 0.124185 0.333 99 79 71
-0.39455 -0.099695 0.975 198 201 202
-0.0862458 -0.162308 1.162 151 145 151
0.431938 0.536218 1.372 93 95 86
-0.151647 -0.0101858 0.799 200 194 198
-0.406959 -0.282165 1.165 11 107 99
0.62258 -0.135194 1.853 31 12 6
0.259179 -0.324213 2.593 73 30 32
0.275635 -0.588566 2.55 82 73 68
-0.0785177 0.176687 0.606 149 148 155
0.137015 0.187891 1.985 25 23 32
-0.186714 -0.212562 1.118 170 165 161
0.490971 0.530746 1.381 104 106 97
0.612726 -0.220774 1.789 34 14 6
-0.294149 -0.0141218 0.801 194 195 191
0.206502 0.523477 1.435 90 88 80
-0.0968561 0.136308 0.629 173 173 177
0.461121 0.479681 1.48 84 86 77
0.530494 0.328741 1.739 104 101 96
-0.0589868 0.139431 1.018 139 135 140
-0.110831 0.150643 0.589 173 173 177
-0.0708616 0.212918 0.644 131 134 133
-0.317268 -0.0953915 0.948 197 196 196
-0.127228 0.0907038 0.348 70 46 23
0.589829 0.268231 1.714 54 53 55
0.00100416 0.462913 1.528 90 82 81
-0.125191 0.0736117 0.654 187 181 183
-0.735345 -0.428983 1.396 131 143 133
-0.119916 0.108977 0.328 59 25 5
0.745718 -0.132421 1.815 31 12 10
-0.136654 0.127657 0.335 40 31 24
-0.849576 -0.639389 1.659 166 169 168
-0.0896641 0.0302723 0.803 172 166 170
-0.108212 -0.132786 1.062 176 172 177
0.481824 0.471498 1.477 94 99 89
-0.456062 -0.117869 0.981 192 195 196
-0.0364294 0.391518 1.646 85 80 78
0.25272 -0.189603 2.338 77 35 32
0.308883 0.437907 1.563 98 94 87
-0.554457 -0.524994 1.673 167 164 161
0.477951 -0.110159 2.269 40 29 20
0.484229 0.466691 1.477 100 101 97
-0.363103 -0.21685 1.112 108 98 96
-0.0787792 -0.386613 2.051 101 101 97
0.803262 0.324037 1.729 102 87 77
0.613163 0.235586 1.642 39 37 48
0.108586 0.179278 1.997 32 30 37
0.408041 0.333287 1.748 89 82 76
0.560737 0.217026 1.848 28 35 27
0.0179138 -0.710996 2.499 89 78 73
0.0556619 -0.200249 2.374 63 32 30
0.266955 0.506115 1.459 98 96 86
0.233512 -0.723196 2.499 103 91 89
0.590662 0.157822 1.758 103 70 71
0.821646 -0.448464 1.642 31 12 8
-0.0716319 0.114591 0.703 169 167 174
-0.409104 -0.233823 1.124 151 152 146
-0.0669681 -0.516806 2.338 75 68 62
0.551653 -0.436479 2.66 72 68 59
0.022332 0.289983 1.853 90 82 79
-0.138645 0.0991778 0.344 108 104 95
-0.450174 -0.217873 1.108 168 174 174
0.0283941 -0.16039 2.356 79 48 46
0.307436 -0.876861 2.44 104 98 85
0.0222264 0.503686 1.452 94 89 85
0.0305547 0.399554 1.646 91 82 77
0.0523313 0.472146 1.502 92 85 79
0.817334 -0.280898 1.729 27 12 0
-0.149783 -0.12841 1.027 196 190 196
-0.106141 0.184418 0.569 153 149 154
0.59977 -0.295621 1.876 65 43 15
-0.116357 0.113966 0.327 50 24 13
-0.348568 -0.0843249 0.945 202 202 202
0.340768 0.122711 2.085 76 71 69
0.620308 -0.392208 2.136 33 19 11
0.257793 -0.263441 2.459 71 32 30
-0.73639 -0.850245 2.244 41 25 18
-0.0254073 0.496589 1.473 79 74 72
0.276979 -0.135083 2.383 31 5 3
-0.519341 -0.317666 1.229 56 131 126
-0.0559404 0.210287 1.953 86 77 72
-0.460399 -0.142194 1.03 194 197 196
0.208519 0.312864 1.794 97 89 86
0.630313 0.370313 1.659 98 99 86
0.598213 -0.879042 2.32 64 60 61
0.27414 0.34936 1.729 86 82 73
0.240333 -0.530862 2.572 80 69 64
0.604551 0.427366 1.571 111 112 103
-0.346526 -0.119191 0.992 201 200 200
0.123238 0.372257 1.705 95 87 84
0.328038 0.240301 1.842 111 107 108
0.87615 0.322153 1.734 89 99 87
-0.153796 -0.281698 1.187 174 163 167
0.931184 -0.056302 1.837 67 68 62
0.166125 0.236863 1.911 83 80 75
-0.35969 -0.0847711 0.95 204 204 204
0.289046 0.344727 1.734 88 81 75
-0.297879 -0.178809 1.079 196 195 197
-0.424984 -0.156318 1.046 201 200 200
0.572854 0.355609 1.705 106 106 100
-0.0298127 -0.752658 2.411 86 82 75
-0.0795543 0.218986 0.614 98 98 102
-0.388781 -0.0680977 0.913 199 199 201
-0.0821178 0.0839958 2.051 96 95 95
0.305798 0.122299 2.078 113 109 112
-0.412011 -0.0337162 0.802 196 206 209
0.733774 -0.579499 1.563 37 15 7
0.807762 0.24564 1.815 37 35 25
0.197617 -0.561932 2.561 79 69 67
0.602942 0.0197275 1.966 18 9 4
-0.0737894 -0.416156 2.099 103 93 93
0.394816 -0.253464 2.44 51 51 45
-0.204329 -0.00104756 0.772 160 159 161
0.207847 -0.904549 2.347 108 99 92
0.134803 0.276686 1.865 96 88 85
-0.0567055 0.189185 0.764 156 158 164
0.0393707 -0.564346 2.572 75 65 63
0.861517 -0.173293 1.81 26 17 0
0.20758 -0.279282 2.53 71 29 26
-0.286352 0.179068 0.547 154 169 166
0.745073 -0.439909 1.65 33 13 5
-0.075441 -0.557412 2.365 75 68 60
0.290488 0.453069 1.52 101 101 95
0.532935 0.16739 1.899 19 19 19
0.0569749 -0.869313 2.43 108 100 97
0.775117 -0.27527 1.729 29 11 2
0.55938 0.367993 1.673 111 107 100
0.425028 -0.211035 2.365 6 6 10
-0.412509 -0.260721 1.154 165 180 179
-0.168139 -0.0848896 0.969 199 195 198
0.399265 -0.567648 2.626 86 78 75
0.339109 0.23367 1.837 120 116 119
-0.108407 0.0919004 0.344 89 51 24
-0.470973 -0.370896 1.342 172 173 169
-0.236482 -0.439738 1.416 0 89 114
-0.00991899 -0.125404 2.347 46 42 43
0.111058 -0.061892 2.402 9 12 13
-0.0719099 0.226542 0.644 146 151 156
-0.0166097 -0.808638 2.22 87 84 79
0.59543 0.459612 1.509 112 113 104
-0.346726 -0.381029 1.302 0 116 105
0.20928 0.416768 1.599 94 90 81
0.545238 0.430605 1.555 109 110 101
-0.392109 -0.438496 1.412 30 120 103
0.616733 0.148726 1.719 107 103 106
0.465692 -0.273652 2.479 84 24 24
-0.0305298 -0.537728 2.469 81 71 69
-0.133504 -0.0392706 0.867 193 187 191
-0.29242 0.039601 0.692 192 195 196
-0.0660213 0.0254341 2.181 75 67 66
0.853922 -0.334357 1.729 29 12 0
-0.407802 -0.108622 0.984 199 199 201
-0.111034 0.123012 0.327 20 9 0
-0.0284435 -0.46485 2.649 66 62 55
0.233977 0.475967 1.491 92 89 86
0.431106 -0.270705 2.489 25 22 19
-0.329145 -0.0750138 0.925 199 199 199
-0.0910707 0.077633 0.721 169 167 174
-0.258949 0.125597 0.571 185 191 189
-0.0455477 0.240727 1.917 83 75 72
0.632519 -0.619223 1.763 59 23 13
-0.14821 -0.109304 1.005 192 188 189
0.921563 0.222704 1.923 70 70 64
-0.284137 0.0474157 0.675 193 196 199
0.194502 0.461701 1.524 89 86 83
0.261161 0.486906 1.48 91 89 81
0.0552928 0.431718 1.587 95 90 86
0.539363 0.474048 1.47 103 104 95
-0.0024159 -0.614991 2.489 80 71 62
0.458743 -0.0965925 2.212 8 11 10
-0.122251 0.0707332 0.667 175 164 168
-0.0785512 0.120832 0.674 179 175 178
0.790435 -0.433162 1.655 33 13 3
0.194738 0.111024 2.121 51 36 37
-0.325899 0.0596847 0.653 157 151 155
0.588786 -0.553191 2.54 58 48 58
0.422925 0.337231 1.739 95 87 84
-0.0825206 -0.642225 1.837 138 134 135
-0.36198 -0.00721513 0.76 169 175 175
0.171113 -0.656896 2.479 82 74 73
0.630583 -0.846353 2.196 28 12 7
-0.50316 -0.111119 0.992 199 204 209
-0.0785103 0.0670779 2.044 83 70 74
0.77735 0.358193 1.691 105 106 93
-0.111258 0.129901 0.618 173 173 177
0.756586 -0.500517 1.595 31 12 8
-0.303737 0.071593 0.627 193 199 199
0.726879 -0.0335856 1.905 34 12 4
-0.656956 -0.501666 1.65 170 166 167
-0.852277 -0.642089 1.659 164 173 164
0.463813 -0.818979 2.469 96 89 81
0.775365 -0.458168 1.629 29 13 8
-0.182095 0.101738 0.606 164 161 145
0.277053 0.31112 1.784 87 83 72
0.915101 -0.126556 1.859 6 12 10
0.509759 -0.196252 2.42 50 13 10
0.214312 -0.794849 2.42 103 94 87
-0.0745158 0.176291 0.622 129 128 137
-0.124897 0.0869161 0.351 88 58 42
-0.347887 -0.0163738 0.784 94 91 88
-0.300641 -0.0991002 0.954 202 198 199
0.358415 -0.399314 2.672 13 14 10
0.665329 -0.240756 2.181 22 15 9
-0.0461962 0.0556047 2.253 80 71 64
0.593654 -0.432737 2.561 51 49 41
-0.523333 -0.228117 1.114 176 180 175
0.535291 -0.328547 2.561 96 97 86
-0.116211 -0.00243218 0.815 184 178 180
-0.210695 -0.054734 0.889 203 199 204
-0.119556 -0.190271 1.137 168 164 167
0.877474 -0.139548 1.831 30 12 3
0.713714 -0.234114 1.758 32 13 0
-0.208813 0.00271428 0.77 193 192 196
-0.102636 0.204269 0.565 119 121 129
-0.112619 0.105857 0.643 173 167 171
0.634382 -0.41198 1.935 13 33 26
0.151517 0.228963 1.923 90 85 81
0.494676 0.444341 1.524 108 109 98
-0.387661 -0.0121142 0.757 154 152 161
-0.240077 -0.0959953 0.954 202 198 203
0.599404 0.359877 1.686 98 100 89
0.412652 0.150363 1.959 134 128 132
-0.223558 0.0695575 0.646 200 200 202
-0.0864526 0.11416 0.337 35 19 14
-0.635792 -0.500378 1.637 168 169 165
-0.244505 0.131402 0.572 199 202 205
0.067765 -0.225122 2.392 57 20 15
0.600755 0.494204 1.445 94 98 93
-0.00605176 0.02337 2.329 80 70 70
0.244351 -0.492927 2.615 76 67 60
0.137413 0.341039 1.744 97 90 82
-0.0946646 0.105306 0.335 68 34 14
0.758926 0.455036 1.502 86 95 86
-0.133556 -0.2603 1.232 144 135 138
0.012992 0.481112 1.477 87 88 77
-0.00232175 -0.0266012 2.392 67 68 55
0.616417 -0.311357 1.758 30 12 1
-0.276388 -0.239805 1.135 5 116 112
0.611666 -0.0714552 1.923 31 11 3
0.862037 0.319331 1.734 95 106 87
0.218461 -0.549429 2.561 78 67 62
-0.139336 -0.61532 1.837 126 116 114
0.165384 0.14403 2.099 87 87 83
-0.143343 0.0982779 0.609 117 99 90
-0.492734 -0.774667 2.01 157 154 151
0.897148 -0.0150324 1.911 18 8 6
-0.555617 -0.192628 1.068 176 179 182
0.934103 -0.160405 1.831 46 48 37
0.280762 0.20011 1.887 20 20 16
0.35844 -0.914546 2.383 99 97 89
-0.260483 -0.370135 1.316 0 94 113
0.735833 0.258685 1.763 45 53 52
-0.144572 -0.216682 1.13 148 149 138
-0.0677414 -0.622839 2.365 79 75 68
-0.0877866 0.0963224 0.695 169 165 170
0.196224 -0.809359 2.44 106 95 88
0.645915 0.412094 1.591 106 107 98
0.180409 -0.193407 2.338 77 31 41
-0.0861339 -0.386594 1.575 134 128 130
0.465005 -0.733083 2.519 93 86 80
-0.168733 -0.612694 1.769 156 151 147
-0.06091 0.269375 0.945 118 117 117
-0.803262 -0.743742 2.051 178 173 169
0.142666 0.366708 1.705 100 90 88
0.708874 0.431718 1.587 108 108 102
-0.157526 0.0375817 0.741 200 196 201
-0.078882 0.031177 0.827 179 173 179
-0.146828 0.120225 0.595 198 197 201
-0.0852426 0.092723 0.702 167 163 168
0.0667587 0.177174 2.01 87 82 78
-0.222546 0.128834 0.573 183 186 187
0.601015 0.066443 1.929 23 14 17
-0.477747 -0.5834 1.794 167 164 161
0.556492 -0.558136 2.582 35 28 39
0.284165 0.441578 1.567 98 94 87
-0.0262267 0.138636 2.121 87 77 77
-0.287147 -0.259292 1.156 32 130 128
0.113304 -0.606925 2.54 82 75 69
0.424178 -0.254399 2.449 48 53 43
-0.0645789 -0.663151 1.837 170 165 163
0.62224 -0.339517 1.917 19 27 24
-0.126612 -0.629465 1.826 144 139 137
0.169205 -0.402819 2.638 29 20 25
-0.425008 -0.0473506 0.86 186 185 185
0.190803 0.345721 1.739 97 89 86
0.601402 -0.0582589 2.261 37 16 3
0.19552 0.273651 1.865 93 86 80
0.377105 0.310327 1.763 92 90 82
0.777997 -0.569167 1.591 45 11 3
0.708534 -0.362782 1.691 29 11 2
0.478532 0.450595 1.52 94 92 82
-0.391422 -0.337855 1.275 46 73 55
-0.192756 0.00147263 0.776 202 198 201
-0.199419 -0.0788419 0.917 198 194 197
0.179828 0.465742 1.505 94 92 80
0.805941 -0.109752 1.831 30 12 1
-0.401825 -0.110783 0.989 199 199 201
-0.0911199 0.122928 0.334 75 66 73
0.712438 0.06537 1.734 133 136 137
-0.122463 0.133705 0.599 187 187 189
-0.0657857 -0.0163432 0.927 165 156 163
0.388229 -0.158552 2.329 10 15 5
-0.0544 0.29415 0.844 144 146 152
0.696727 -0.391577 1.65 33 12 0
0.612951 -0.439679 2.236 43 32 36
-0.394876 -0.677847 1.789 176 173 168
0.311027 0.295773 1.779 75 74 76
-0.036979 0.210934 1.959 88 81 75
-0.336911 -0.0981613 0.96 201 201 205
-0.107091 -0.124569 1.051 176 169 178
0.0879265 -0.234757 2.411 59 27 23
-0.189516 -0.144429 1.034 194 193 197
-0.660194 -0.482243 1.612 169 168 168
0.336561 -0.693203 2.479 95 86 79
-0.106244 0.126205 0.327 52 33 18
-0.0381797 0.265549 0.994 110 105 113
0.579784 0.459906 1.494 105 103 91
-0.254647 0.0520458 0.664 197 200 199
-0.116755 0.0570468 0.713 185 179 183
-0.100707 0.143282 0.615 175 174 178
0.419155 0.0488954 2.121 5 5 5
0.312458 -0.531226 2.615 76 67 62
0.588004 0.447994 1.528 103 105 94
-0.137308 0.0618783 0.677 202 198 201
0.470602 0.0215839 2.151 3 6 5
-0.0661006 0.198669 0.693 127 132 137
0.81709 0.352835 1.705 103 104 91
0.0783393 -0.543992 2.615 75 68 62
0.677817 -0.459405 1.624 35 14 1
0.632468 0.0699614 1.779 113 113 109
-0.100462 -0.678098 1.837 169 166 161
-0.211397 0.0931695 0.608 198 193 173
0.147347 0.538656 1.384 89 90 86
-0.731383 -0.491823 1.52 138 148 136
0.687495 -0.0489313 1.899 30 15 5
0.321713 0.191505 1.893 17 17 17
0.78793 -0.380414 1.696 29 16 5
-0.305076 -0.271255 1.167 166 169 168
0.608052 -0.482991 2.286 34 37 38
0.509202 0.48712 1.459 103 111 100
-0.0934338 -0.71997 1.876 169 165 158
-0.465156 -0.241672 1.118 96 120 118
0.650582 -0.574795 1.571 33 15 6
-0.423439 -0.661143 1.799 179 173 175
-0.478107 -0.126281 0.997 199 202 203
-0.0324712 -0.465087 2.626 66 62 55
0.273147 -0.0514629 2.286 12 12 12
-0.0659136 0.202089 1.966 89 81 80
-0.329814 0.0618135 0.642 105 93 93
-0.299904 0.0662019 0.634 198 201 202
0.686386 0.168338 1.664 105 106 100
0.131788 0.43358 1.575 94 86 83
0.615952 -0.758771 2.121 50 46 37
-0.0922073 0.121297 0.334 63 52 47
-0.341406 -0.319518 1.244 56 118 112
0.135258 -0.20561 2.347 66 30 30
0.0833399 -0.0966675 2.392 14 10 11
-0.74977 -0.445288 1.419 139 151 143
0.643199 0.100319 1.753 124 124 126
0.614884 0.063653 1.848 86 86 86
0.800939 -0.367056 1.724 31 12 6
-0.276124 0.122594 0.57 194 197 196
-0.381853 -0.101282 0.975 202 202 204
0.310912 -0.445748 2.638 42 38 41
-0.0284395 0.535309 1.387 71 72 68
-0.0924454 0.202621 0.576 94 93 97
0.537758 -0.526757 2.593 99 94 92
-0.156654 0.109085 0.603 180 179 179
-0.251368 -0.439857 1.409 1 93 93
-0.69399 -0.515282 1.668 168 168 168
0.398788 -0.880832 2.44 103 94 89
0.67604 -0.108405 1.859 31 13 2
-0.395041 -0.166563 1.057 197 198 194
-0.0133912 0.497969 1.47 87 82 80
-0.285137 0.0377266 0.699 186 192 192
-0.107974 0.0984688 0.334 79 44 27
0.626078 0.0803498 1.753 119 119 121
-0.165813 0.00532884 0.786 198 194 197
0.294912 0.189022 1.899 18 19 10
0.640736 0.406916 1.591 105 106 97
0.0390339 -0.576117 2.55 78 68 66
0.225322 0.475764 1.498 94 91 88
0.244176 0.474494 1.494 93 90 85
-0.773255 -0.559379 1.646 69 72 75
0.322165 -0.423493 2.66 44 46 37
0.399732 0.5221 1.4 85 86 77
-0.0445736 0.26916 1.876 88 80 77
0.690291 0.52289 1.384 100 97 92
-0.155732 -0.0602038 0.906 198 194 197
0.232365 0.432112 1.579 97 93 84
-0.0829801 0.104082 0.355 58 22 10
0.612075 -0.425315 2.181 53 35 24
0.016704 0.257008 1.899 94 85 80
0.691237 -0.441771 1.637 32 13 7
-0.222501 0.073424 0.634 201 201 201
0.70027 -0.290502 1.753 31 11 1
0.0886194 -0.904903 2.43 109 101 98
0.787741 -0.40623 1.655 28 13 3
0.554279 0.287088 1.779 98 99 90
-0.263087 -0.122666 0.994 198 197 199
0.215377 0.289983 1.853 95 87 84
0.279633 -0.900685 2.44 101 96 92
0.151586 0.164099 2.051 86 81 93
0.719152 -0.4442 1.646 30 12 3
0.605987 0.435666 1.555 111 109 99
-0.163347 -0.194716 1.12 97 88 91
-0.0865321 -0.180077 1.192 147 143 146
-0.106072 -0.118302 1.041 175 170 180
-0.109397 -0.0402671 0.889 189 183 187
0.0424905 -0.677094 2.509 83 74 67
-0.0856393 0.112723 0.678 173 167 173
-0.0915404 0.0946679 0.348 69 33 10
-0.412349 -0.61671 1.789 155 151 152
0.155822 -0.00689964 2.312 31 30 30
-0.779206 -0.598301 1.769 104 114 102
-0.251641 0.0818313 0.612 193 193 195
-0.0708669 0.118178 0.361 61 38 35
-0.131021 -0.155982 1.079 189 185 188
0.200967 0.423512 1.595 100 93 85
0.443323 -0.0477484 2.121 11 11 11
0.499331 0.299868 1.769 104 100 89
-0.0595271 0.141669 0.82 148 146 153
-0.0593565 -0.0678523 2.338 11 11 11
0.400768 0.381112 1.659 90 88 80
0.050052 0.0342181 2.294 78 76 68
-0.359344 -0.0474471 0.888 198 201 202
0.622695 0.158481 1.646 74 82 83
0.205697 0.140145 2.092 61 57 60
0.347806 0.162615 1.953 32 27 39
-0.0806959 -0.0189635 0.908 168 164 167
0.121758 0.478563 1.484 90 91 82
-0.176738 -0.215532 1.124 77 68 75
-0.23672 0.119612 0.578 184 190 192
0.819758 0.364498 1.682 104 101 96
-0.064997 0.100827 0.745 142 133 138
-0.105562 0.206474 0.561 104 103 112
-0.485864 -0.651832 1.882 170 166 157
-0.274635 -0.0293944 0.867 200 199 199
-0.0888545 -0.60461 1.978 87 82 78
0.284737 -0.778818 2.383 101 94 86
-0.773255 -0.5567 1.646 51 56 61
0.915101 0.139662 1.859 75 57 35
0.826599 0.00669406 1.899 24 8 1
0.28606 0.255289 1.842 75 68 77
0.330018 -0.910111 2.402 100 96 87
-0.0655018 0.273618 0.923 111 108 105
0.563212 0.442552 1.535 98 99 90
-0.18751 -0.0846815 0.932 199 195 196
0.671511 0.519762 1.406 96 103 95
0.145123 -0.740609 2.449 102 92 90
-0.0188765 0.323751 1.758 87 79 76
0.0646958 0.320923 1.774 94 86 83
-0.333795 0.00720467 0.718 62 61 61
0.492177 0.349119 1.714 101 94 84
0.753989 -0.505709 1.595 34 13 10
-0.326627 0.0730465 0.622 135 131 124
-0.561576 -0.415475 1.452 175 174 174
-0.0170351 0.271342 1.87 86 77 72
0.235389 0.120978 2.114 71 62 67
0.0663482 0.518806 1.435 93 89 80
0.283473 0.462068 1.509 97 95 85
0.36201 -0.567129 2.604 86 76 74
-0.0764998 0.232895 0.63 134 140 142
0.593654 -0.428569 2.561 51 48 43
0.608598 -0.224311 1.794 34 12 2
-0.0572734 0.124399 1.017 134 130 133
0.626306 -0.130176 1.959 21 10 3
0.644958 0.19436 1.655 65 54 58
-0.181954 -0.105419 0.984 198 194 195
-0.137744 0.126567 0.335 52 38 30
0.0954305 0.148346 2.064 33 33 35
0.464776 0.322898 1.769 94 90 79
0.310845 0.452544 1.535 96 93 88
0.0952036 -0.263659 2.499 66 34 28
-0.238436 0.0249032 0.723 196 196 198
-0.162974 -0.315152 1.227 175 171 172
-0.29594 -0.00489756 0.785 178 176 190
-0.298618 0.119718 0.574 186 191 198
-0.204545 -0.40139 1.387 107 121 125
0.598029 -0.675606 2.459 75 65 63
-0.434446 -0.0656203 0.843 175 183 184
0.445457 0.483392 1.484 95 96 83
-0.0570167 0.235656 0.984 106 105 109
-0.0949257 0.107165 0.334 62 30 10
0.465364 0.0424278 2.143 4 8 3
0.649381 0.0535078 1.81 105 102 99
0.620872 -0.686496 2.32 15 8 0
0.927229 0.145242 1.853 71 64 47
-0.234214 -0.125284 1.002 198 197 201
-0.0550995 0.287098 0.877 143 142 149
-0.0773873 0.0234654 0.84 177 171 175
0.627622 -0.105379 1.859 27 13 5
-0.416408 -0.039228 0.808 196 206 211
-0.745982 -0.444852 1.425 140 150 138
-0.239689 0.0971483 0.602 123 107 102
-0.675757 -0.501666 1.65 166 165 165
-0.377195 -0.0686944 0.921 201 201 203
0.256809 0.300096 1.805 47 39 36
-0.13938 0.129292 0.335 63 51 33
-0.0242317 -0.354234 2.66 65 58 48
0.532826 0.0944987 1.991 20 19 28
-0.0271658 -0.588067 2.53 79 70 65
0.32559 -0.626503 2.519 93 84 79
0.258951 -0.619933 2.509 93 83 81
-0.0024159 -0.748655 2.489 90 81 76
0.628032 -0.758554 2.037 34 25 16
0.771577 -0.41431 1.655 34 9 0
0.558857 0.391571 1.624 108 101 95
-0.0555085 0.198483 1.015 122 121 125
-0.156953 -0.658216 1.799 167 164 161
0.496746 0.0455938 2.128 16 22 20
0.449927 -0.859679 2.459 100 93 87
-0.395649 -0.326195 1.262 167 171 166
-0.256596 -0.171772 1.068 199 195 198
-0.23522 -0.542047 1.595 175 172 167
-0.131468 0.0589193 0.681 200 195 193
-0.217481 0.0830979 0.614 186 185 187
0.345048 0.246452 1.821 123 122 122
0.807578 -0.240518 1.763 33 11 3
0.165798 -0.0970716 2.402 10 9 13
0.652434 0.0250764 1.887 95 96 83
-0.33293 -0.205933 1.102 183 178 174
-0.251131 0.0324974 0.709 191 190 192
-0.111399 -0.617245 1.87 103 95 92
0.619119 -0.114906 1.917 28 12 9
0.665934 -0.18395 1.799 32 12 2
-0.0949647 0.111812 0.666 176 171 179
-0.0639394 -0.0513897 0.992 155 149 155
-0.128528 0.0910914 0.614 207 185 150
-0.144353 0.0454277 0.695 203 199 202
-0.318882 -0.231581 1.122 175 169 171
0.485451 0.0734779 2.037 134 140 140
0.265799 -0.747635 2.459 100 92 89
-0.61419 -0.54978 1.734 164 158 162
-0.0738645 0.144475 0.652 166 164 171
0.571311 -0.0176519 2.244 11 7 8
-0.127262 0.0974881 0.342 78 49 28
-0.095944 -0.0785946 0.989 170 164 166
-0.179825 0.107478 0.605 191 191 187
0.649581 -0.564547 2.212 33 26 20
0.248706 -0.313216 2.572 74 32 31
0.427008 0.441578 1.567 102 96 83
-0.125826 0.086591 0.352 106 79 71
-0.10104 0.125405 0.636 176 174 181
-0.135158 -0.636631 1.821 148 144 137
0.598599 -0.570852 1.603 32 14 3
-0.0715988 0.170897 0.632 111 104 113
-0.455864 -0.354299 1.305 119 143 143
-0.263725 -0.181234 1.083 198 194 197
0.0738979 0.117927 2.121 54 45 48
0.686877 0.512987 1.4 86 94 83
0.703243 -0.604934 1.563 39 13 0
0.335151 0.521154 1.416 99 97 87
0.635278 0.376058 1.637 102 98 89
-0.012633 0.105937 2.158 88 78 76
-0.654311 -0.69772 2.024 163 163 159
0.617705 0.391301 1.612 103 106 85
-0.0111953 -0.482093 2.649 71 64 58
-0.140519 0.119658 0.597 191 190 192
0.28198 0.0767604 2.128 112 102 100
-0.0038197 0.488401 1.47 89 87 79
0.44911 -0.747596 2.499 97 85 83
-0.162161 0.0508578 0.724 203 199 202
0.28356 0.240267 1.865 36 43 47
0.571788 -0.119571 2.383 17 13 4
0.0925488 0.274385 1.87 96 86 86
-0.31785 -0.215041 1.112 185 183 175
0.707239 0.499079 1.432 98 103 93
0.154346 -0.622103 2.469 86 76 74
0.815823 -0.356559 1.714 31 14 0
-0.102257 0.213672 0.568 97 105 104
0.526399 -0.763863 2.499 89 87 79
0.536156 -0.244423 2.469 53 42 33
0.856798 -0.245557 1.758 31 11 3
-0.155644 -0.568536 1.784 167 164 161
0.602742 0.207471 1.719 89 86 81
-0.0493218 0.525502 1.403 73 73 67
0.332887 0.538563 1.378 91 92 81
-0.266063 -0.0875855 0.947 203 202 202
-0.085386 0.0481965 0.776 173 167 171
-0.0924833 0.110212 0.335 55 24 11
-0.0681037 0.248842 0.714 111 110 121
0.286716 0.439028 1.567 98 94 87
0.397388 0.4672 1.494 95 90 86
-0.241313 0.0541252 0.663 195 198 199
-0.473983 -0.269054 1.126 80 143 142
0.643956 0.438196 1.555 107 109 100
-0.0454604 0.240715 1.012 140 139 141
0.517943 -0.249493 2.44 76 52 40
-0.337154 -0.212847 1.11 183 180 177
-0.155608 -0.205649 1.13 141 134 128
0.605313 -0.00265011 1.953 22 11 6
-0.413071 -0.0295036 0.794 195 205 210
-0.160148 -0.00626154 0.796 198 197 201
0.72124 -0.497811 1.603 33 13 3
-0.18806 -0.100347 0.966 196 195 195
-0.152727 -0.0465922 0.872 194 188 192
0.259273 0.243302 1.865 23 35 37
-0.464767 -0.587597 1.789 165 162 159
0.13764 0.482206 1.473 89 90 84
0.81123 0.319331 1.734 96 97 86
-0.191716 -0.151212 1.046 195 191 196
-0.31863 -0.143451 1.027 202 198 199
0.659313 -0.462048 1.624 37 10 4
0.315222 -0.0346623 2.166 11 11 11
-0.198778 -0.572304 1.637 165 160 156
0.221674 -0.53462 2.55 78 67 62
0.620442 -0.823344 2.173 25 6 2
0.718095 -0.00886811 1.923 34 13 0
0.166404 -0.863175 2.469 107 98 93
-0.0549898 0.102805 2.166 86 76 74
-0.10016 -0.0347906 0.897 182 176 180
0.588956 0.101601 1.941 42 26 21
-0.080918 -0.161107 1.167 153 147 153
0.0201785 0.0342181 2.294 80 71 64
0.333495 0.525456 1.409 91 91 85
0.352952 0.170034 1.929 123 117 119
0.430953 0.0918648 2.078 18 24 26
-0.124997 0.0190285 0.771 187 181 185
0.0810404 -0.853037 2.44 109 102 96
-0.056844 0.164456 0.801 167 167 169
0.635176 -0.354335 2.479 6 6 0
-0.139271 0.119283 0.6 187 187 189
0.643048 0.222496 1.664 60 61 55
0.431106 -0.785109 2.489 92 89 86
-0.102384 0.106956 0.33 59 24 9
-0.80999 -0.675781 1.799 156 163 167
0.608995 -0.698305 2.347 19 8 1
0.629649 -0.26347 1.763 25 9 2
0.728026 0.418321 1.595 103 108 98
0.707393 -0.0336914 1.911 34 12 2
-0.703728 -0.470078 1.498 145 152 146
-0.0730721 -0.170664 1.194 153 144 149
0.258203 -0.45654 2.626 71 63 60
0.6593 0.130428 1.664 124 132 129
0.648084 -0.407801 1.629 36 12 0
-0.089144 0.103307 0.341 70 31 13
-0.489462 -0.774667 2.01 160 157 154
-0.49707 -0.557025 1.739 162 157 153
-0.210702 0.0948353 0.606 162 151 142
0.376478 0.0521742 2.114 5 5 5
-0.20184 0.120314 0.586 194 197 200
0.64206 -0.251436 2.459 30 16 8
0.653074 -0.348539 2.411 27 16 9
-0.276037 0.0473455 0.674 193 195 201
-0.816212 -0.721566 2.017 176 176 172
0.753778 0.223621 1.758 54 51 46
-0.249848 0.136178 0.561 186 192 192
-0.519894 -0.121594 1.012 197 205 206
-0.282625 0.14479 0.559 185 188 189
-0.0990251 0.0367363 0.774 181 177 182
0.0785494 -0.184095 2.365 69 46 45
-0.0591195 0.207109 1.953 84 75 70
-0.326394 -0.00944645 0.741 78 105 85
-0.120464 0.0986677 0.624 123 108 109
-0.541709 -0.187414 1.068 181 187 187
-0.457189 -0.688433 1.865 166 166 162
0.249089 0.442705 1.571 89 87 75
-0.106244 0.123012 0.327 22 8 2
0.810716 0.13931 1.815 74 70 73
0.784625 0.33615 1.719 102 95 78
0.36229 0.481224 1.47 95 96 85
0.85458 -0.343613 1.719 24 11 0
-0.263962 -0.0812492 0.945 203 199 202
0.725037 -0.129468 1.815 32 14 5
0.251818 -0.77721 2.402 102 92 90
-0.79125 -0.582219 1.65 154 162 163
-0.0690958 0.089299 0.75 172 168 171
-0.37988 -0.317494 1.244 163 167 162
-0.0580363 -0.442071 2.286 74 67 61
-0.0612967 0.257157 0.951 111 105 111
0.111545 0.381332 1.696 90 83 77
-0.537884 -0.205842 1.092 188 190 181
-0.0789548 -0.355676 1.972 101 97 100
-0.252567 0.0958492 0.6 126 112 106
0.488167 0.513227 1.439 96 94 84
0.285647 0.521048 1.422 97 95 87
-0.194814 -0.177409 1.092 193 192 192
-0.564624 -0.226507 1.124 116 115 117
0.405065 -0.904903 2.43 99 97 85
0.146796 -0.0935118 2.411 9 9 11
0.0839878 0.0343523 2.303 79 72 66
0.270249 0.488323 1.477 94 92 84
0.560284 0.157119 1.887 11 14 15
-0.721305 -0.473686 1.494 164 172 171
-0.107511 -0.466423 1.668 136 127 132
-0.325606 -0.225701 1.12 142 138 131
-0.0486904 0.19263 1.046 121 117 118
0.125268 0.203931 1.953 113 112 114
-0.110725 0.0918874 0.663 182 176 180
-0.108373 0.121948 0.327 17 10 4
0.595562 -0.58863 1.616 31 16 4
0.214742 0.114097 2.114 79 63 70
0.881927 0.0780166 1.905 34 24 10
-0.323698 0.0598675 0.655 167 163 164
-0.123116 0.0932904 0.622 192 188 179
-0.108184 0.177321 0.57 125 114 118
0.594205 -0.79974 2.411 82 75 67
-0.111684 0.0676868 0.703 184 178 182
0.0932988 -0.852198 2.449 106 101 97
-0.0891268 -0.0962793 1.041 164 158 160
-0.455482 -0.312903 1.203 100 153 153
-0.120667 -0.567063 1.826 132 126 128
-0.236202 0.0742209 0.632 200 200 200
0.582947 0.238412 1.805 20 21 15
-0.00672395 0.425039 1.591 95 88 80
0.621462 -0.456589 1.789 31 20 11
0.154972 -0.814228 2.479 104 97 89
-0.0795543 0.21499 0.614 94 97 100
-0.0959218 -0.709678 1.865 170 167 162
0.109071 0.464524 1.509 99 95 84
0.257235 0.330443 1.748 86 82 73
0.0394919 0.438706 1.575 85 81 74
0.577607 0.372113 1.655 111 109 101
0.617006 -0.128122 1.882 27 11 6
-0.0579558 0.268404 0.947 127 126 128
-0.41093 -0.10818 0.98 197 197 199
0.396813 0.506202 1.439 91 92 79
0.409134 0.405778 1.607 100 95 91
-0.0723165 -0.304419 1.452 125 121 124
-0.315622 -0.279563 1.178 173 174 170
-0.279545 -0.0128663 0.804 198 197 197
0.559332 -0.165428 2.43 14 11 8
0.668948 -0.0427507 1.899 32 13 0
0.0528011 -0.81454 2.42 107 97 95
-0.179434 -0.207104 1.118 174 166 163
-0.266048 -0.0586646 0.905 200 199 203
-0.258633 0.0270301 0.717 192 192 194
-0.316411 0.023661 0.721 42 56 78
0.392087 0.319977 1.753 96 88 85
-0.287245 -0.0394518 0.871 201 200 200
0.608669 0.13386 1.744 107 103 104
0.335022 0.269822 1.799 121 116 114
0.462229 -0.551789 2.572 82 72 72
-0.096235 -0.0820616 0.992 170 164 168
0.479159 -0.0310225 2.158 11 17 19
0.0325742 0.128705 2.128 88 81 75
0.146885 0.11139 2.128 117 109 108
-0.0250273 -0.710895 2.024 97 86 81
0.598847 0.299237 1.7 55 55 57
-0.0992135 -0.608467 1.929 86 74 74
0.602117 -0.441953 2.365 7 5 0
0.458435 -0.111794 2.228 9 13 8
-0.0802338 -0.110534 1.081 160 151 158
0.621447 0.097188 1.748 118 118 114
-0.320945 -0.574672 1.691 166 161 157
0.288088 -0.588566 2.55 90 79 74
0.240882 0.460038 1.535 92 90 82
0.618797 -0.777211 2.244 9 4 0
0.73786 0.462337 1.494 98 100 91
-0.00977107 -0.864723 2.312 95 87 84
-0.137873 -0.270994 1.217 129 120 125
0.0965305 -0.912811 2.43 109 102 96
0.72505 -0.368286 1.691 35 13 3
0.796854 -0.446878 1.646 35 13 5
-0.190028 0.0992722 0.603 117 108 103
0.629522 -0.476725 1.629 27 14 1
-0.530053 -0.397736 1.406 179 175 168
0.635323 -0.142299 2.374 26 16 16
-0.182357 0.11519 0.594 196 196 198
0.416998 0.309376 1.774 90 88 80
0.453001 0.241185 1.826 105 103 93
0.240681 -0.732453 2.489 100 92 89
0.717388 0.50501 1.429 96 100 95
0.346 0.509604 1.442 90 88 76
0.597534 -0.854898 2.347 73 64 55
0.231001 0.233269 1.882 19 14 12
0.749243 0.000526441 1.947 31 11 1
0.751046 0.327758 1.719 106 48 21
0.530742 0.518578 1.409 109 111 102
0.0954158 0.0836917 2.22 78 69 64
-0.0956325 0.043893 0.767 182 176 180
0.0616864 0.213466 1.953 93 83 83
-0.449958 -0.201917 1.09 183 183 179
0.780587 -0.551044 1.591 37 16 1
-0.00145401 0.470889 1.498 85 83 73
-0.246245 -0.1502 1.039 200 199 199
0.553186 0.490858 1.456 93 102 93
0.640314 -0.498134 2.099 33 29 22
0.709801 0.0813514 1.714 127 131 124
0.13764 0.487 1.473 87 87 83
0.798127 0.405343 1.595 102 106 99
0.287364 0.222652 1.87 32 35 36
-0.0871566 0.20886 0.591 118 125 129
-0.300791 -0.375536 1.305 1 96 95
-0.0358537 0.471891 1.509 85 78 72
0.702668 -0.373424 1.677 29 11 0
0.496544 0.527394 1.384 105 106 100
-0.128162 0.0915323 0.349 75 47 28
-0.0978404 0.0715674 0.719 178 173 181
0.731168 -0.11107 1.853 34 12 2
0.145522 0.482089 1.48 90 91 85
0.600894 -0.20933 1.842 25 9 2
-0.177872 -0.0340149 0.877 203 197 199
0.738764 0.326042 1.71 110 49 25
0.180507 0.186093 1.966 49 54 59
-0.386514 -0.0194565 0.806 199 202 203
0.681929 -0.372533 1.673 32 13 7
-0.447903 -0.149766 1.036 197 200 199
0.566474 0.11353 1.929 31 25 27
0.00494926 0.0922303 2.166 31 25 31
-0.0830381 0.122729 0.341 34 13 8
0.561048 0.166889 1.859 23 20 17
0.553091 -0.920869 2.42 92 93 84
0.539608 0.357486 1.714 103 103 97
0.600619 0.194609 1.729 93 93 93
-0.250314 0.137758 0.56 186 189 192
-0.110521 0.139505 0.603 175 175 179
0.209684 0.0225171 2.244 6 6 8
0.284651 -0.27034 2.449 74 35 31
-0.24202 -0.00105299 0.776 194 193 195
-0.061957 0.47953 1.487 84 78 82
-0.219708 -0.209235 1.11 178 173 171
-0.386983 -0.17351 1.068 194 194 194
-0.192234 0.0895053 0.61 115 87 41
-0.246023 -0.0721747 0.947 203 197 199
-0.138269 -0.135242 1.041 193 189 192
0.505513 0.518578 1.409 109 110 106
0.742097 -0.308877 1.744 31 11 3
0.924213 0.262844 1.853 88 90 77
-0.110844 0.19517 0.56 107 102 100
-0.504252 -0.132124 1.017 201 204 205
0.280219 0.128193 2.064 117 116 118
-0.105597 0.00419918 0.815 189 183 187
-0.758804 -0.462853 1.445 181 192 192
0.460586 0.0661532 2.121 9 16 10
0.0920553 0.185219 1.991 107 103 106
-0.323895 -0.0108104 0.752 68 93 88
-0.0250273 -0.717482 2.024 97 84 88
0.593282 -0.244634 1.837 67 48 35
0.266654 0.253798 1.853 38 45 49
-0.269766 0.0794877 0.617 191 197 195
-0.073236 0.109082 0.37 68 42 31
0.574561 -0.0663432 2.286 27 16 9
-0.0950929 0.214434 0.575 116 129 126
-0.384617 -0.347101 1.294 5 60 66
0.809089 -0.0301975 1.887 30 14 11
0.656782 -0.690535 2.212 20 11 4
-0.287248 0.0966642 0.599 129 125 118
0.655239 -0.638173 2.269 22 6 1
-0.296339 -0.605525 1.724 170 162 159
-0.273694 0.159146 0.552 174 180 182
-0.291764 0.0224877 0.721 84 82 72
-0.108729 0.185942 0.568 121 111 109
-0.0645033 0.295158 0.768 100 103 104
0.407035 0.121568 2.01 121 129 130
-0.122909 0.0904431 0.347 77 45 25
-0.0875106 0.105929 0.684 166 165 172
0.640147 -0.076259 1.887 26 12 8
0.642673 0.523219 1.403 96 98 87
0.0145496 -0.39244 2.626 19 17 24
-0.261555 0.104909 0.596 118 110 107
0.674639 0.377206 1.642 96 101 91
-0.137667 -0.675884 1.815 174 166 163
-0.206714 0.104179 0.603 198 197 199
-0.0915858 -0.00826891 0.871 172 166 168
-0.0780713 0.108176 0.359 60 35 17
0.122309 0.155063 2.064 86 90 85
-0.692408 -0.435172 1.439 177 185 184
0.0448809 0.16458 2.057 76 71 69
0.363412 0.140772 2.004 124 124 118
-0.23995 -0.408934 1.345 3 85 93
0.16199 0.244647 1.899 87 80 74
-0.0930287 0.109667 0.335 54 24 8
0.433995 0.460489 1.52 90 92 83
0.830988 -0.32968 1.734 27 14 3
-0.13855 -0.220649 1.141 119 109 109
0.555376 -0.889085 2.43 91 88 83
0.182067 0.515367 1.445 96 94 84
-0.324152 -0.618563 1.753 164 157 149
-0.165488 0.111048 0.603 197 197 197
0.658428 0.18628 1.655 83 78 76
-0.085757 0.181964 0.588 163 162 164
-0.0871873 0.0971976 0.351 68 35 20
-0.00389246 0.473326 1.498 85 83 73
0.55015 0.0485726 2.107 10 14 7
0.592921 -0.582125 2.54 78 73 69
0.0118735 0.108688 2.143 86 79 73
-0.0733312 -0.0560059 0.988 164 158 162
-0.244596 -0.141504 1.025 198 197 199
-0.736037 -0.740006 2.078 155 154 156
-0.149839 -0.389197 1.425 130 121 124
0.117066 0.381332 1.696 93 85 82
0.175049 0.146954 2.092 90 92 83
0.677761 0.515265 1.4 95 100 90
-0.112224 -0.12799 1.051 179 175 180
-0.294693 0.00147073 0.775 183 179 182
-0.0775553 0.171026 0.614 157 157 161
-0.177734 -0.142746 1.034 196 195 199
-0.176973 0.116741 0.602 196 196 198
0.664549 -0.495085 2.017 20 33 16
-0.554738 -0.27081 1.149 99 105 107
0.321167 0.245628 1.837 125 122 119
0.321713 -0.716252 2.489 95 86 81
0.919139 0.24232 1.905 75 74 57
-0.107102 0.111645 0.328 50 16 4
0.488286 -0.90243 2.392 99 92 84
-0.447407 -0.0781396 0.86 181 187 189
0.942341 -0.129999 1.865 48 49 38
-0.109238 0.110578 0.328 56 22 12
-0.270764 -0.0169794 0.813 200 199 199
0.615789 -0.556585 1.607 46 15 4
0.65851 -0.188659 2.374 7 6 6
0.559719 -0.194619 2.449 19 14 10
0.39087 0.392776 1.629 95 86 89
0.240373 -0.188873 2.329 77 35 32
-0.256842 -0.146112 1.034 200 196 199
0.0978825 -0.335591 2.684 13 9 10
-0.303115 0.0532863 0.666 199 199 201
-0.190013 -0.210366 1.116 175 170 166
-0.196605 -0.0342297 0.847 204 198 200
-0.12447 -0.14744 1.068 189 183 189
-0.153629 -0.272184 1.171 169 164 162
-0.728432 -0.432978 1.409 134 144 132
0.701236 0.205178 1.7 82 76 63
-0.120065 0.0462725 0.726 186 180 186
0.645432 -0.466121 1.629 31 13 2
0.756954 -0.274033 1.739 29 10 6
0.816479 -0.457755 1.637 32 14 3
0.737908 0.372768 1.646 101 102 93
-0.585536 -0.240711 1.122 122 123 117
0.122265 0.275796 1.859 94 86 83
-0.834226 -0.640869 1.677 176 184 183
0.372862 0.3775 1.655 92 93 84
-0.138567 0.121838 0.337 67 53 38
-0.299894 0.101199 0.597 115 108 91
0.937084 0.256744 1.831 98 99 93
-0.0920981 0.00839876 0.837 172 168 169
0.758502 -0.437224 1.65 31 12 0
0.465364 0.0389405 2.143 4 8 3
0.73656 -0.53292 1.591 34 14 6
-0.0804763 -0.110668 2.01 73 67 73
-0.240295 0.0879322 0.606 139 117 107
0.266247 0.200747 1.893 20 20 20
-0.113178 0.04565 0.735 192 183 188
-0.787429 -0.59351 1.682 127 124 121
0.933751 0.138836 1.848 63 53 39
0.382558 0.456646 1.532 98 95 81
0.752099 -0.569167 1.591 39 12 4
0.502053 0.412593 1.603 101 99 89
-0.711486 -0.816523 2.212 49 33 40
-0.081265 0.0500329 0.785 181 177 178
0.511372 0.508313 1.445 104 105 94
-0.0898739 -0.163916 1.16 153 147 151
-0.0301713 -0.614796 2.44 79 72 64
0.528506 -0.738339 2.509 89 81 78
-0.283412 -0.061542 0.904 200 199 203
0.319778 0.0394856 2.173 8 9 5
-0.0815508 0.0977411 0.375 106 63 69
-0.205586 0.00649023 0.772 200 199 201
-0.678903 -0.554219 1.748 163 160 157
-0.145124 0.125399 0.592 194 194 198
-0.147156 0.133469 0.581 189 188 188
-0.654084 -0.383088 1.378 175 175 175
-0.114773 0.0713377 0.694 184 180 185
0.137612 0.433206 1.583 99 91 88
0.653434 -0.488699 1.616 36 15 2
0.428765 0.535045 1.369 93 94 90
0.648465 0.1102 1.729 72 74 63
0.609311 -0.450595 2.236 42 44 54
-0.133065 0.0309138 0.726 194 185 188
-0.324907 -0.0122102 0.763 50 72 75
-0.417948 -0.316632 1.225 130 148 142
-0.109166 -0.327505 1.409 153 147 149
-0.0129735 0.341905 1.734 88 80 79
-0.190661 0.128742 0.581 194 198 193
-0.0871285 0.104216 0.344 64 27 11
0.339746 -0.0304906 2.121 5 5 7
-0.180936 -0.0163946 0.785 148 146 153
0.850369 -0.305162 1.739 26 7 1
-0.128965 -0.0973137 0.983 191 187 190
0.770862 -0.453809 1.642 27 11 4
-0.0727424 0.163957 0.633 133 132 139
0.173709 0.284872 1.859 92 85 79
0.403208 -0.0130518 2.092 10 11 7
-0.109283 0.149231 0.591 174 174 178
0.292553 -0.00295949 2.181 16 13 10
-0.34582 -0.295284 1.203 142 157 156
-0.0594974 0.165152 0.947 144 137 146
-0.100031 0.0534734 0.744 177 172 180
-0.44673 -0.229755 1.122 40 87 86
0.0987092 0.43982 1.579 94 89 85
-0.071174 -0.379444 1.853 99 96 91
0.66662 -0.547331 1.642 38 12 8
0.779953 -0.544642 1.595 38 12 8
-0.0540023 -0.590972 2.44 77 69 68
-0.228362 0.106234 0.598 195 196 190
0.577507 -0.465697 2.582 29 26 23
0.782349 0.206606 1.784 66 67 58
0.21667 -0.51599 2.54 78 66 66
-0.241883 -0.0960959 0.955 203 197 203
-0.0577517 0.0221136 0.896 121 115 121
-0.661438 -0.38926 1.384 181 184 183
0.495464 -0.510301 2.684 80 71 64
0.390607 -0.379269 2.684 14 12 4
0.153721 -0.731628 2.459 104 92 90
0.806066 0.425891 1.575 109 111 102
-0.140343 0.129678 0.336 64 52 34
0.0171468 -0.832363 2.392 101 93 90
0.287526 -0.514395 2.66 75 66 61
-0.111805 0.0918874 0.663 182 173 178
-0.119551 0.119819 0.327 32 22 10
-0.170942 -0.0127703 0.798 172 165 176
-0.244554 -0.1502 1.039 197 196 196
0.626849 -0.383659 1.686 25 9 2
-0.364009 -0.239736 1.126 173 173 169
0.648025 -0.582465 1.571 36 17 13
0.317932 0.223644 1.853 111 111 111
0.106782 0.451047 1.547 100 93 87
-0.0908507 0.228669 0.59 84 95 93
0.0512276 0.359435 1.71 97 93 84
0.465482 0.469631 1.494 88 87 87
-0.108109 0.20884 0.56 107 111 123
0.621532 -0.355764 2.489 8 5 2
-0.135451 0.0988895 0.343 83 55 38
0.840955 -0.399113 1.659 29 10 4
-0.126143 0.108606 0.617 119 103 108
0.614372 -0.546617 1.624 41 19 9
-0.191352 -0.51074 1.555 175 170 166
0.772189 -0.17562 1.774 34 10 0
0.802692 -0.0814399 1.865 30 11 5
0.448892 0.163246 1.923 120 119 119
0.857378 0.33615 1.719 98 99 88
0.643009 0.134701 1.65 129 140 136
-0.0432228 0.471891 1.509 81 73 70
-0.373169 -0.045225 0.873 193 196 195
-0.0781998 0.141654 0.644 174 173 177
-0.26586 -0.0265419 0.866 202 198 199
-0.402618 -0.147101 1.041 199 199 201
-0.103236 0.16362 0.584 176 175 182
0.649354 -0.0242854 1.905 33 12 7
0.670161 -0.577678 1.985 17 35 33
0.190535 0.454153 1.532 88 83 79
-0.100403 0.105274 0.659 178 172 178
-0.219475 0.0973097 0.603 121 107 101
0.268184 -0.610106 2.519 88 80 79
0.203742 0.130863 2.107 77 80 79
0.648345 -0.513937 1.893 13 37 35
-0.198572 -0.0176496 0.784 188 187 191
-0.287447 0.0577357 0.655 196 196 196
-0.138871 0.129776 0.59 194 194 196
-0.0962677 0.10847 0.333 57 24 9
0.939768 0.25612 1.848 96 97 86
-0.111483 0.0648032 0.709 183 179 184
-0.146588 -0.379826 1.416 132 124 123
0.911878 0.0350519 1.929 36 28 16
0.517697 -0.167431 2.402 25 14 9
-0.191026 -0.68367 1.789 176 173 168
-0.263571 0.119927 0.575 182 188 188
-0.243219 -0.392664 1.327 7 69 86
-0.142767 -0.28673 1.225 150 140 140
0.293172 -0.394966 2.672 22 14 11
-0.124135 0.0915365 0.617 200 192 178
-0.0739419 0.116541 0.356 59 40 27
-0.00694302 -0.334091 2.672 17 11 15
-0.312738 -0.621416 1.753 156 152 145
0.127903 0.277921 1.853 96 88 85
0.727629 0.134033 1.71 65 64 64
0.0595263 -0.0959401 2.374 12 11 13
0.166123 0.291259 1.842 93 89 82
-0.245826 -0.229755 1.122 70 105 106
0.153608 0.533491 1.4 89 90 81
-0.0801751 0.127356 0.343 87 82 78
0.305609 -0.564734 2.593 81 70 65
-0.156145 -0.483872 1.583 151 146 144
0.728026 0.423512 1.595 103 105 92
-0.0725051 0.157438 0.64 147 146 157
0.587823 0.407939 1.595 111 108 103
-0.530122 -0.625331 1.876 171 167 168
0.598858 -0.56411 2.479 47 35 33
-0.0883839 0.118743 0.336 44 22 12
-0.767732 -0.841969 2.261 41 26 25
0.348724 0.175764 1.923 122 115 107
-0.10784 0.118755 0.327 25 14 9
0.708435 0.378125 1.646 103 111 100
0.443011 -0.545531 2.582 88 78 78
0.632933 -0.402479 1.848 21 16 14
0.600637 -0.590951 1.637 35 14 9
0.826327 -0.4442 1.646 32 13 7
-0.66242 -0.356193 1.336 178 186 183
-0.137774 -0.0210515 0.817 185 176 181
0.669217 -0.496588 1.616 36 14 4
0.599807 -0.468412 2.402 9 4 0
0.656262 0.474864 1.48 103 105 94
0.191684 0.249243 1.887 68 68 68
0.751975 -0.201602 1.774 32 13 0
0.771082 0.380061 1.62 102 103 90
0.930245 -0.153286 1.853 24 28 21
0.397154 -0.893039 2.43 99 97 85
0.270183 0.198292 1.899 15 21 19
-0.130527 0.113073 0.614 119 109 107
-0.069594 0.250264 0.683 99 95 98
-0.442037 -0.228336 1.124 68 99 97
0.389651 0.500335 1.456 97 97 91
0.408194 0.493217 1.463 97 99 90
0.561914 0.213323 1.842 15 22 14
-0.0688379 0.0251659 2.158 73 67 69
-0.27382 0.120951 0.571 193 199 199
-0.0752235 -0.399287 1.616 110 106 111
-0.239846 -0.131475 1.012 197 195 202
-0.0757602 -0.325601 1.473 124 120 121
0.758106 -0.408923 1.655 27 11 4
0.114373 0.337231 1.739 95 87 84
-0.0730334 0.0461821 0.807 178 172 178
0.0052623 0.0343523 2.303 64 54 52
0.640608 -0.396484 1.637 27 12 0
0.776671 0.309446 1.758 121 49 11
0.802973 -0.608557 1.579 45 10 7
-0.768969 -0.797981 2.181 99 101 109
-0.0645361 0.0103672 0.889 158 152 158
-0.188719 -0.0331616 0.855 203 197 199
0.927229 -0.0537769 1.853 53 55 44
-0.384451 -0.0758248 0.935 200 200 202
0.154068 -0.882749 2.402 106 102 93
-0.104023 0.13119 0.629 174 173 175
-0.347914 0.0127924 0.704 58 57 66
0.65645 0.489495 1.459 105 107 96
0.405779 -0.187944 2.365 9 9 9
-0.159005 -0.20345 1.128 142 131 126
0.773637 0.25596 1.784 32 33 29
0.574952 0.0311006 2.085 33 19 13
0.0688168 0.264596 1.887 94 84 82
0.231301 -0.898537 2.392 107 100 94
0.529567 0.178615 1.887 17 20 23
0.641886 -0.68359 2.071 28 23 19
-0.108944 0.0971596 0.337 84 56 39
0.39033 0.153551 1.959 117 107 117
0.0467603 -0.716686 2.519 88 79 74
-0.261049 0.0169901 0.737 196 196 198
0.542212 0.494235 1.452 103 105 96
-0.142829 0.1255 0.338 66 42 26
0.243579 -0.0102378 2.22 31 15 10
-0.261228 0.141807 0.558 155 154 158
0.820844 0.250785 1.831 55 56 45
-0.431509 -0.71042 1.859 172 170 162
-0.42799 -0.690781 1.831 175 170 166
0.447497 0.206882 1.865 56 59 60
-0.240148 0.00519325 0.766 196 195 195
0.274453 0.240267 1.865 30 40 45
-0.275483 0.136664 0.563 153 164 164
-0.102831 0.112713 0.328 46 16 9
0.683465 -0.055286 1.905 28 13 3
0.0851842 0.0733787 2.236 82 74 71
0.798762 0.393924 1.612 101 106 94
-0.0330936 -0.0686359 2.365 16 17 13
-0.015614 0.360276 1.714 90 86 79
-0.543646 -0.617245 1.87 168 167 167
0.580692 0.213008 1.789 68 64 65
0.650788 0.473733 1.484 97 99 88
0.594205 -0.733041 2.411 75 71 62
0.698387 -0.586511 1.575 38 13 6
0.898167 0.114129 1.887 78 68 40
-0.396646 -0.13047 1.017 201 201 201
0.820625 -0.258383 1.748 31 10 7
0.0521902 -0.0655269 2.392 11 11 11
0.337743 -0.121584 2.347 5 5 7
-0.360342 -0.394931 1.313 0 126 113
0.297215 0.373932 1.7 89 81 80
-0.121446 -0.146248 1.072 183 179 182
-0.0792505 0.117482 0.68 179 175 178
0.734512 0.0660863 1.753 115 118 117
-0.0777066 -0.494196 1.865 98 94 97
-0.746726 -0.443915 1.422 140 150 138
-0.147658 -0.269817 1.169 161 153 152
-0.528774 -0.342862 1.286 137 155 149
0.248837 -0.835051 2.411 104 97 89
-0.343297 -0.120805 0.992 201 200 202
0.724956 -0.601838 1.555 47 11 1
0.825253 -0.115079 1.821 24 8 3
0.328364 0.435035 1.571 102 95 87
0.712448 0.423512 1.595 109 110 99
0.873968 0.303725 1.758 91 100 91
0.805007 -0.604946 1.583 34 14 4
-0.0932145 0.112315 0.669 175 171 176
-0.297522 -0.0561807 0.889 201 200 200
0.647513 -0.326828 1.719 26 8 0
-0.106776 0.12514 0.327 46 37 20
-0.0399001 0.528557 1.393 70 69 69
-0.0912975 -0.021629 0.896 170 166 169
0.543854 0.525142 1.384 106 110 103
0.569348 -0.293295 2.509 57 47 47
-0.206536 -0.627969 1.724 168 159 162
0.0252261 -0.227758 2.42 64 23 15
-0.291064 0.149441 0.556 175 185 190
-0.06768 0.161654 0.675 108 107 111
-0.0903084 0.0909283 0.697 170 166 171
-0.0457849 0.0856724 1.192 105 99 101
0.823009 -0.00258498 1.905 25 10 0
-0.147176 0.11396 0.343 85 78 68
0.308012 -0.201008 2.383 25 13 11
-0.25273 0.109428 0.589 194 197 198
-0.0181571 0.371952 1.691 87 78 71
0.280858 -0.771063 2.383 100 93 87
0.620378 -0.753532 2.078 43 32 25
-0.122627 -0.0277575 0.86 190 184 188
-0.211408 -0.0438545 0.874 196 195 197
0.503384 0.514311 1.429 108 109 98
-0.216069 0.107387 0.599 184 187 186
0.333769 -0.426052 2.649 40 38 26
-0.165796 -0.408303 1.403 169 164 162
-0.182551 -0.237904 1.126 90 120 114
-0.41173 -0.0338003 0.804 195 205 208
0.654094 0.107386 1.729 85 82 79
0.19488 -0.169922 2.329 50 14 16
-0.50255 -0.357285 1.316 139 157 151
-0.171799 -0.0141394 0.802 175 168 179
-0.328769 0.0597241 0.642 97 92 90
-0.0285616 -0.293632 2.66 25 15 15
0.566007 -0.739631 2.459 85 81 74
-0.10883 0.106956 0.33 59 24 7
0.397488 0.360945 1.691 88 84 75
-0.0199017 -0.306618 2.66 32 21 14
0.449088 0.414683 1.591 94 90 81
-0.45333 -0.383522 1.348 20 124 111
0.596423 -0.503427 2.42 16 6 6
-0.287745 0.109022 0.592 190 196 194
0.665057 -0.571133 1.575 38 13 4
0.324843 0.495598 1.463 101 97 88
-0.143504 0.127322 0.337 67 49 40
0.623559 0.525152 1.396 93 99 99
0.621855 -0.575563 1.71 30 15 5
0.749509 0.42245 1.591 105 107 96
-0.0651344 -0.650647 2.411 82 75 69
0.561645 0.273379 1.784 78 77 81
0.625128 0.310974 1.719 65 66 57
-0.0972098 0.0935608 0.346 78 41 25
0.939309 0.00655305 1.859 95 83 65
0.854802 -0.0118103 1.893 26 12 4
0.486417 -0.929655 2.402 93 94 88
0.668231 -0.233358 1.774 27 12 2
-0.382902 -0.0532874 0.889 193 196 199
0.127049 0.355732 1.719 98 94 87
-0.192861 -0.240711 1.122 0 104 102
0.671179 -0.648071 2.143 15 23 10
0.142866 -0.616554 2.479 82 73 68
-0.209609 -0.115261 0.986 193 192 196
0.609377 -0.400319 2.489 15 3 1
0.139863 0.217796 1.935 86 80 84
-0.266914 -0.0606689 0.913 200 199 203
0.0549611 -0.606007 2.519 81 72 63
-0.14289 -0.438754 1.551 158 149 154
-0.337098 0.0340242 0.65 188 193 200
0.388037 0.351087 1.71 94 90 83
0.692284 0.241039 1.719 39 42 41
0.549959 0.343733 1.729 107 102 98
-0.118927 0.0375817 0.741 190 186 189
0.194781 -0.0998033 2.374 9 8 8
-0.0424644 0.152219 2.071 88 78 76
0.0391904 0.234265 1.941 95 87 86
-0.426401 -0.375271 1.319 5 124 115
0.476483 0.461138 1.498 89 91 80
0.661342 0.384824 1.629 100 101 95
0.582885 0.281518 1.71 91 93 82
0.734648 -0.21315 1.774 32 12 4
-0.251561 0.0861017 0.607 169 158 151
0.354913 0.523219 1.403 92 90 82
0.089228 -0.570267 2.561 75 68 62
0.272725 0.165279 1.985 50 41 46
0.495633 -0.721356 2.55 87 82 80
0.122578 -0.58277 2.561 79 70 65
0.618012 -0.775295 2.228 12 8 1
-0.0708616 0.172046 0.644 106 105 107
0.728225 -0.394313 1.673 33 14 1
-0.106771 0.0579269 0.724 188 184 187
-0.0980863 0.1134 0.33 43 17 13
0.398474 0.341745 1.719 92 88 79
-0.133091 0.112705 0.612 115 105 103
-0.202841 -0.467027 1.473 150 150 128
-0.24217 -0.0734823 0.944 201 195 197
-0.499353 -0.788388 2.037 155 151 152
0.369579 0.530746 1.381 88 88 82
-0.290874 -0.111824 0.984 200 199 201
0.205037 -0.609328 2.499 84 73 66
-0.0566073 0.0281019 0.901 118 112 116
0.403051 0.282879 1.789 101 100 104
0.245838 0.428054 1.583 93 86 80
0.590755 0.463835 1.491 106 111 101
-0.0334714 -0.0421715 2.392 29 19 17
0.514211 -0.675694 2.519 89 82 74
0.0514187 0.304712 1.815 96 87 82
0.548944 0.212267 1.859 44 46 37
-0.0664241 0.138645 0.721 109 107 114
0.656439 0.148126 1.65 121 121 121
0.356407 -0.824301 2.449 101 93 90
0.774536 -0.335324 1.734 26 13 2
-0.257371 0.0247999 0.72 193 196 197
0.0434463 0.289983 1.853 94 87 81
0.0467603 -0.597808 2.519 83 72 65
-0.326513 -0.320803 1.249 166 175 168
0.0732472 0.484498 1.48 90 86 77
-0.0502968 0.185466 1.044 126 122 125
-0.0775313 0.187534 0.606 126 124 133
-0.291587 0.146991 0.557 174 187 186
0.317895 0.317125 1.753 92 90 82
-0.19834 -0.246188 1.122 0 118 116
-0.303612 -0.387042 1.308 0 90 83
-0.180227 -0.596434 1.714 165 157 154
0.627651 -0.283399 2.53 13 8 4
-0.438351 -0.0690453 0.887 199 202 201
0.593852 -0.452531 2.509 31 21 19
0.593475 0.248795 1.677 51 54 57
-0.42831 -0.125284 1.002 193 199 199
-0.0304069 0.0996007 2.173 85 77 76
0.399804 0.393741 1.633 97 89 88
0.664859 -0.0118852 1.905 32 12 2
0.796099 -0.237649 1.763 36 12 0
-0.0929441 -0.332828 1.442 145 137 136
-0.0417418 -0.613695 2.42 79 72 64
0.497757 0.351908 1.714 103 96 86
-0.22215 0.108 0.597 195 195 195
-0.182204 -0.156686 1.06 197 193 194
-0.220424 -0.160792 1.053 196 192 193
0.661122 0.148575 1.655 117 117 117
0.388228 0.248593 1.815 127 126 126
-0.160556 -0.214083 1.126 156 153 150
0.0865771 -0.219565 2.374 60 23 20
0.232845 0.283186 1.848 90 85 81
0.139957 0.107927 2.128 70 61 64
-0.110447 0.136704 0.608 173 173 177
-0.053485 0.0694933 1.149 118 109 112
0.560301 0.0974441 1.985 14 13 13
-0.239562 0.111912 0.592 183 186 187
0.815746 -0.488762 1.599 36 15 2
-0.0873731 0.200418 0.586 122 124 134
-0.256967 -0.251772 1.139 163 171 168
-0.792195 -0.563026 1.603 124 133 115
0.611635 -0.304669 1.769 30 11 0
0.651409 0.534078 1.378 92 96 89
0.631368 -0.387533 2.092 30 36 19
0.22111 0.495577 1.47 93 91 83
-0.255766 -0.124659 0.997 200 199 201
0.698206 0.343415 1.686 95 97 84
-0.292818 -0.0863832 0.934 200 199 199
0.698741 0.458016 1.52 101 108 100
-0.0936573 0.0201145 0.815 175 166 171
-0.143108 0.103064 0.608 165 163 153
0.694771 0.355441 1.691 104 105 92
-0.217803 -0.0267247 0.828 202 198 199
0.386219 0.483616 1.47 93 95 84
-0.0806959 -0.0174859 0.908 169 163 167
-0.090077 0.070479 0.732 171 165 171
-0.00447971 0.34835 1.724 92 87 83
-0.524419 -0.268646 1.132 47 129 121
-0.0762395 0.0989556 0.714 181 177 182
0.719386 -0.306039 1.744 29 11 2
0.298555 0.0253408 2.173 6 6 2
0.117688 0.366708 1.705 95 87 84
-0.311178 0.0111127 0.745 96 94 101
-0.12613 0.0427605 0.707 182 174 173
-0.127148 0.0905324 0.617 116 91 82
-0.228162 -0.215814 1.116 175 175 169
-0.0806704 0.186654 0.6 132 131 138
