ply
format ascii 1.0
comment Created by Open3D
element vertex 1314
property double x
property double y
property double z
property uchar red
property uchar green
property uchar blue
end_header
0.566042 -0.507297 2.312 255 255 255
0.107941 -0.308191 2.181 255 255 255
0.803675 0.232783 2.593 255 255 255
0.0521781 0.506618 1.571 255 255 255
1.11618 -0.63103 2.411 255 255 255
0.316689 -0.2181 2.278 255 255 255
1.30212 0.423452 2.793 255 255 255
0.60357 -0.218531 2.449 255 255 255
-1.39281 -0.36638 3.527 255 255 255
1.23034 -0.322986 2.55 255 255 255
0.901967 -0.617483 2.374 255 255 255
0.879788 -0.539955 2.356 255 255 255
0.529427 -0.104889 2.402 255 255 255
0.625183 -0.185962 2.44 255 255 255
1.0266 -0.112286 2.479 255 255 255
1.12207 0.445162 2.731 255 255 255
0.770844 0.21919 2.582 255 255 255
0.39007 -0.734499 2.151 255 255 255
-0.611199 0.76918 2.338 255 255 255
0.577055 0.325353 1.196 255 255 255
-0.238033 0.371517 2.374 255 255 255
0.308626 -0.393181 2.22 255 255 255
1.31837 0.303426 2.818 255 255 255
-0.930296 -0.898047 3.41 255 255 255
-1.10792 -0.659432 3.41 255 255 255
-1.18407 0.630092 2.649 255 255 255
0.213023 -0.79212 2.064 255 255 255
-0.0484927 0.150736 2.365 255 255 255
-1.13079 -0.768435 3.283 255 255 255
0.912654 0.21348 2.615 255 255 255
0.100848 -0.630326 2.107 255 255 255
-0.349488 -0.74226 1.959 255 255 255
0.0810697 -0.511942 2.128 0 0 0
0.0157991 -0.347307 2.204 255 255 255
0.151717 0.172634 1.47 255 255 255
0.400131 0.353945 1.333 255 255 255
-0.984586 -0.192834 3.609 255 255 255
0.271529 0.379549 1.484 255 255 255
-0.999418 0.718671 2.347 255 255 255
0.218816 0.534628 1.409 255 255 255
-0.769265 0.771121 2.244 255 255 255
0.49369 0.335493 2.54 255 255 255
-0.417652 -0.519042 1.935 255 255 255
0.107412 0.555759 1.422 255 255 255
-0.200901 0.59621 2.392 255 255 255
-1.44422 -1.21896 3.231 255 255 255
-0.0235795 -0.217397 2.196 255 255 255
0.537334 -0.0702321 2.42 255 255 255
0.685588 -0.632941 2.212 255 255 255
-0.749329 0.773283 2.261 255 255 255
-1.26707 -0.841421 3.318 255 255 255
0.250867 -0.519493 2.189 255 255 255
1.1687 0.487536 2.695 0 0 0
-1.20845 0.546025 2.939 255 255 255
-0.962669 0.812143 2.078 255 255 255
-1.31101 -0.700678 3.266 255 255 255
-1.57871 -0.91881 3.248 255 255 255
0.831856 0.033887 2.55 255 255 255
0.171921 -0.32571 2.228 255 255 255
0.419046 0.357499 1.291 255 255 255
-0.0568337 0.296482 2.392 255 255 255
0.247939 0.000639462 2.365 255 255 255
0.454208 0.347901 1.249 255 255 255
-1.58564 -1.23773 3.198 255 255 255
0.686726 0.288045 1.473 255 255 255
-0.34994 0.390207 2.347 255 255 255
-0.388503 0.11296 2.158 255 255 255
-0.293352 0.160708 2.236 255 255 255
0.0132032 0.248831 2.383 255 255 255
0.571336 -0.527808 2.303 255 255 255
-1.31357 -1.04158 3.354 255 255 255
1.13776 -0.501489 2.449 255 255 255
0.540896 0.314101 1.252 255 255 255
0.593227 -0.693221 2.244 255 255 255
-1.81406 0.0126479 3.588 255 255 255
1.10156 0.0656496 2.66 255 255 255
-1.38019 0.490803 3.011 255 255 255
-0.934814 0.793025 2.099 255 255 255
0.273359 0.554724 1.494 255 255 255
0.491948 0.100295 2.449 255 255 255
-0.148461 -0.513494 2.092 0 0 0
-0.0727112 0.661244 2.402 255 255 255
-0.969842 -0.585405 3.336 255 255 255
0.572437 -0.355055 2.402 255 255 255
0.347154 0.139634 2.44 255 255 255
-0.0267832 -0.351894 2.166 255 255 255
-0.971726 0.70688 2.411 255 255 255
-0.864641 0.735728 2.365 255 255 255
-1.01124 0.682441 2.479 255 255 255
0.318569 -0.466059 2.189 255 255 255
-1.42823 -0.621312 3.354 255 255 255
0.767389 0.0573789 2.489 255 255 255
-1.409 -0.30677 3.568 255 255 255
-1.72398 -0.656242 3.283 255 255 255
-1.29631 0.58316 2.818 255 255 255
-0.708645 0.561724 2.78 255 255 255
-0.427144 -0.00292828 2.158 255 255 255
0.379727 -0.496129 2.278 255 255 255
-1.11962 -0.923902 3.266 255 255 255
0.630051 -0.0953736 2.459 255 255 255
-0.708016 0.324297 2.967 255 255 255
-0.920944 0.672957 2.519 255 255 255
-0.931543 0.513154 3.117 255 255 255
0.323627 0.293029 1.416 255 255 255
-1.66053 -0.143344 3.547 255 255 255
-0.823608 -0.924517 3.231 255 255 255
-1.23931 0.35638 3.467 255 255 255
0.567909 -0.266932 2.383 255 255 255
-0.135581 -0.297917 2.158 255 255 255
0.758269 0.0250759 2.499 255 255 255
0.792377 -0.572266 2.347 255 255 255
0.517 0.36018 1.215 255 255 255
0.39158 0.122737 2.42 255 255 255
0.225024 0.455597 1.48 255 255 255
-1.4183 -1.00881 3.318 255 255 255
0.155012 0.500335 1.456 255 255 255
1.01721 -0.798261 2.294 255 255 255
0.439445 0.407946 1.057 255 255 255
0.515867 -0.0511471 2.449 255 255 255
-0.483515 0.500962 2.365 255 255 255
-0.351633 0.491088 2.411 255 255 255
0.0595263 0.213122 2.374 255 255 255
0.498154 -0.454817 2.294 255 255 255
-0.00212471 -0.238077 2.189 255 255 255
0.13778 -0.297095 2.204 255 255 255
1.28774 0.116799 2.743 255 255 255
-0.121026 0.68477 2.43 255 255 255
0.232251 0.188259 1.48 0 0 0
1.0348 -0.359814 2.489 255 255 255
0.0272491 -0.0251444 2.261 255 255 255
0.573697 0.34773 1.154 255 255 255
0.157066 -0.374248 2.173 255 255 255
-0.363528 0.166783 2.22 255 255 255
0.850105 0.114632 2.593 255 255 255
-0.174687 -0.441227 2.121 255 255 255
0.388918 -0.584025 2.204 255 255 255
-1.26459 0.543424 2.925 255 255 255
0.19035 0.0157289 2.32 255 255 255
0.439497 -0.112707 2.402 255 255 255
0.28986 0.487545 1.543 0 0 0
1.15365 -0.689626 2.383 255 255 255
0.0230638 0.647963 1.686 255 255 255
1.04086 -0.670311 2.356 255 255 255
0.519491 0.338116 1.322 255 255 255
-0.873 0.482278 3.181 255 255 255
0.192396 0.371184 1.47 255 255 255
0.328943 -0.330465 2.312 255 255 255
1.07288 0.434356 2.719 255 255 255
0.476265 -0.0942488 2.43 255 255 255
-0.118219 -0.0501572 2.228 255 255 255
0.193168 0.086644 2.402 255 255 255
-0.0140029 0.588425 2.392 255 255 255
0.615889 0.33843 1.215 255 255 255
0.674082 -0.0833687 2.459 0 0 0
-0.339674 0.78517 2.329 255 255 255
0.229842 0.458005 1.48 255 255 255
-1.7002 0.139335 3.696 255 255 255
-1.64543 -0.108099 3.527 255 255 255
-0.861397 -0.527549 3.215 255 255 255
-0.116155 0.377307 2.411 255 255 255
-1.16398 0.312654 3.547 255 255 255
0.993603 0.000698135 2.582 255 255 255
0.45105 0.334542 1.369 255 255 255
-0.11358 0.751119 2.44 255 255 255
0.448993 -0.0895884 2.411 255 255 255
-0.644453 0.741024 2.42 255 255 255
0.954888 -0.335468 2.43 255 255 255
0.953527 -0.0806582 2.499 0 0 0
0.230929 0.416614 1.487 255 255 255
-0.783797 0.743425 2.365 255 255 255
-1.0201 0.304081 3.652 255 255 255
-0.174981 0.00779739 2.212 255 255 255
-0.049872 -0.573281 2.099 0 0 0
0.824779 0.13573 2.593 255 255 255
-0.0163179 -0.279797 2.181 255 255 255
-1.40638 0.025512 3.763 255 255 255
-0.83514 0.391416 3.117 255 255 255
0.14396 -0.420015 2.136 255 255 255
0.0980659 -0.506806 2.121 0 0 0
-0.104218 0.151643 2.32 255 255 255
-1.46848 0.40463 3.181 255 255 255
0.836272 -0.497721 2.374 255 255 255
-0.672411 0.569 2.707 255 255 255
-1.3312 -0.257437 3.609 255 255 255
-0.0161458 -0.389224 2.158 255 255 255
-1.16433 -0.584984 3.429 255 255 255
-0.897875 0.71688 2.392 255 255 255
-0.828868 -1.15586 3.231 255 255 255
0.671412 -0.418861 2.365 0 0 0
-0.464267 0.489416 2.365 255 255 255
-0.201702 0.729977 2.449 255 255 255
0.885992 -0.464707 2.383 255 255 255
-0.449749 0.730421 2.411 255 255 255
-1.68455 -1.11283 3.198 255 255 255
0.520924 0.328942 1.278 255 255 255
0.0548875 -0.206017 2.189 255 255 255
0.0216298 0.380817 2.459 255 255 255
-0.319479 0.782136 2.32 255 255 255
-1.68455 -0.920278 3.198 255 255 255
0.661582 -0.777703 2.204 255 255 255
0.795722 -0.768044 2.228 255 255 255
0.0335975 0.617845 1.664 255 255 255
0.424001 0.250735 2.519 255 255 255
0.411789 0.360078 1.308 255 255 255
0.386199 0.0595042 2.411 255 255 255
0.637733 -0.810617 2.196 255 255 255
-1.07251 -0.987521 3.301 255 255 255
0.929755 -0.225242 2.479 255 255 255
-0.672108 0.714036 2.449 255 255 255
-0.333412 -0.0677953 2.212 255 255 255
-0.018192 -0.772907 1.997 255 255 255
-1.74714 0.0896142 3.631 255 255 255
-0.725732 0.815315 2.158 255 255 255
0.348061 0.347417 1.403 255 255 255
1.28998 -0.162417 2.638 255 255 255
-1.4512 0.583573 2.755 255 255 255
0.541166 0.33829 2.53 255 255 255
0.422349 -0.294994 2.329 255 255 255
-0.504463 0.080079 2.22 255 255 255
-0.826447 0.753102 2.312 255 255 255
-1.38165 0.589599 2.805 255 255 255
0.595607 -0.732665 2.253 255 255 255
-0.376739 -0.0344222 2.151 255 255 255
-0.328739 0.057377 2.181 255 255 255
-1.70795 -0.431856 3.283 255 255 255
0.419266 0.290026 2.54 255 255 255
0.681696 -0.501584 2.374 255 255 255
-1.39461 -0.0465566 3.652 255 255 255
-0.167816 0.0889167 2.261 255 255 255
-0.29247 0.298224 2.286 255 255 255
1.1687 0.119141 2.695 255 255 255
1.24753 -0.469424 2.469 255 255 255
1.10141 -0.741283 2.338 255 255 255
-0.0648913 0.250815 2.402 255 255 255
1.15263 -0.738298 2.365 255 255 255
-0.793663 -1.18736 3.055 255 255 255
-0.339776 0.437711 2.356 255 255 255
-1.72076 -0.690236 3.318 255 255 255
0.728381 -0.638445 2.244 255 255 255
-0.164821 -0.254018 2.173 255 255 255
-1.04425 0.479651 3.198 255 255 255
0.241568 -0.26524 2.269 255 255 255
-0.489421 0.378168 2.32 255 255 255
0.334435 0.513866 1.366 255 255 255
0.133476 0.32554 1.48 255 255 255
-1.45905 0.238437 3.741 255 255 255
0.431721 0.408502 1.072 255 255 255
-1.41532 0.588056 2.755 255 255 255
-1.36835 -0.300963 3.568 255 255 255
0.464546 -0.439885 2.294 255 255 255
-0.344433 -0.48077 1.985 255 255 255
1.35794 0.470918 2.805 255 255 255
-1.60985 -0.675956 3.301 255 255 255
-0.419501 0.0324132 2.173 255 255 255
0.04905 -0.656478 2.092 255 255 255
-1.76446 -0.114484 3.547 255 255 255
-0.0368432 -0.399159 2.136 255 255 255
0.0792858 0.396685 1.551 255 255 255
-0.233746 0.806968 2.294 255 255 255
-0.204243 -0.61933 2.037 255 255 255
0.28227 0.35853 1.477 255 255 255
0.482574 0.324279 1.327 255 255 255
0.0237459 -0.00309112 2.278 255 255 255
-0.967176 0.0301644 3.588 255 255 255
-1.68665 -0.666837 3.336 255 255 255
0.269132 -0.63205 2.136 255 255 255
-1.40771 -0.216809 3.718 255 255 255
-1.62691 -0.324824 3.336 255 255 255
0.378148 0.440149 1.165 255 255 255
-0.247217 -0.424981 2.092 255 255 255
0.262578 0.461745 1.516 255 255 255
-0.298393 0.251721 2.303 255 255 255
1.41386 0.310853 2.844 255 255 255
0.877437 -0.853007 2.261 255 255 255
0.412499 0.19181 2.499 255 255 255
0.554544 0.412449 1.087 255 255 255
-0.804605 0.613052 2.707 255 255 255
0.172874 -0.709188 2.107 255 255 255
0.3705 0.0712747 2.411 255 255 255
0.727429 -0.541712 2.347 255 255 255
-0.306895 -0.283387 2.128 255 255 255
0.991067 -0.850525 2.294 255 255 255
-0.162625 -0.484471 2.099 0 0 0
-0.192226 0.688724 2.43 255 255 255
1.32598 0.38419 2.805 255 255 255
0.127574 -0.140252 2.278 255 255 255
-0.288748 0.201502 2.286 255 255 255
-0.00238679 0.492862 2.459 255 255 255
0.621324 0.302051 2.572 255 255 255
0.565045 0.305011 1.265 255 255 255
-0.659811 0.657817 2.572 255 255 255
0.299508 0.42744 1.491 255 255 255
-1.07263 -0.998006 3.318 255 255 255
0.101972 0.322951 1.513 255 255 255
-1.76025 -0.108099 3.527 255 255 255
-1.15742 0.32811 3.527 255 255 255
-1.43741 -0.558205 3.181 255 255 255
0.594822 -0.0235346 2.479 255 255 255
-0.0735588 0.74804 2.43 255 255 255
0.927998 0.297733 2.684 255 255 255
0.979933 0.314889 2.719 255 255 255
-1.65332 -0.90987 3.198 255 255 255
-1.01295 0.447795 3.231 255 255 255
-0.388745 0.653536 2.374 255 255 255
0.158545 -0.244059 2.244 255 255 255
0.218718 0.342478 1.47 255 255 255
0.220488 -0.791436 2.071 255 255 255
-1.07815 0.345463 3.588 255 255 255
0.152924 -0.147083 2.269 255 255 255
-1.72848 0.200669 3.718 255 255 255
1.1264 -0.499535 2.459 255 255 255
-0.106026 0.427092 2.449 255 255 255
0.156077 0.281905 1.466 255 255 255
-1.17076 0.418917 3.336 255 255 255
0.612099 0.420223 2.604 255 255 255
-0.129449 -0.225728 2.173 255 255 255
0.889002 -0.868321 2.253 255 255 255
-0.913731 -1.24431 3.215 255 255 255
0.0592661 -0.69733 2.092 255 255 255
0.389833 0.406844 1.201 255 255 255
-1.0816 0.662033 2.54 255 255 255
1.24176 0.326478 2.78 255 255 255
-1.24778 0.625314 2.684 255 255 255
-1.4067 -0.796345 3.266 255 255 255
-0.924316 -0.412001 3.429 255 255 255
-0.0263133 -0.494627 2.128 255 255 255
-1.61043 -0.908239 3.248 255 255 255
-0.282522 -0.74226 1.959 255 255 255
-0.358391 -0.376057 2.085 255 255 255
-0.986133 -1.05771 3.336 255 255 255
0.181185 -0.26337 2.253 255 255 255
-1.4183 -0.96021 3.318 255 255 255
-0.497235 0.788162 2.22 255 255 255
-0.980534 -0.675893 3.354 255 255 255
1.03885 -0.266655 2.489 255 255 255
1.00227 0.15955 2.638 0 0 0
-0.00211695 -0.198166 2.181 255 255 255
0.75128 -0.632745 2.303 255 255 255
0.609459 0.120556 2.54 255 255 255
-1.48707 -0.14083 3.631 255 255 255
0.863407 -0.150391 2.509 255 255 255
1.20544 -0.194346 2.55 255 255 255
-0.0981645 0.192336 2.356 255 255 255
-1.04787 0.67168 2.499 255 255 255
-1.20157 -1.18153 3.215 255 255 255
0.558515 -0.503534 2.312 255 255 255
1.01882 -0.0119072 2.582 255 255 255
0.179941 0.203178 1.466 255 255 255
-0.473165 -0.262609 2.128 255 255 255
-1.01131 0.650529 2.593 255 255 255
0.653944 -0.0519825 2.489 255 255 255
0.389809 0.410519 1.189 255 255 255
0.207172 -0.764049 2.107 255 255 255
-0.118455 -0.291972 2.166 255 255 255
1.04887 0.0390062 2.615 255 255 255
-1.38798 -1.112 3.336 255 255 255
0.422736 -0.560947 2.212 255 255 255
-1.52861 -0.0587947 3.674 255 255 255
0.255337 -0.383721 2.228 255 255 255
-0.946513 0.632709 2.66 255 255 255
0.591112 -0.607059 2.236 255 255 255
-0.78813 0.314781 3.215 255 255 255
-0.486476 0.0759152 2.204 255 255 255
-0.0218722 -0.688942 2.037 0 0 0
1.27181 0.205089 2.672 255 255 255
-0.135291 -0.491302 2.099 255 255 255
-0.424453 -0.656644 1.923 0 0 0
-1.58884 -1.02458 3.215 255 255 255
-0.352248 0.290329 2.312 255 255 255
-0.329015 -0.322979 2.071 255 255 255
0.455054 0.325974 1.409 255 255 255
-0.914711 -0.915748 3.373 255 255 255
-0.00552947 -0.470387 2.128 255 255 255
-1.14148 -1.22255 3.283 255 255 255
-0.0021946 -0.0141062 2.261 255 255 255
0.755115 -0.364233 2.411 255 255 255
1.05414 -0.881872 2.269 255 255 255
0.432747 0.396963 1.139 255 255 255
0.883545 0.325267 2.695 255 255 255
1.36315 -0.0905902 2.672 255 255 255
-1.02402 0.784079 2.121 255 255 255
0.574646 -0.00739801 2.479 255 255 255
1.24143 -0.396268 2.489 255 255 255
0.319778 -0.437899 2.173 255 255 255
0.060454 0.463624 2.411 255 255 255
-0.177106 -0.627112 2.03 255 255 255
0.990285 -0.180866 2.479 0 0 0
0.35113 -0.389404 2.261 255 255 255
0.55273 -0.604888 2.228 255 255 255
0.528838 -0.630651 2.204 255 255 255
0.605825 0.289146 1.286 255 255 255
-1.24248 0.374795 3.429 255 255 255
0.215453 -0.703546 2.121 255 255 255
-0.0972922 0.273511 2.43 255 255 255
0.350908 0.462329 1.229 255 255 255
0.853956 -0.425415 2.402 0 0 0
-0.714305 0.704214 2.499 255 255 255
0.951203 0.136306 2.604 255 255 255
-1.71477 -0.185873 3.588 255 255 255
0.420651 -0.58104 2.22 255 255 255
-0.38499 0.134031 2.158 255 255 255
-0.245771 -0.579146 2.024 255 255 255
-1.45613 0.255122 3.718 255 255 255
-0.185326 0.530036 2.392 255 255 255
-0.0493103 -0.0791627 2.228 255 255 255
-0.8287 0.594422 2.743 255 255 255
-0.281306 0.261023 2.286 255 255 255
0.305791 0.528929 1.463 255 255 255
0.351253 0.40519 1.289 255 255 255
0.681954 -0.240562 2.43 255 255 255
0.13828 -0.341369 2.212 255 255 255
0.994304 -0.587571 2.459 255 255 255
0.850701 0.139356 2.582 255 255 255
-1.69045 -0.547032 3.301 255 255 255
0.526512 0.316323 2.519 255 255 255
-0.847109 -1.02409 3.181 255 255 255
0.0730836 -0.778877 2.004 0 0 0
-1.61864 -0.972328 3.181 255 255 255
0.179081 0.50374 1.459 255 255 255
0.578619 0.284286 1.491 255 255 255
-0.199 -0.736808 1.953 0 0 0
0.0046088 -0.744542 2.017 255 255 255
0.883991 -0.326211 2.42 255 255 255
1.31692 -0.0811888 2.649 255 255 255
-1.03199 0.0841895 3.652 255 255 255
1.044 -0.81205 2.312 255 255 255
-0.657755 0.734344 2.411 255 255 255
-0.289363 0.392315 2.383 255 255 255
-1.09621 0.335739 3.609 255 255 255
-0.72107 0.760627 2.312 255 255 255
-1.60733 -0.641641 3.318 255 255 255
-0.152989 -0.672331 2.017 255 255 255
0.475575 0.282188 1.48 255 255 255
-1.52317 -1.09202 3.198 255 255 255
0.322306 0.0354114 2.374 255 255 255
0.833566 -0.328798 2.469 255 255 255
-0.33077 0.6417 2.402 255 255 255
0.296696 0.394584 1.477 255 255 255
0.294076 0.51746 1.513 255 255 255
0.47234 -0.766641 2.143 255 255 255
0.967045 -0.442702 2.411 255 255 255
1.01741 -0.743127 2.32 255 255 255
0.74126 -0.738946 2.261 255 255 255
0.0299447 -0.287948 2.189 255 255 255
0.564991 0.283556 1.513 255 255 255
-0.422107 -0.514334 1.941 255 255 255
-1.80111 0.21882 3.718 255 255 255
0.175168 0.169779 1.466 255 255 255
0.0468225 -0.776156 1.997 0 0 0
0.473517 0.175544 2.499 255 255 255
-0.140061 -0.257554 2.173 255 255 255
0.323548 -0.764738 2.128 255 255 255
0.791383 -0.0323805 2.54 255 255 255
-0.514349 0.75684 2.383 255 255 255
0.488862 -0.467845 2.303 255 255 255
0.394023 0.370537 1.278 255 255 255
0.453973 -0.686917 2.189 255 255 255
0.157239 -0.103182 2.278 255 255 255
-0.873692 -0.788764 3.301 255 255 255
-0.444708 0.000583492 2.158 255 255 255
-1.25194 -0.432852 3.652 255 255 255
-0.148741 -0.70387 2.004 255 255 255
0.870076 -0.790458 2.261 255 255 255
0.904691 0.434356 2.719 255 255 255
-0.0604989 0.636624 2.383 255 255 255
1.00244 -0.656115 2.374 255 255 255
0.368679 -0.126846 2.374 255 255 255
0.694096 -0.179407 2.459 0 0 0
-1.12526 0.374795 3.429 255 255 255
-1.06352 -0.759317 3.41 255 255 255
-0.0738615 0.389787 2.44 255 255 255
-0.339652 0.797633 2.278 255 255 255
0.586718 -0.430407 2.365 255 255 255
0.314407 0.456634 1.416 255 255 255
-0.405606 0.807211 2.253 255 255 255
0.0336151 -0.181661 2.196 255 255 255
1.16296 -0.847259 2.347 255 255 255
-1.41185 -0.730473 3.354 255 255 255
-0.933029 -0.114484 3.547 255 255 255
-0.17814 -0.434324 2.121 255 255 255
-1.38577 -0.329995 3.568 255 255 255
1.04095 0.147283 2.649 255 255 255
0.582804 0.296038 1.477 255 255 255
0.507312 -0.630651 2.204 255 255 255
1.22553 0.429836 2.805 255 255 255
0.293883 0.331324 1.463 255 255 255
1.20653 0.236283 2.731 255 255 255
-0.696665 0.725816 2.383 255 255 255
0.0933197 -0.687117 2.092 0 0 0
-0.657874 0.752962 2.383 255 255 255
0.712618 0.293202 1.487 255 255 255
0.464398 0.067882 2.43 255 255 255
1.15892 -0.18047 2.53 255 255 255
-0.394098 0.62499 2.383 255 255 255
-0.773965 0.824383 2.136 255 255 255
0.257637 -0.788474 2.099 255 255 255
0.648435 0.321987 1.267 255 255 255
0.864153 0.000695431 2.572 255 255 255
-1.63249 -1.18049 3.198 255 255 255
0.449594 -0.737999 2.151 255 255 255
-0.09008 0.435063 2.449 255 255 255
-1.71634 -0.246092 3.373 255 255 255
-1.05576 0.0485315 3.652 255 255 255
-1.4399 -0.906215 3.318 255 255 255
-1.57988 0.06716 3.696 255 255 255
1.41849 0.273828 2.844 255 255 255
-0.822743 0.657526 2.638 255 255 255
-1.21378 0.675676 2.44 255 255 255
-0.788428 -1.17179 3.133 255 255 255
-0.192642 -0.752699 1.953 255 255 255
0.990942 -0.719055 2.365 255 255 255
-0.689624 0.640354 2.638 255 255 255
0.388091 0.175544 2.499 255 255 255
0.027454 0.0376865 2.278 255 255 255
-1.73068 -0.0107702 3.609 255 255 255
0.184084 -0.42083 2.158 255 255 255
-1.12356 0.353059 3.547 255 255 255
0.555709 0.347894 2.54 255 255 255
0.379222 0.3125 1.4 255 255 255
-0.0260536 -0.599467 2.107 255 255 255
-0.207897 -0.718702 1.947 255 255 255
-0.166042 -0.491302 2.099 255 255 255
-0.946276 -0.459172 3.448 255 255 255
0.36595 0.313153 1.456 255 255 255
-0.173645 0.576747 2.392 255 255 255
0.872731 -0.116789 2.489 255 255 255
-0.173288 -0.638433 2.024 255 255 255
-1.0478 0.754705 2.294 255 255 255
-1.39101 0.372718 3.41 255 255 255
1.12044 -0.882057 2.338 255 255 255
-1.37559 -0.429515 3.527 255 255 255
0.0716587 0.234201 2.392 255 255 255
1.15352 0.018034 2.66 255 255 255
-1.49682 -1.10854 3.231 255 255 255
-0.392016 -0.0626285 2.158 255 255 255
0.197182 0.445342 1.47 255 255 255
0.271782 -0.357262 2.244 255 255 255
0.683046 0.418863 2.649 255 255 255
-0.281172 0.348195 2.347 255 255 255
0.211894 0.51929 1.456 255 255 255
0.459047 -0.183066 2.402 255 255 255
0.486168 0.0800734 2.44 255 255 255
1.08225 -0.0372759 2.593 255 255 255
-0.0302825 0.534696 2.449 255 255 255
-0.15647 -0.723708 1.978 255 255 255
-1.15683 -0.764456 3.266 255 255 255
-1.04875 0.492799 3.149 255 255 255
0.0930949 -0.288447 2.166 255 255 255
1.20083 -0.684446 2.392 255 255 255
0.137455 -0.386518 2.143 255 255 255
-1.75896 0.302332 3.631 255 255 255
-0.391014 -0.384939 2.078 255 255 255
0.18919 -0.238549 2.261 255 255 255
-1.61274 -0.522852 3.318 255 255 255
-0.731567 0.766953 2.286 255 255 255
0.555919 -0.391921 2.365 255 255 255
0.199982 0.415089 1.473 255 255 255
1.2002 -0.90679 2.383 255 255 255
0.432666 0.370675 1.217 255 255 255
-0.430713 -0.647256 1.923 255 255 255
-1.20922 0.631769 2.638 255 255 255
0.0563184 0.325083 2.402 255 255 255
-0.313214 -0.415374 2.078 255 255 255
0.376695 0.441584 1.149 255 255 255
-0.297405 0.0977887 2.212 255 255 255
-0.325189 0.0325325 2.181 255 255 255
-0.203192 0.80791 2.329 255 255 255
1.06696 -0.418881 2.479 255 255 255
-0.474005 0.7636 2.356 255 255 255
0.11803 0.353877 1.498 255 255 255
0.528118 0.0488821 2.469 255 255 255
-1.46127 -0.312576 3.568 255 255 255
-0.0553706 -0.219461 2.181 255 255 255
-0.230427 0.836386 2.158 255 255 255
-1.41695 0.533904 2.925 255 255 255
-1.00315 0.772874 2.228 255 255 255
0.29814 -0.431814 2.196 255 255 255
1.25229 -0.360052 2.519 255 255 255
-1.45233 0.136603 3.787 255 255 255
-0.466035 -0.138915 2.143 255 255 255
0.327283 0.354598 1.432 255 255 255
0.0565819 0.441784 1.624 255 255 255
0.148681 -0.752612 2.057 255 255 255
1.28533 0.0715305 2.719 255 255 255
-1.70284 0.32811 3.527 255 255 255
0.0237459 0.0117371 2.278 255 255 255
0.739263 0.259195 2.604 0 0 0
0.957841 -0.776877 2.286 255 255 255
0.88793 -0.416788 2.42 255 255 255
0.89924 -0.368614 2.44 255 255 255
0.962037 -0.261549 2.479 255 255 255
-1.56135 -1.14703 3.149 255 255 255
-1.7769 0.297475 3.718 255 255 255
-1.2378 -0.377859 3.527 255 255 255
0.280206 -0.234039 2.253 255 255 255
0.702036 0.289414 1.48 255 255 255
-0.683294 -0.360225 2.844 255 255 255
0.200231 -0.216473 2.261 255 255 255
-1.43468 -0.555984 3.198 255 255 255
-0.0667326 -0.561156 2.092 255 255 255
0.0903094 0.439381 1.524 255 255 255
-0.569641 0.515076 2.489 255 255 255
0.389644 0.184412 2.509 255 255 255
-0.436551 -0.474958 1.935 255 255 255
-0.129449 -0.21512 2.173 255 255 255
-0.506246 0.792521 2.212 255 255 255
-0.344702 -0.194253 2.064 255 255 255
-1.25513 -0.657766 3.373 255 255 255
0.107148 0.184365 2.402 255 255 255
-0.348757 0.0500941 2.173 255 255 255
0.381324 0.414082 1.205 255 255 255
-1.41202 -0.785716 3.266 255 255 255
-1.07999 0.774775 2.143 255 255 255
-1.27542 -0.446121 3.568 255 255 255
-1.15574 -0.934667 3.248 255 255 255
0.219309 -0.0261008 2.347 255 255 255
0.685047 -0.0481246 2.499 255 255 255
0.719192 -0.344491 2.383 255 255 255
-1.39493 -0.449267 3.547 255 255 255
0.281052 -0.77948 2.121 255 255 255
0.508219 0.301235 2.53 255 255 255
1.16567 -0.505475 2.449 255 255 255
0.260153 0.264385 1.502 0 0 0
-1.45455 -0.902642 3.266 255 255 255
0.331254 0.216444 2.411 0 0 0
-1.21095 -0.853916 3.283 255 255 255
1.22782 -0.533188 2.43 255 255 255
-0.949647 0.664758 2.519 255 255 255
-1.08653 0.0130286 3.696 255 255 255
-1.13711 0.360038 3.448 255 255 255
0.718718 -0.00347513 2.561 255 255 255
-0.220988 -0.0711367 2.204 255 255 255
0.529109 0.292629 1.509 255 255 255
-0.805685 -0.708325 3.181 255 255 255
-1.78818 -0.0888442 3.448 255 255 255
1.30059 0.416957 2.78 255 255 255
0.0854474 -0.394962 2.151 255 255 255
-0.457626 0.406963 2.312 255 255 255
1.00251 -0.424203 2.44 0 0 0
-0.202179 -0.739986 1.953 0 0 0
0.380048 0.379445 1.273 255 255 255
-1.59149 -1.08225 3.231 255 255 255
-0.343265 -0.548672 1.997 255 255 255
-0.196266 0.570699 2.383 255 255 255
-1.21144 0.650836 2.561 255 255 255
-0.315876 -0.683806 1.929 255 255 255
0.0626714 -0.649669 2.092 255 255 255
0.445214 -0.794432 2.181 255 255 255
0.550434 0.0329435 2.479 255 255 255
-0.549199 0.826213 2.114 255 255 255
0.694173 -0.797049 2.228 255 255 255
1.14243 -0.602702 2.392 255 255 255
0.489174 0.441411 2.604 255 255 255
-0.171722 -0.569457 2.085 255 255 255
0.351322 0.443586 1.297 255 255 255
0.16414 -0.38132 2.173 255 255 255
0.161289 0.210909 1.47 255 255 255
1.00222 -0.62902 2.449 255 255 255
-1.05747 0.594164 2.805 255 255 255
0.409747 0.0791217 2.411 255 255 255
0.440745 0.402945 1.09 255 255 255
0.38032 0.38178 1.267 255 255 255
-1.08932 0.500492 3.133 255 255 255
-0.88941 0.000937426 3.467 255 255 255
0.549415 -0.782542 2.158 255 255 255
-0.321057 -0.298019 2.085 255 255 255
-1.16236 0.559272 2.884 255 255 255
0.760226 -0.241552 2.44 255 255 255
0.876427 -0.518796 2.347 0 0 0
0.46488 0.410454 1.068 255 255 255
0.0912072 0.507455 1.498 255 255 255
-0.321001 -0.707012 1.941 255 255 255
-0.251504 0.839898 2.158 255 255 255
-0.434341 0.288621 2.269 255 255 255
0.060454 0.330225 2.411 255 255 255
0.105325 -0.0698181 2.278 255 255 255
0.0266586 0.554944 2.212 255 255 255
0.37835 -0.0268125 2.411 255 255 255
-0.944576 -0.0163573 3.547 255 255 255
1.28167 0.418071 2.818 255 255 255
-0.617943 0.632704 2.572 255 255 255
0.965731 -0.0887916 2.499 255 255 255
0.542185 0.304037 1.403 255 255 255
0.0524553 -0.636052 2.092 255 255 255
0.211539 0.33291 1.47 255 255 255
-0.257158 -0.571869 2.01 255 255 255
-0.0870025 -0.268163 2.173 255 255 255
1.10124 -0.525279 2.43 0 0 0
-1.17453 -0.565095 3.41 255 255 255
-1.60731 -0.0577545 3.609 255 255 255
-1.32995 -0.615854 3.354 255 255 255
-0.766998 0.761414 2.303 255 255 255
0.0455261 0.544379 1.607 255 255 255
0.160082 0.451506 1.459 255 255 255
-1.10611 -0.850551 3.354 255 255 255
0.662771 -0.656906 2.22 255 255 255
0.549394 -0.580018 2.244 255 255 255
-0.332033 0.458239 2.383 255 255 255
0.906991 -0.507338 2.347 255 255 255
-1.14661 0.743029 2.204 255 255 255
1.27752 -0.0123775 2.684 255 255 255
0.615447 -0.421506 2.402 255 255 255
0.860355 -0.420726 2.42 0 0 0
0.309273 -0.2181 2.278 255 255 255
-0.415788 -0.492224 1.941 255 255 255
-0.0636486 0.15783 2.356 255 255 255
-0.202947 -0.499877 2.092 255 255 255
-0.410221 -0.0238321 2.143 255 255 255
-0.540316 0.526593 2.43 255 255 255
0.232251 0.27978 1.48 255 255 255
-1.29023 -1.01971 3.336 255 255 255
-0.192123 0.0444275 2.244 255 255 255
0.974594 -0.428602 2.42 255 255 255
0.0565632 0.341158 1.551 255 255 255
1.02591 -0.470167 2.411 255 255 255
-0.375722 0.781912 2.365 255 255 255
1.03074 -0.355764 2.489 255 255 255
0.846498 0.14776 2.582 255 255 255
-1.58529 -0.415267 3.41 255 255 255
0.638443 -0.236607 2.43 255 255 255
0.362718 0.404812 1.249 255 255 255
-0.800824 -0.993612 3.102 255 255 255
-0.329667 0.226368 2.312 255 255 255
0.399732 0.294274 1.4 255 255 255
1.1949 -0.124869 2.572 255 255 255
0.718112 -0.23543 2.459 255 255 255
-0.742447 0.759483 2.32 255 255 255
0.924824 -0.870542 2.278 0 0 0
-0.289154 0.0221157 2.204 255 255 255
-1.33178 -0.512443 3.429 255 255 255
0.130801 0.171052 1.477 0 0 0
0.555204 0.383477 1.143 255 255 255
-0.81309 -0.361921 3.231 255 255 255
0.431227 0.399263 1.135 255 255 255
-0.11358 0.560526 2.44 255 255 255
0.993532 0.111349 2.615 255 255 255
-0.0527408 0.314756 2.383 255 255 255
-0.412628 -0.52381 1.941 255 255 255
-0.211131 0.646509 2.42 255 255 255
-0.348757 -0.0383105 2.173 255 255 255
-1.70032 -0.855383 3.248 255 255 255
-1.35999 -0.481389 3.487 255 255 255
1.0487 0.00494165 2.604 255 255 255
-0.348715 -0.605344 1.991 255 255 255
-0.222232 0.831103 2.181 255 255 255
0.51513 -0.475073 2.32 255 255 255
-1.12558 0.670285 2.509 255 255 255
0.671412 -0.488137 2.365 255 255 255
1.11318 0.382943 2.731 255 255 255
-1.81307 0.0580187 3.507 255 255 255
-1.16285 -1.10501 3.283 255 255 255
0.572378 0.32459 1.215 255 255 255
-1.08375 -0.237094 3.568 255 255 255
0.0676937 0.592489 1.575 255 255 255
0.166419 0.12228 2.411 255 255 255
0.133837 0.154958 1.484 0 0 0
1.03871 -0.23331 2.479 255 255 255
-0.343265 -0.587669 1.997 255 255 255
0.260476 0.108814 2.374 255 255 255
-0.851941 0.6907 2.509 255 255 255
-0.454346 -0.182359 2.121 255 255 255
0.952633 -0.123316 2.54 255 255 255
0.89346 0.0383648 2.572 255 255 255
1.29303 0.432542 2.793 255 255 255
-0.0183231 0.526725 2.449 255 255 255
0.378449 0.446718 1.143 255 255 255
-0.241928 -0.722517 1.966 255 255 255
-0.936662 0.760562 2.278 255 255 255
-1.26978 -0.438795 3.652 255 255 255
-1.66006 -0.930916 3.181 255 255 255
0.444483 0.372847 1.18 255 255 255
-0.135291 -0.494718 2.099 255 255 255
-0.179255 -0.646072 2.017 255 255 255
0.459031 0.370635 1.173 255 255 255
0.229376 0.38497 1.477 255 255 255
-1.19118 -0.565095 3.41 255 255 255
0.0243085 -0.767518 2.017 255 255 255
-1.59792 0.0491162 3.696 255 255 255
-1.38577 -0.260319 3.568 255 255 255
0.507863 -0.0856649 2.411 255 255 255
-0.0306308 -0.149021 2.189 255 255 255
0.433968 -0.738742 2.143 255 255 255
0.315963 0.508543 1.466 255 255 255
0.565309 -0.283078 2.356 255 255 255
-0.144655 -0.0849015 2.189 255 255 255
0.69446 0.0735806 2.489 255 255 255
0.159684 -0.6221 2.114 255 255 255
-1.12322 0.750178 2.236 255 255 255
-0.463986 0.0323088 2.166 255 255 255
0.986249 -0.322062 2.479 255 255 255
-1.19575 0.175734 3.834 255 255 255
0.0581679 0.623373 1.595 255 255 255
-0.980702 -0.541975 3.336 255 255 255
-1.43798 0.0373077 3.718 255 255 255
-1.08315 -0.276103 3.547 255 255 255
-0.00576853 0.770099 2.22 255 255 255
0.242068 -0.0187453 2.383 255 255 255
-0.506159 -0.410372 2.196 0 0 0
0.815781 0.273427 2.66 255 255 255
-1.41743 0.00701395 3.696 255 255 255
-0.0544228 0.480857 2.459 255 255 255
0.236169 -0.758771 2.121 255 255 255
-1.7724 0.205496 3.696 255 255 255
0.379175 0.428534 1.18 255 255 255
-0.225679 -0.520119 2.051 0 0 0
0.288616 -0.0575245 2.383 255 255 255
-1.11334 0.745923 2.181 255 255 255
0.525239 -0.825844 2.189 255 255 255
0.668606 0.245442 2.593 255 255 255
0.906153 0.345778 2.684 255 255 255
-1.39158 -0.335801 3.568 255 255 255
-0.106383 -0.322688 2.136 0 0 0
0.0373501 0.473171 2.44 255 255 255
-1.06595 0.544308 2.982 255 255 255
1.1018 -0.543324 2.44 255 255 255
1.12345 -0.221208 2.479 255 255 255
0.895159 -0.751916 2.278 255 255 255
-1.01924 -0.874388 3.448 255 255 255
1.01853 -0.188935 2.479 255 255 255
0.178061 -0.608905 2.128 255 255 255
0.415162 -0.508939 2.269 255 255 255
0.13759 -0.741587 2.092 255 255 255
-0.471609 -0.320422 2.121 255 255 255
-0.105797 -0.0994674 2.196 255 255 255
-0.325806 -0.445421 2.03 255 255 255
0.320414 0.533469 1.412 255 255 255
-0.154176 0.541714 2.392 255 255 255
-0.136516 0.23451 2.356 255 255 255
-1.04472 0.776277 2.128 255 255 255
-0.156905 -0.415689 2.114 255 255 255
-1.29372 0.608647 2.707 255 255 255
-0.387666 -0.105498 2.173 255 255 255
0.726419 -0.267139 2.42 255 255 255
0.257732 -0.692016 2.128 255 255 255
0.886229 -0.23543 2.459 255 255 255
0.866345 -0.663844 2.32 255 255 255
-0.803056 0.828949 2.121 255 255 255
-1.38134 0.20952 3.882 255 255 255
0.0405091 0.315945 2.392 255 255 255
0.0830889 -0.375626 2.181 255 255 255
-0.0604989 0.23332 2.383 255 255 255
0.188193 0.270504 1.456 255 255 255
0.0454919 -0.711962 2.085 255 255 255
-0.961785 -0.0106479 3.568 255 255 255
0.426065 0.368777 1.244 255 255 255
-1.15106 0.187034 3.81 255 255 255
1.11762 0.382943 2.731 255 255 255
0.728292 -0.622169 2.278 255 255 255
-0.302043 -0.694377 1.941 255 255 255
-1.00805 -0.800479 3.373 255 255 255
-0.116892 0.191602 2.347 255 255 255
-0.928291 0.81421 2.092 255 255 255
1.23415 0.185308 2.638 255 255 255
-1.14088 -1.2109 3.266 255 255 255
-1.11686 0.713159 2.329 255 255 255
-0.888865 0.267644 3.487 255 255 255
-0.476323 0.00409527 2.158 255 255 255
-0.413815 0.230453 2.278 255 255 255
1.09333 -0.647866 2.43 255 255 255
-0.85093 -0.501389 3.215 255 255 255
-0.252297 -0.670167 1.972 255 255 255
0.231347 -0.519232 2.173 255 255 255
0.151717 0.220477 1.47 255 255 255
-0.0844412 0.309448 2.402 255 255 255
0.395596 -0.738742 2.143 255 255 255
0.701114 0.276146 2.604 255 255 255
0.0171468 0.32373 2.392 255 255 255
-1.0959 -0.789501 3.373 255 255 255
0.968847 0.0298656 2.561 255 255 255
1.29545 0.0718462 2.731 255 255 255
-1.13613 -1.01953 3.283 255 255 255
-0.422105 0.791395 2.303 255 255 255
-0.882546 -0.238748 3.507 255 255 255
-0.327011 -0.613668 1.997 255 255 255
-0.859664 -0.939952 3.248 255 255 255
0.183654 0.524936 1.439 255 255 255
-1.52092 -0.663238 3.318 255 255 255
-1.43896 -1.12957 3.231 255 255 255
-1.32345 -0.273456 3.588 255 255 255
-0.0769083 0.326302 2.411 255 255 255
-1.16072 0.490295 3.133 255 255 255
0.0388339 -0.653074 2.092 255 255 255
-0.0572999 -0.44813 2.121 255 255 255
0.77764 -0.0524002 2.509 0 0 0
-0.441323 -0.343276 2.092 255 255 255
1.15115 0.487536 2.695 0 0 0
-0.0126799 -0.380092 2.166 255 255 255
0.317801 -0.296988 2.286 255 255 255
0.236614 -0.469622 2.189 255 255 255
0.287456 -0.60971 2.143 255 255 255
0.455212 0.372544 1.173 255 255 255
0.920426 -0.589586 2.402 255 255 255
0.537895 0.303376 1.466 255 255 255
-0.0737894 -0.515213 2.099 255 255 255
0.155758 0.276566 1.463 255 255 255
-0.14733 -0.713348 1.985 255 255 255
0.470932 -0.208764 2.383 255 255 255
-0.339776 0.755932 2.356 255 255 255
1.15404 -0.560297 2.329 255 255 255
-0.233433 0.036727 2.22 255 255 255
-1.11584 -1.052 3.318 255 255 255
-1.27484 0.352762 3.487 255 255 255
-0.116149 -0.102713 2.189 255 255 255
1.01454 -0.12084 2.489 255 255 255
-0.550483 0.608174 2.44 255 255 255
0.00546567 0.319838 2.392 255 255 255
-0.800632 -0.0150615 3.266 255 255 255
0.19111 -0.529695 2.158 255 255 255
-1.02604 0.125791 3.652 255 255 255
1.21636 -0.125355 2.582 255 255 255
-1.4237 -0.987207 3.318 255 255 255
-0.0939755 -0.581582 2.092 255 255 255
0.192438 -0.55813 2.173 255 255 255
0.123248 0.188979 2.411 255 255 255
0.558372 -0.334114 2.392 255 255 255
-0.799623 0.447213 3.117 255 255 255
-0.173796 0.725992 2.449 255 255 255
-1.72645 -0.197551 3.588 255 255 255
-0.996336 0.318119 3.609 255 255 255
0.868786 -0.652473 2.347 255 255 255
-0.619859 0.792062 2.181 255 255 255
-0.380503 0.787419 2.347 255 255 255
0.371391 0.403191 1.244 255 255 255
-0.0298892 -0.420015 2.136 255 255 255
-0.178281 0.414987 2.402 255 255 255
-0.157329 0.163079 2.269 255 255 255
0.555992 0.361111 1.137 255 255 255
-0.358141 -0.335323 2.064 255 255 255
0.00512749 -0.043214 2.244 255 255 255
0.59731 -0.400288 2.392 255 255 255
1.13888 -0.556507 2.329 255 255 255
0.297986 0.0391258 2.365 255 255 255
0.445096 -0.348055 2.329 255 255 255
0.106065 -0.126305 2.294 255 255 255
-0.245743 -0.652665 1.997 255 255 255
-0.51845 0.672971 2.402 255 255 255
-1.16547 -1.21896 3.231 255 255 255
-0.668122 0.718021 2.449 255 255 255
-0.937973 -0.15084 3.588 255 255 255
-1.03166 0.668857 2.519 255 255 255
-0.819608 0.710051 2.449 255 255 255
0.3559 0.0278948 2.392 255 255 255
0.288616 0.0626911 2.383 255 255 255
-0.168817 -0.647101 2.01 255 255 255
-1.5137 0.00701395 3.696 255 255 255
0.136706 0.459886 1.463 255 255 255
-1.39582 -0.233945 3.609 255 255 255
-1.75305 0.0187083 3.631 255 255 255
0.58235 0.111847 2.53 255 255 255
-1.06683 -0.222199 3.609 255 255 255
0.337536 -0.418469 2.22 255 255 255
-0.97547 0.687588 2.44 255 255 255
-0.0847097 0.0268569 2.303 255 255 255
-0.166558 0.355833 2.347 255 255 255
0.140121 -0.775768 2.03 255 255 255
0.332841 -0.782932 2.121 255 255 255
-1.42599 0.397202 3.336 255 255 255
-1.4817 -0.977738 3.165 255 255 255
-0.986498 -1.08364 3.283 255 255 255
0.172339 -0.466728 2.143 255 255 255
-0.805685 -0.532323 3.181 255 255 255
0.225924 -0.494557 2.189 255 255 255
1.17729 -0.0909945 2.561 255 255 255
-0.814269 0.556055 2.967 255 255 255
0.558087 0.373598 1.13 255 255 255
0.0683033 0.408695 2.411 255 255 255
0.498342 0.385787 1.128 255 255 255
0.182327 0.365403 1.466 255 255 255
-0.424716 -0.759055 1.953 255 255 255
-1.69874 -1.07166 3.215 255 255 255
0.399084 -0.735255 2.143 255 255 255
1.05902 0.18054 2.695 255 255 255
-1.60985 0.376919 3.301 255 255 255
0.887889 -0.511157 2.347 0 0 0
0.458141 0.333818 1.357 255 255 255
-0.0610569 -0.708436 2.017 255 255 255
1.17843 -0.38749 2.459 255 255 255
-0.185326 0.588425 2.392 255 255 255
-0.0498636 -0.0470537 2.253 255 255 255
1.02669 -0.270705 2.489 255 255 255
-0.82321 -1.1829 3.149 255 255 255
-1.45267 -0.356913 3.547 255 255 255
-1.75477 -0.394295 3.373 255 255 255
0.614967 -0.522346 2.312 0 0 0
0.476927 0.313262 2.561 255 255 255
-1.03455 0.442016 3.266 255 255 255
-0.916951 0.753918 2.303 255 255 255
-0.0492513 0.289904 2.402 255 255 255
-0.363407 0.502859 2.411 255 255 255
0.824902 -0.420726 2.42 0 0 0
-1.33513 -0.127485 3.588 255 255 255
-0.0559545 -0.0998298 2.204 255 255 255
-0.185326 0.518359 2.392 255 255 255
0.155332 0.465752 1.459 255 255 255
-0.600548 0.776019 2.269 255 255 255
-0.0287987 0.0612705 2.329 255 255 255
0.550505 0.309956 1.26 255 255 255
-1.11741 0.670285 2.509 255 255 255
0.839537 -0.681482 2.278 255 255 255
0.689386 -0.821743 2.236 255 255 255
0.505616 -0.750195 2.166 0 0 0
0.507398 -0.592505 2.236 255 255 255
0.194127 0.0232797 2.32 255 255 255
0.375123 0.372398 1.299 255 255 255
1.35918 0.00966919 2.743 255 255 255
-1.73715 0.239839 3.763 255 255 255
-0.145478 -0.70387 2.004 255 255 255
-0.110631 -0.525348 2.085 255 255 255
0.345101 0.342142 1.419 255 255 255
0.532821 -0.307251 2.365 255 255 255
-0.0411696 -0.262051 2.181 255 255 255
-0.192226 0.692679 2.43 255 255 255
0.725802 -0.287403 2.392 255 255 255
1.31785 -0.0299709 2.695 255 255 255
-0.0601223 -0.569865 2.099 255 255 255
1.15022 -0.680553 2.392 255 255 255
-0.284676 -0.356893 2.092 255 255 255
-1.14494 0.304081 3.652 255 255 255
-0.117278 -0.645021 2.024 255 255 255
-0.937709 0.670285 2.509 255 255 255
-0.200973 -0.397169 2.107 255 255 255
-0.323213 -0.183884 2.099 255 255 255
0.510706 0.349431 1.316 255 255 255
0.534535 0.11861 2.499 255 255 255
-1.79137 -0.0614766 3.487 255 255 255
0.313297 0.527043 1.432 255 255 255
0.932409 -0.0528388 2.53 255 255 255
0.781318 -0.13594 2.469 255 255 255
-0.115228 -0.489746 2.107 0 0 0
0.0836827 0.418661 1.539 255 255 255
1.10538 -0.139299 2.53 255 255 255
-1.27792 0.623183 2.638 255 255 255
1.19953 -0.81451 2.374 255 255 255
-0.460782 0.167985 2.236 255 255 255
0.182327 0.35586 1.466 255 255 255
-0.405215 -0.228289 2.099 255 255 255
0.167606 0.521337 1.442 255 255 255
-1.51351 -0.129759 3.652 255 255 255
-1.17888 -0.698982 3.283 255 255 255
-0.23077 -0.576236 2.037 255 255 255
0.389021 0.246753 2.479 255 255 255
0.267956 0.50751 1.491 255 255 255
-1.53174 0.0791892 3.696 255 255 255
-0.207268 0.838663 2.173 255 255 255
-0.0827065 -0.752111 1.985 255 255 255
0.535335 -0.140594 2.411 255 255 255
0.330035 0.0354114 2.374 255 255 255
0.536499 0.289052 1.516 255 255 255
0.0326966 -0.486059 2.136 255 255 255
0.369358 0.437021 1.198 255 255 255
1.09037 -0.728859 2.347 255 255 255
0.651431 0.289138 1.491 255 255 255
-1.08619 -0.741228 3.429 255 255 255
-0.283896 -0.543784 1.991 255 255 255
0.035547 -0.624517 2.099 255 255 255
0.0243929 -0.753713 2.024 255 255 255
-1.31243 -0.395078 3.527 255 255 255
-1.60641 -0.688297 3.283 255 255 255
-1.10317 0.752221 2.189 255 255 255
0.472685 -0.572714 2.244 255 255 255
-0.75281 0.786789 2.196 255 255 255
-1.23233 -0.987479 3.283 255 255 255
-0.840028 0.813955 2.136 255 255 255
-1.44617 0.0934644 3.787 255 255 255
-1.77673 0.324762 3.373 255 255 255
-1.57112 0.0131061 3.718 255 255 255
-0.410293 -0.440103 1.991 255 255 255
-1.29593 0.48306 3.055 255 255 255
-0.049872 -0.580112 2.099 0 0 0
-0.869021 0.74443 2.356 255 255 255
1.10994 0.0524458 2.649 255 255 255
-1.54097 -1.09656 3.181 255 255 255
-0.242514 -0.107003 2.204 255 255 255
-0.469614 0.30968 2.261 255 255 255
-1.64209 -0.520173 3.301 255 255 255
-0.43464 -0.0831173 2.143 255 255 255
0.826727 0.248565 2.626 255 255 255
-0.44017 0.269207 2.261 255 255 255
1.02669 -0.165394 2.489 255 255 255
0.865976 -0.435321 2.392 255 255 255
-1.49715 -1.10243 3.198 255 255 255
-0.786647 0.48294 3.086 255 255 255
-0.655901 0.6907 2.509 255 255 255
-0.347708 0.54994 2.411 255 255 255
0.80466 -0.100183 2.479 255 255 255
0.356407 0.211885 2.449 255 255 255
-1.79045 0.211511 3.696 255 255 255
0.0285025 0.166131 2.365 255 255 255
-0.889813 -0.944546 3.301 255 255 255
0.771183 -0.841152 2.22 255 255 255
-1.35324 -0.192608 3.718 255 255 255
-1.72183 -0.328427 3.373 255 255 255
-1.63974 -0.630842 3.318 255 255 255
-0.345973 -0.26838 2.092 255 255 255
0.348061 0.345134 1.403 255 255 255
0.539313 0.32092 1.239 255 255 255
0.673589 -0.737042 2.244 255 255 255
0.550441 0.300462 1.487 255 255 255
0.475159 0.399137 1.104 255 255 255
0.0128601 0.63984 1.794 255 255 255
1.42187 0.38419 2.805 255 255 255
-1.38577 -0.120968 3.568 255 255 255
0.11803 0.317311 1.498 255 255 255
1.06814 0.335526 2.707 255 255 255
-1.74243 -0.0225163 3.609 255 255 255
0.126575 -0.461727 2.136 255 255 255
1.04274 -0.23331 2.479 255 255 255
0.152957 0.385027 1.459 255 255 255
-0.335882 0.7839 2.303 255 255 255
0.616591 -0.592505 2.236 255 255 255
0.00824423 -0.59261 2.107 255 255 255
-1.19811 0.264334 3.763 255 255 255
-0.319197 -0.458634 2.03 255 255 255
-0.414502 -0.531638 1.935 255 255 255
0.0943843 -0.356768 2.196 255 255 255
-0.38942 0.735512 2.402 255 255 255
1.08173 0.372411 2.719 255 255 255
0.822262 -0.589797 2.356 255 255 255
-0.424175 -0.0308069 2.143 255 255 255
-1.82625 0.051715 3.467 255 255 255
1.01534 0.359136 2.719 255 255 255
-0.786334 0.773712 2.22 255 255 255
-0.454082 -0.0515621 2.136 255 255 255
0.60353 -0.719406 2.269 255 255 255
-0.186284 -0.736808 1.953 0 0 0
0.00463851 -0.72952 2.03 255 255 255
-1.68078 -1.10174 3.181 255 255 255
-0.40506 0.74333 2.402 255 255 255
0.468621 -0.786054 2.158 255 255 255
-1.48732 -0.443495 3.547 255 255 255
-0.0217326 -0.69772 2.024 0 0 0
0.84527 -0.806425 2.244 255 255 255
-0.0343034 -0.203102 2.196 255 255 255
1.20268 -0.572807 2.365 255 255 255
0.724926 -0.519227 2.402 255 255 255
0.0308202 -0.13138 2.253 255 255 255
-1.26677 -1.15137 3.248 255 255 255
-1.28598 0.478089 3.055 255 255 255
0.501065 0.382793 1.13 255 255 255
1.11451 -0.698611 2.374 255 255 255
-0.196137 -0.363702 2.092 255 255 255
-0.40475 -0.0589249 2.151 255 255 255
0.0297559 0.402455 2.469 255 255 255
0.0409832 0.339334 2.42 255 255 255
0.0972386 0.429673 1.516 255 255 255
-0.340275 -0.205715 2.078 255 255 255
0.24316 0.008305 2.356 255 255 255
0.103882 -0.679169 2.099 0 0 0
0.345785 0.434577 1.308 255 255 255
-0.525681 0.43222 2.347 255 255 255
-1.05614 -0.016943 3.674 255 255 255
-1.59911 0.238437 3.741 255 255 255
-0.365757 -0.559546 1.978 255 255 255
0.359579 0.316173 1.459 255 255 255
-0.761698 -0.373234 3.149 255 255 255
0.567243 -0.224744 2.43 255 255 255
-1.07177 0.452646 3.266 255 255 255
-0.370565 -0.446238 2.004 255 255 255
0.8764 0.290742 2.66 255 255 255
-1.34524 -0.173424 3.696 255 255 255
-0.255116 0.00782559 2.22 255 255 255
1.28509 -0.42564 2.519 255 255 255
0.586883 -0.516603 2.32 0 0 0
0.227407 0.168027 2.392 255 255 255
0.911566 -0.432541 2.42 255 255 255
-0.424453 -0.703584 1.923 0 0 0
0.413101 -0.503544 2.278 255 255 255
1.16642 -0.515542 2.459 255 255 255
-1.23093 0.0250578 3.696 255 255 255
0.0686516 0.288429 1.539 0 0 0
-0.46799 -0.166269 2.136 0 0 0
0.445677 -0.714948 2.166 255 255 255
-0.362421 0.300044 2.329 255 255 255
-0.348862 0.670169 2.392 255 255 255
0.884628 -0.427008 2.411 255 255 255
0.225209 0.0271601 2.329 255 255 255
0.315722 -0.812384 2.099 255 255 255
0.0606118 0.59074 1.591 255 255 255
0.258752 0.544709 1.48 255 255 255
1.40549 0.0724776 2.755 255 255 255
-0.336798 -0.628046 1.941 255 255 255
0.629293 -0.777703 2.204 255 255 255
-0.36822 -0.291658 2.064 255 255 255
-0.80005 0.561987 2.898 255 255 255
0.632281 -0.703334 2.253 255 255 255
0.547148 0.309218 1.257 255 255 255
-1.53059 -1.17265 3.149 255 255 255
0.892509 -0.170125 2.499 255 255 255
-1.3335 -0.277738 3.568 255 255 255
-1.15608 -0.442181 3.631 255 255 255
0.0521902 0.245879 2.392 255 255 255
0.923851 -0.865457 2.294 255 255 255
0.828871 -0.370471 2.479 255 255 255
-0.2192 0.795813 2.338 255 255 255
1.11839 -0.4115 2.459 255 255 255
0.82446 -0.036514 2.54 255 255 255
-0.40889 0.085456 2.173 255 255 255
0.562967 0.408431 1.1 0 0 0
-0.208537 -0.695492 1.953 255 255 255
-0.355197 -0.605344 1.991 255 255 255
0.0498735 0.49892 1.579 255 255 255
-0.302928 0.77679 2.338 255 255 255
-1.81321 0.267223 3.718 255 255 255
0.557842 0.35741 1.137 255 255 255
-1.71224 0.121291 3.696 255 255 255
-0.445597 -0.547608 1.947 255 255 255
-0.690544 0.539105 2.78 255 255 255
-0.387755 -0.563735 1.959 255 255 255
-0.184624 -0.67452 2.004 255 255 255
0.545518 0.374723 1.162 255 255 255
1.05826 0.143566 2.66 255 255 255
-1.51767 0.460603 3.071 255 255 255
-0.727864 0.625314 2.684 255 255 255
1.45553 0.292341 2.844 255 255 255
-0.661911 -0.290669 2.755 255 255 255
0.556995 0.454123 2.604 255 255 255
-1.12457 -0.542899 3.41 255 255 255
-1.19944 0.637441 2.626 255 255 255
-1.45406 -0.207018 3.652 255 255 255
-0.0642051 -0.399808 2.121 255 255 255
-1.59838 -0.226037 3.487 255 255 255
1.11769 -0.539353 2.44 255 255 255
-0.43249 -0.682672 1.917 255 255 255
-0.870943 -0.998127 3.231 255 255 255
1.00251 -0.716318 2.356 255 255 255
-0.9328 -0.56852 3.301 255 255 255
-0.12247 0.724955 2.459 255 255 255
0.0518633 0.444008 1.642 255 255 255
-1.19072 -0.724302 3.301 255 255 255
0.171131 0.513138 1.452 255 255 255
0.261557 -0.54799 2.189 255 255 255
-0.859711 -0.278697 3.507 255 255 255
-0.257874 0.0992033 2.244 255 255 255
0.551248 -0.457966 2.329 255 255 255
0.908684 0.418496 2.731 255 255 255
-0.840384 -0.317672 3.318 255 255 255
-1.4238 -0.45504 3.547 255 255 255
0.879299 -0.611293 2.365 255 255 255
0.280267 -0.431814 2.196 255 255 255
0.12699 -0.383031 2.143 255 255 255
0.905745 -0.750837 2.286 255 255 255
-0.347708 0.53817 2.411 255 255 255
-0.11825 -0.73596 1.985 255 255 255
0.28274 -0.371869 2.244 255 255 255
1.10877 -0.179686 2.519 255 255 255
0.61432 -0.790222 2.189 255 255 255
-0.298466 -0.637058 1.959 255 255 255
0.755115 -0.360309 2.411 255 255 255
-0.144163 0.638632 2.42 255 255 255
-1.82448 0.0694327 3.507 255 255 255
0.875777 -0.335468 2.43 255 255 255
-0.292313 0.70347 2.44 255 255 255
-0.251559 0.653134 2.43 255 255 255
-0.252571 0.516617 2.402 255 255 255
0.523138 0.384632 1.13 255 255 255
1.38151 -0.0037221 2.743 255 255 255
-0.0482701 -0.265601 2.181 255 255 255
-1.49309 -0.37423 3.547 255 255 255
0.927337 -0.710465 2.312 255 255 255
1.10289 0.461222 2.695 255 255 255
-0.349862 -0.157446 2.158 255 255 255
-0.0345664 -0.749527 2.004 255 255 255
-0.486966 -0.00988266 2.143 255 255 255
-0.114929 -0.214427 2.166 255 255 255
-1.03455 -1.19496 3.266 255 255 255
0.51678 0.400721 2.615 255 255 255
-0.0257914 0.285995 2.402 255 255 255
-0.206637 -0.0998298 2.204 255 255 255
-0.62721 0.629431 2.593 255 255 255
1.09058 0.354712 2.719 255 255 255
-0.437905 -0.441685 1.941 255 255 255
-1.85107 0.116402 3.547 255 255 255
0.108565 0.286383 1.502 255 255 255
-1.16663 0.522832 3.055 255 255 255
0.345758 0.445801 1.316 255 255 255
0.239479 0.38816 1.48 255 255 255
0.614457 -0.360003 2.383 255 255 255
0.98607 -0.166059 2.499 255 255 255
0.120277 -0.233379 2.212 255 255 255
-1.61778 -1.06122 3.231 255 255 255
0.205769 0.507502 1.463 255 255 255
0.725784 -0.792634 2.236 255 255 255
0.659366 0.285943 1.487 255 255 255
-1.69986 -0.328427 3.373 255 255 255
0.471459 -0.350745 2.347 255 255 255
-0.318377 0.309141 2.312 255 255 255
1.21571 -0.848621 2.383 255 255 255
-0.334633 -0.386236 2.085 255 255 255
0.0721559 -0.740884 2.071 255 255 255
0.986298 -0.351476 2.459 255 255 255
-1.36771 -0.205975 3.741 255 255 255
0.494323 -0.291857 2.365 255 255 255
-0.305108 -0.384128 2.092 255 255 255
-1.23598 0.482719 3.117 255 255 255
-1.41226 0.341515 3.547 255 255 255
-0.679355 0.643282 2.615 255 255 255
0.719918 -0.0558078 2.479 255 255 255
-0.323536 0.181542 2.269 255 255 255
-1.1462 -1.23216 3.266 255 255 255
-1.09365 0.745577 2.312 255 255 255
-0.407269 -0.353489 2.092 255 255 255
0.132792 -0.364978 2.181 255 255 255
0.470224 0.435326 2.593 255 255 255
-1.14148 -0.75775 3.283 255 255 255
0.141881 -0.272975 2.212 255 255 255
-0.349862 -0.0275107 2.158 255 255 255
0.921684 -0.23331 2.479 255 255 255
-0.464704 -0.323874 2.121 0 0 0
0.165283 0.376559 1.463 255 255 255
-0.374369 0.809838 2.22 255 255 255
0.269132 -0.680713 2.136 255 255 255
1.14768 -0.904549 2.347 255 255 255
-0.0305189 -0.26915 2.181 255 255 255
-1.64916 -0.544049 3.283 255 255 255
