ply
format ascii 1.0
comment Created by Open3D
element vertex 1345
property double x
property double y
property double z
property uchar red
property uchar green
property uchar blue
end_header
-0.0458007 -0.454935 1.599 172 167 163
-0.0552423 0.110437 0.355 86 49 44
0.739102 -0.318283 2.649 77 70 64
0.378258 0.365369 1.853 93 89 80
0.430451 0.215041 2.092 58 57 66
-0.285984 0.0634504 0.659 155 156 169
-0.301484 0.0953569 0.585 185 202 205
0.0448062 -0.661876 1.911 174 171 166
0.692498 -0.505749 2.572 83 79 72
0.146304 0.519922 1.513 84 86 77
0.42269 0.456398 1.629 88 89 78
-0.393888 -0.171711 1.149 166 167 158
-0.387743 -0.0262048 0.855 195 201 201
-0.383113 -0.86919 2.294 53 27 12
-0.2052 0.182949 0.582 158 161 162
-0.0532488 0.14255 0.634 188 191 194
0.320797 0.394866 1.769 92 88 81
0.55703 -0.727901 2.42 98 94 87
0.474811 0.00840018 2.383 8 9 3
0.235424 0.518972 1.532 98 94 83
-0.12071 0.00295046 0.837 192 186 192
0.596804 0.216425 2.01 109 109 109
-0.0782138 -0.14471 1.128 189 188 190
0.632974 -0.269739 2.638 13 13 7
0.505965 -0.699615 2.459 100 93 85
-0.0936504 -0.205446 1.16 118 147 146
-0.0749974 0.102522 0.662 195 191 194
0.291674 0.55567 1.452 86 88 79
-0.0881809 0.126613 0.355 48 34 19
0.739588 0.233443 1.859 9 8 8
-0.615799 -0.352921 1.419 156 163 155
-0.143115 -0.778685 2.064 170 158 142
-0.216867 0.092972 0.648 196 196 196
-0.180826 0.0918445 0.655 197 196 196
0.470031 0.355661 1.789 120 124 119
0.0728028 -0.534373 1.911 113 105 104
-0.0741923 0.123337 0.349 53 24 10
0.0027546 0.145687 0.704 172 172 174
0.253705 0.0471794 2.383 11 14 15
-0.14695 0.0805625 0.686 196 192 193
0.709592 -0.211174 2.604 88 89 78
-0.284415 -0.167387 1.145 181 174 168
0.774597 0.223354 1.691 95 96 90
-0.101327 0.132389 0.625 200 199 201
0.869869 -0.112238 2.392 13 10 7
-0.334139 -0.127489 1.106 195 195 195
-0.252171 -0.107064 1.064 203 199 200
-0.487375 -0.0361093 0.931 195 205 208
-0.0445177 0.0138801 0.839 187 181 183
0.00764166 -0.720917 1.953 166 166 160
0.237874 0.140925 2.269 84 75 66
-0.318377 -0.823337 2.312 58 33 26
-0.595022 -0.225742 1.208 154 161 155
-0.190324 -0.225823 1.198 173 173 169
0.0469992 -0.401812 1.659 143 139 140
0.445832 0.344243 1.821 45 52 60
-0.299861 0.0737015 0.619 194 206 210
-0.746346 -0.512131 1.567 177 192 191
-0.201896 0.204221 0.57 148 151 152
-0.18419 -0.546564 1.837 144 139 135
0.876554 -0.813079 2.092 11 13 4
-0.314631 -0.288059 1.275 83 140 136
0.540471 0.365621 1.753 123 126 125
0.68626 0.557337 1.432 96 105 98
-0.0507506 -0.0314625 0.928 198 194 197
-0.293281 0.00561359 0.828 192 192 192
-0.271961 0.186925 0.571 113 117 110
0.848737 -0.0950738 2.099 19 19 15
-0.17462 -0.0727405 0.997 199 195 198
0.066195 0.131118 1.182 107 104 99
0.801241 -0.544518 2.519 80 81 72
-0.361878 -0.0188198 0.687 202 202 202
0.697381 0.161379 2.017 121 128 120
0.835363 0.387676 1.664 32 22 20
0.835043 -0.39371 2.286 32 23 18
0.115824 0.548205 1.47 89 87 79
-0.518717 -0.406751 1.535 159 159 159
-0.221836 0.0793881 0.676 198 195 192
0.609311 -0.0212277 2.236 10 11 7
0.781444 0.107987 1.887 23 9 5
-0.0481972 0.133942 0.35 54 55 44
-0.234622 -0.724033 2.071 169 165 156
0.607108 0.48361 1.571 93 95 84
0.361382 -0.482923 2.54 82 73 68
-0.26167 0.181377 0.577 142 150 149
-0.256558 0.110566 0.634 155 155 155
-0.245701 -0.370609 1.416 9 124 112
0.289316 0.29167 1.966 83 78 76
0.75119 -0.725194 2.411 95 91 80
-0.2872 -0.321137 1.372 12 124 108
-0.233608 0.0350642 0.765 60 59 61
0.577992 0.339016 1.763 33 28 36
0.416544 0.296635 1.876 20 26 24
-0.00910949 0.171797 0.651 175 175 177
-0.275233 0.0876621 0.618 167 173 175
0.424983 0.542301 1.48 87 92 78
-0.185212 -0.17997 1.154 182 179 174
0.167622 0.442556 1.677 90 83 73
-0.0671604 0.00575597 0.849 205 196 199
-0.0300143 0.171505 0.623 175 175 179
-0.115965 0.137378 0.611 196 196 198
-0.0784762 0.0987753 0.372 112 92 93
0.862212 -0.143393 2.459 21 14 6
-0.00873168 0.212398 0.624 110 121 119
-0.0499608 -0.202505 1.154 147 145 135
0.564145 0.462926 1.624 85 89 84
-0.349244 -0.191569 1.156 179 179 173
0.107611 0.564309 1.456 81 81 75
-0.237175 -0.362322 1.393 5 124 115
0.474253 -0.765682 2.44 107 98 91
-0.0165105 0.0936787 0.746 176 172 175
-0.0454781 0.128613 0.351 27 18 11
-0.236375 0.116488 0.627 118 111 92
0.387409 -0.0642942 2.347 76 40 42
-0.178549 0.026352 0.803 193 192 192
-0.0731111 0.115232 0.352 57 26 15
0.265349 0.518972 1.532 99 95 84
0.401959 0.316141 1.865 10 10 12
0.791851 0.0119123 2.312 24 14 12
0.0986021 0.555118 1.463 77 77 73
-0.153776 0.00978416 0.839 199 193 195
-0.258549 -0.559634 1.923 163 156 150
-0.272663 0.0944686 0.61 157 167 172
0.622607 0.469054 1.591 92 99 93
-0.23536 0.153403 0.596 184 190 188
0.803126 -0.788937 2.402 92 90 82
-0.154876 0.0649062 0.723 197 196 196
-0.522053 -0.416894 1.583 149 146 141
0.274531 -0.723 2.43 107 98 93
0.397024 -0.546896 2.53 82 76 63
-0.0917223 0.110915 0.636 200 179 117
-0.193066 -0.312517 1.354 2 55 55
-0.417517 -0.104672 1.075 198 197 197
0.834818 -0.362706 2.509 44 44 38
-0.192596 0.16362 0.584 143 150 144
0.784116 -0.583532 1.567 43 19 3
-0.735929 -0.548273 1.583 137 147 133
0.739111 -0.621049 2.449 88 84 75
-0.432343 -0.177319 1.137 183 183 183
0.447961 0.424974 1.705 91 89 77
-0.570472 -0.147749 1.083 190 201 201
0.851327 -0.356758 1.978 25 39 30
-0.251463 0.118906 0.629 164 161 156
0.193168 0.086644 2.402 75 68 62
-0.245625 0.216604 0.566 141 161 158
-0.100525 0.0968901 0.646 189 188 190
-0.356692 -0.0651211 0.98 202 203 199
-0.317475 0.0670215 0.632 192 204 208
-0.209072 0.192645 0.577 153 164 162
0.469154 0.00450517 2.374 6 7 1
-0.183081 0.139213 0.606 195 195 195
0.817322 -0.50024 1.81 52 43 34
0.0132735 -0.353204 1.509 148 143 141
0.502123 0.447768 1.646 87 89 78
-0.527371 -0.142724 1.085 136 147 143
0.245399 0.518972 1.532 95 96 85
-0.0184654 0.201677 0.61 165 165 169
-0.705007 -0.519936 1.583 124 130 128
-0.371484 -0.651772 2.121 163 161 153
0.835445 -0.320212 2.561 58 54 43
-0.607809 -0.415116 1.502 132 147 131
-0.0779108 0.0137478 0.831 190 183 192
-0.308758 -0.00111134 0.819 157 157 159
0.536744 -0.338439 2.672 45 39 41
0.795016 -0.218559 1.748 36 11 2
0.169773 -0.421541 2.519 75 72 69
0.412041 0.234679 2.085 65 60 68
0.740664 0.262895 1.734 88 62 60
0.29552 -0.722004 2.44 104 97 91
0.799774 -0.0169366 1.784 27 12 2
0.82006 -0.165394 2.489 18 9 12
-0.760367 -0.566578 1.591 137 145 142
-0.117837 -0.121761 1.087 191 190 192
0.222576 -0.328262 2.66 58 58 54
-0.280156 0.0729363 0.648 158 156 167
-0.657451 -0.590399 1.729 156 160 155
-0.520361 -0.230347 1.222 183 189 189
-0.516478 -0.105437 1.015 122 135 130
0.626078 0.379884 1.753 61 57 62
0.0129554 0.115983 0.765 170 166 171
0.592679 0.202086 2.064 15 16 12
-0.0128158 0.0981384 0.743 172 168 173
-0.831157 -0.639566 1.71 182 191 184
0.88456 -0.493011 2.136 15 25 9
-0.328516 -0.032662 0.879 190 194 189
0.752079 0.0155526 2.294 5 5 5
0.511038 0.0551852 2.236 13 17 12
-0.43988 -0.188211 1.147 197 200 201
-0.119306 0.131912 0.618 197 196 196
0.487331 0.341279 1.821 119 126 120
0.422736 0.101388 2.212 16 13 10
-0.348462 -0.660849 2.128 165 161 154
-0.168346 -0.757835 2.044 178 171 161
-0.282401 0.12743 0.597 96 61 56
-0.217481 0.127062 0.614 190 196 194
-0.0619053 0.133359 0.347 17 8 1
-0.205752 -0.246266 1.232 173 174 170
-0.272382 0.216445 0.568 128 141 138
0.141958 0.457519 1.633 88 80 77
-0.26282 0.0352175 0.742 69 69 65
0.0257422 0.148763 0.815 136 135 135
0.686289 0.437098 1.677 103 104 98
-0.504949 -0.368092 1.48 155 156 150
0.804257 -0.282699 1.794 27 11 6
-0.677922 -0.808638 2.22 150 150 144
-0.788046 -0.559735 1.579 137 152 138
-0.428599 -0.165486 1.132 186 187 183
-0.0453121 0.0447514 0.782 187 178 181
0.849077 -0.416981 1.929 15 33 31
-0.610221 -0.679169 2.099 176 173 168
0.848737 -0.0984896 2.099 20 17 12
-0.314486 -0.118984 1.094 198 197 197
-0.618743 -0.628209 1.831 150 151 145
0.41214 0.500212 1.559 92 93 84
0.0366109 0.00495143 0.961 157 153 154
-0.292093 0.134296 0.593 93 89 90
-0.497016 -0.84284 2.356 55 26 12
-0.611457 -0.833306 2.228 158 156 144
-0.214709 0.201214 0.572 158 165 157
-0.493298 -0.533804 1.887 163 159 162
0.66516 0.399325 1.714 103 104 91
-0.0154482 0.123999 0.698 171 167 170
-0.193511 -0.761891 2.064 173 157 136
-0.0250343 0.00734774 0.874 188 184 187
0.835564 -0.833109 2.383 89 87 77
0.239325 -0.0185329 2.356 33 32 34
-0.0349103 0.118028 0.366 63 28 11
0.484402 0.543214 1.463 93 94 88
0.661006 -0.833109 2.383 100 96 87
-0.209585 0.162145 0.589 183 186 185
-0.81607 -0.63433 1.696 181 190 183
-0.0122292 -0.0447966 0.989 188 184 187
0.0712912 -0.14881 1.273 108 102 104
-0.285591 -0.805175 2.261 129 115 107
-0.728198 -0.525088 1.583 167 179 169
0.836832 0.155381 1.7 123 135 125
0.383646 0.127959 2.236 8 11 12
0.0115456 -0.0106538 0.958 166 160 162
0.553999 -0.627586 2.459 98 88 88
0.379458 0.390209 1.774 94 89 85
-0.0801229 0.109381 0.363 82 48 28
-0.24891 -0.778394 2.166 168 156 138
-0.212518 0.125675 0.617 190 197 191
-0.449089 -0.0673348 0.966 200 206 206
0.917145 0.0745765 1.821 26 11 10
-0.290016 0.0043383 0.842 197 196 198
0.833092 -0.350339 1.633 32 14 5
0.513769 0.46854 1.607 88 89 80
-0.427819 -0.189269 1.165 180 184 179
-0.130128 -0.259445 1.257 2 127 123
-0.0649594 -0.0605214 0.983 198 195 192
-0.409013 -0.118275 1.104 206 206 206
0.849941 -0.769587 2.181 26 5 0
0.40128 0.448857 1.65 91 90 75
-0.412096 -0.481512 1.763 160 157 152
-0.179184 -0.271709 1.286 115 161 154
-0.672804 -0.308414 1.375 134 144 130
-0.368177 -0.850525 2.294 54 28 15
0.50392 0.0592711 2.253 18 15 10
-0.274779 0.154943 0.573 165 176 176
-0.674042 -0.558397 1.659 162 166 161
-0.178199 0.121589 0.627 177 180 179
0.851327 -0.382509 1.978 20 20 16
-0.279447 0.124933 0.599 95 61 37
-0.0314118 0.116956 0.374 56 25 12
-0.080223 -0.623695 1.853 184 176 173
-0.211974 0.153596 0.593 171 177 175
0.839537 -0.644412 2.278 19 5 0
-0.50592 -0.316302 1.39 185 186 182
-0.0861549 -0.135419 1.112 193 192 194
0.296828 0.523475 1.502 93 92 77
-0.321853 -0.23867 1.194 84 133 136
0.636319 -0.884123 2.294 99 99 93
0.153427 -0.380825 2.392 90 86 87
-0.781544 -0.64602 1.705 142 154 144
-0.773955 -0.567737 1.587 135 150 149
0.130552 -0.661664 1.985 161 155 157
-0.49566 -0.467809 1.744 163 163 159
0.00337282 0.0437186 0.862 171 167 168
-0.258743 0.0731226 0.669 147 145 137
-0.150927 0.0682466 0.721 203 199 202
-0.228908 0.0218731 0.783 112 118 118
0.3674 0.498952 1.563 90 92 83
-0.652845 -0.515099 1.633 142 146 139
0.670151 -0.70005 2.489 94 90 81
0.00261765 0.205942 0.669 117 123 125
0.884041 -0.0619658 1.744 28 13 3
-0.0817042 0.114545 0.357 66 33 16
0.0896152 0.488806 1.555 100 97 92
0.684072 0.259128 1.848 13 20 12
0.20436 0.543421 1.47 94 92 82
0.382127 0.31987 1.887 16 17 8
0.181263 0.422515 1.729 91 87 78
-0.20091 -0.208988 1.18 180 181 177
0.864095 -0.0139502 2.236 15 15 15
0.136141 0.157069 2.236 86 77 80
0.60662 0.209883 2.01 111 116 123
0.837013 -0.642742 2.312 24 14 14
0.0895481 0.463606 1.599 118 114 119
-0.351855 -0.0548572 0.891 175 176 170
0.808763 0.118868 1.865 27 17 5
0.116155 0.46854 1.607 83 81 73
0.378886 0.425666 1.719 93 89 78
-0.461143 -0.0266418 0.918 192 203 201
-0.110266 0.145369 0.607 193 193 195
0.708135 0.517206 1.498 94 108 97
-0.171991 0.124869 0.623 183 183 177
0.182327 0.546713 1.466 83 83 77
-0.1289 -0.613614 1.859 176 174 166
-0.207397 0.11536 0.632 120 106 98
-0.0120432 0.177711 0.638 178 178 180
0.307631 -0.656526 2.54 86 79 71
0.233358 0.302455 1.953 86 83 80
0.799216 -0.773302 2.402 90 90 84
0.868503 0.0442765 1.794 34 12 4
0.129303 0.285272 1.966 82 75 69
-0.0780689 -0.0579627 0.967 197 193 194
-0.282899 0.203349 0.565 106 126 123
-0.286833 0.152544 0.571 161 167 165
-0.177048 0.133955 0.609 184 184 180
0.533728 0.257168 1.947 67 66 66
-0.482897 -0.22285 1.203 175 174 174
0.495113 0.392124 1.744 78 74 65
-0.14397 0.0186038 0.807 179 175 180
0.422349 -0.0675911 2.329 48 14 20
0.538258 0.512644 1.528 91 94 78
-0.489378 -0.11955 1.083 197 203 205
-0.0295374 0.066533 0.769 191 185 189
-0.489924 -0.456972 1.714 165 165 161
-0.414713 -0.0627953 0.945 198 204 206
0.339044 -0.914546 2.383 111 104 94
0.428634 -0.301039 2.649 32 24 23
-0.514293 -0.154343 1.118 193 194 190
-0.140181 -0.39466 1.445 8 93 127
0.268483 0.137777 2.278 84 79 75
-0.043256 -0.223589 1.176 180 175 171
0.424654 0.186341 2.114 109 76 75
0.817591 0.41395 1.65 82 85 67
0.464994 0.538798 1.477 94 99 89
-0.210788 0.200984 0.574 145 156 152
-0.0276037 0.216322 0.593 119 115 120
-0.277362 -0.160949 1.139 162 152 152
0.262527 0.24157 2.057 40 47 39
0.64587 0.255289 1.842 80 77 74
-0.299938 0.146959 0.582 144 154 157
-0.131216 0.127705 0.622 196 196 196
0.413671 -0.744811 2.411 105 96 91
-0.0705808 0.124116 0.348 52 21 8
-0.0497638 0.132424 0.349 24 12 10
0.669344 0.494042 1.532 98 108 96
0.853231 -0.693806 2.411 68 69 65
0.170944 -0.549715 2.365 81 73 70
-0.307623 0.0970946 0.584 168 184 192
0.121496 0.565121 1.452 81 82 73
-0.0368523 0.153349 0.636 174 174 176
0.873623 0.135523 1.729 118 131 118
-0.256316 -0.300339 1.339 139 149 133
0.0507286 -0.276825 1.456 143 139 142
-0.218096 0.0134665 0.814 100 95 105
-0.251267 0.180121 0.579 153 156 155
-0.219047 0.114995 0.63 119 104 92
-0.279072 0.109022 0.592 80 84 77
-0.300066 0.0175894 0.763 153 158 165
-0.271457 0.213672 0.568 131 139 138
0.424316 0.277291 1.911 18 19 15
-0.504602 -0.0634598 0.955 126 134 121
-0.0508884 0.0880279 0.701 194 189 187
0.323451 -0.250363 2.707 39 32 26
-0.113336 -0.1848 1.149 94 97 96
-0.205035 0.09064 0.654 195 194 196
-0.0424093 0.125104 0.354 42 21 8
0.107693 0.304067 1.923 100 100 100
-0.0862131 0.0460265 0.761 201 195 199
0.881667 -0.553013 2.253 15 5 3
0.340578 0.264696 2.004 53 52 54
0.470471 0.380968 1.758 69 73 68
0.582431 -0.791893 2.411 105 96 89
0.817553 -0.26855 1.837 20 11 4
0.516013 0.26712 1.905 115 113 101
-0.218991 0.029556 0.784 148 141 150
0.397127 0.240655 2.078 66 69 70
0.558984 0.497645 1.551 92 97 85
-0.206898 0.20365 0.571 147 149 155
0.822378 0.226036 1.612 116 124 123
0.0767995 -0.243654 1.456 118 115 110
0.676823 -0.638174 2.469 88 88 82
-0.0297494 0.0977937 0.714 181 177 182
0.799359 -0.26013 1.668 25 9 4
-0.0338234 -0.262488 1.252 177 172 168
0.821744 -0.433838 2.519 24 31 37
0.798716 -0.460426 1.591 31 16 4
-0.0757063 -0.082718 1.02 195 191 192
0.849834 -0.455823 1.882 14 32 28
-0.192499 0.189216 0.578 153 161 160
0.734123 -0.719623 2.459 89 90 84
-0.0136112 0.204331 0.615 144 144 148
-0.289563 0.0355945 0.68 108 95 84
0.0493428 0.297177 0.997 149 145 148
0.474695 0.178866 2.107 108 103 101
0.788498 -0.268273 1.668 28 8 0
-0.220807 0.0843349 0.663 196 196 192
-0.411802 -0.459761 1.714 166 162 153
0.540175 -0.573888 2.469 94 87 81
0.327968 -0.316698 2.672 30 27 24
0.756663 0.434375 1.646 78 82 75
-0.394022 -0.274529 1.27 142 159 160
0.788879 0.160955 1.826 82 89 81
-0.202132 -0.543575 1.837 144 139 135
0.210622 0.131278 2.294 73 65 64
-0.273364 -0.22285 1.203 174 181 175
0.852731 -0.377753 2.004 12 23 19
0.226462 0.252469 2.064 80 76 67
-0.391932 -0.0204945 0.849 195 201 203
-0.618681 -0.640595 1.876 162 164 155
0.64225 0.188618 1.959 139 145 145
-0.234409 -0.0841297 1.017 203 199 200
0.38266 0.252481 2.037 90 97 89
0.372489 0.501495 1.563 89 91 82
0.533428 0.349498 1.758 105 105 105
0.867467 -0.600913 1.935 94 93 93
0.510081 -0.160696 2.479 68 31 28
0.640552 -0.427882 2.582 86 79 73
0.275703 0.362354 1.853 94 90 79
0.882196 -0.52984 2.173 30 17 6
-0.105016 0.117974 0.635 119 108 101
-0.322071 -0.0149328 0.847 201 204 207
0.372578 -0.331215 2.649 44 38 40
0.786691 0.0430218 2.173 36 18 9
-0.644551 -0.613485 1.763 174 177 178
0.193512 0.335322 1.905 91 82 73
0.580562 0.460177 1.633 87 89 78
-0.329777 -0.0823125 1.015 193 193 193
0.838924 -0.67981 2.01 26 27 18
0.835554 0.356814 1.659 44 45 41
0.280042 0.491118 1.587 91 88 85
-0.542668 -0.171633 1.124 181 189 186
0.602725 -0.402671 2.582 78 74 67
0.143829 0.402706 1.753 90 85 81
-0.533124 -0.348528 1.439 185 188 187
-0.0843262 -0.109 1.066 191 190 192
0.416812 0.146107 2.181 13 14 10
-0.0457768 0.102407 0.372 78 34 16
-0.198533 0.197146 0.571 150 153 156
0.784116 -0.563132 1.567 41 19 9
0.589874 0.505013 1.52 89 91 80
0.196416 0.511326 1.539 95 91 80
-0.318352 0.0297522 0.673 95 92 78
0.704076 -0.395051 2.615 81 77 68
-0.279715 0.198183 0.566 118 131 130
0.690645 0.495009 1.535 99 108 99
-0.296288 0.0563237 0.651 194 205 205
0.564472 -0.46191 2.561 88 79 74
-0.256534 0.125075 0.619 169 172 171
0.688733 -0.146255 2.44 34 21 25
0.806263 -0.278536 2.561 59 51 48
-0.0788002 0.120502 0.632 109 100 95
0.673952 0.253083 1.87 25 25 29
0.473714 -0.254674 2.66 62 26 26
0.178734 0.467002 1.629 96 89 81
0.058803 -0.24722 1.422 143 138 136
-0.207021 0.110566 0.634 132 121 116
-0.0806719 0.127108 0.35 46 25 10
-0.158011 0.143946 0.597 164 162 154
0.579905 0.285264 1.842 35 29 44
-0.383384 -0.243369 1.198 132 159 154
-0.344564 -0.0642394 0.991 203 204 200
-0.195234 0.146594 0.592 180 183 184
-0.231543 -0.294375 1.322 133 145 137
-0.213198 0.188275 0.578 154 165 161
-0.165766 0.0402009 0.768 196 195 195
-0.222395 0.120184 0.625 190 191 187
0.324202 0.44561 1.668 98 94 87
0.785047 -0.387378 1.655 36 12 0
0.871097 -0.201531 1.724 27 9 0
-0.197857 -0.293328 1.327 143 160 146
0.1483 -0.709911 2.099 100 94 96
0.83212 -0.425695 2.278 17 7 5
0.863357 -0.0670978 2.312 11 12 3
0.547272 0.315783 1.794 115 119 114
-0.566297 -0.197528 1.169 168 180 172
-0.238313 0.146866 0.601 176 179 180
-0.282978 0.162548 0.567 159 171 175
-0.65879 -0.453702 1.559 126 132 132
-0.232611 -0.766587 2.114 172 157 129
-0.541589 -0.443414 1.595 132 132 126
0.331368 -0.0262009 2.356 37 38 29
-0.319632 -0.865457 2.294 66 37 25
-0.24962 0.156491 0.593 182 190 189
-0.117875 -0.500269 1.7 169 164 162
-0.00397689 -0.0119961 0.941 182 179 176
-0.019792 0.0327588 0.833 188 184 187
0.832242 -0.628046 1.941 15 10 8
0.707569 0.388751 1.729 102 104 91
0.152683 -0.0353984 2.212 54 54 56
0.554588 0.193964 2.085 35 12 7
-0.132707 -0.644633 1.87 184 182 174
-0.0459937 0.0919305 0.696 187 177 177
0.23459 -0.0451975 2.347 65 42 37
0.226294 0.416888 1.729 86 81 77
-0.219813 -0.0939493 1.034 197 196 196
0.221239 0.50905 1.555 98 96 88
-0.24891 -0.817167 2.166 183 154 90
0.83578 -0.138593 1.744 31 11 3
0.0210946 0.121059 0.79 132 126 130
-0.32359 0.0730465 0.622 185 197 201
0.239164 0.322843 1.923 92 84 81
-0.0635139 0.0712786 0.728 204 198 200
0.009829 -0.533593 1.774 158 152 154
-0.128051 0.14043 0.607 196 196 196
-0.309022 -0.142621 1.126 203 202 202
-0.373877 -0.0440552 0.878 197 200 201
0.830734 -0.468863 2.509 69 71 62
0.549002 0.222239 2.064 18 18 14
0.832405 -0.343544 2.136 48 32 27
-0.142584 0.113303 0.632 120 109 102
-0.166478 0.154373 0.596 197 197 197
0.520875 -0.467682 2.593 77 70 62
-0.143523 0.0928575 0.67 198 197 197
0.495364 -0.423493 2.66 80 71 62
-0.277005 0.174851 0.568 165 179 181
-0.306554 -0.197466 1.18 120 123 122
0.580366 -0.64621 2.469 97 88 83
-0.431516 -0.11167 1.075 195 195 195
-0.235998 0.117321 0.626 161 160 145
-0.774404 -0.504481 1.567 170 184 186
0.851298 0.0569523 1.826 29 16 3
0.0490025 -0.113454 1.185 151 145 147
0.74153 0.152509 2.03 12 13 2
0.84276 -0.736624 2.449 85 83 73
-0.28106 0.20151 0.565 112 122 127
-0.254943 -0.2574 1.257 5 105 98
0.274891 -0.56654 2.582 79 72 66
-0.0364143 0.0969719 0.708 183 177 181
0.843286 -0.805663 2.173 26 7 1
-0.0702261 -0.259411 1.247 174 177 178
0.193481 0.520953 1.516 93 91 83
-0.345752 -0.00567157 0.721 125 96 75
-0.505992 -0.165486 1.132 192 198 196
0.824892 -0.141026 1.739 27 11 6
0.0503012 0.304511 0.984 134 140 142
-0.0341801 0.163919 0.625 173 176 177
0.819803 -0.0747832 2.44 23 14 7
-0.26825 0.188512 0.573 129 136 130
0.838451 -0.591936 2.057 23 18 14
-0.153677 -0.172674 1.143 177 174 169
0.867391 -0.788978 2.128 21 7 1
-0.059528 0.119006 0.353 57 22 5
-0.569304 -0.181019 1.137 153 160 152
0.855757 -0.0974292 2.151 20 20 20
-0.108233 0.0159377 0.805 149 144 152
-0.00551413 0.109339 0.737 167 163 166
0.55015 -0.535047 2.572 92 84 81
0.8285 0.415356 1.624 104 60 30
0.311766 -0.49119 2.54 78 71 65
-0.0651165 0.10345 0.365 89 50 19
0.879299 -0.157154 2.365 9 10 6
-0.683032 -0.381863 1.459 180 189 182
0.104072 0.537339 1.473 82 83 79
-0.0172122 -0.458682 1.603 173 165 164
0.774862 -0.0735918 1.821 15 11 4
0.884219 -0.506676 2.078 6 9 8
-0.180185 -0.712264 1.991 176 174 166
0.540623 0.537484 1.48 90 92 79
-0.183462 0.0915641 0.653 196 195 197
-0.249352 -0.207419 1.182 176 171 167
0.226906 -0.289303 2.66 18 20 30
0.239005 0.516335 1.539 91 89 77
0.452704 -0.58961 2.519 94 84 84
0.849536 -0.00303413 2.236 30 27 13
0.814397 -0.240217 2.509 58 54 47
0.824836 -0.237344 2.479 32 13 9
0.490561 -0.0833909 2.347 53 16 13
-0.74178 -0.541749 1.579 139 150 131
-0.239595 -0.106863 1.062 197 197 193
0.74545 0.21866 1.719 94 90 83
-0.307796 -0.160384 1.135 165 157 156
0.859881 -0.0103484 2.244 16 23 17
0.508571 -0.383636 2.684 72 68 61
-0.285564 0.213624 0.563 108 121 118
-0.163141 0.102239 0.64 164 150 142
-0.156764 -0.565636 1.831 163 155 152
-0.0577389 0.11334 0.638 192 175 134
0.832282 -0.561152 1.779 49 41 38
-0.0672452 0.0896774 0.705 202 198 201
0.117289 0.512434 1.52 82 83 74
-0.188658 -0.312517 1.354 0 49 51
0.143469 0.383699 1.784 86 78 75
-0.0310758 0.122931 0.37 55 25 9
0.647518 0.384232 1.734 89 97 86
-0.506591 -0.790452 2.383 43 27 22
-0.354607 -0.0546109 0.887 175 177 168
0.787177 -0.526886 1.543 45 10 5
0.00273504 0.146927 0.699 171 171 175
0.131311 0.55957 1.456 85 86 75
-0.270569 0.129636 0.612 138 149 145
-0.462772 -0.760307 2.338 104 90 84
-0.238783 -0.490522 1.734 149 152 151
-0.140883 0.11993 0.629 176 177 168
0.862518 -0.69827 1.917 28 25 20
0.517974 -0.695614 2.459 103 94 89
0.684329 0.534942 1.473 102 107 97
-0.0884445 -0.00400287 0.868 200 194 196
0.84222 -0.595078 1.794 63 58 54
-0.268493 -0.135175 1.11 198 198 194
-0.340757 0.0214951 0.655 90 68 58
-0.586752 -0.303196 1.342 158 166 155
-0.0321567 0.226937 0.588 84 95 93
0.432727 -0.110971 2.365 70 35 32
0.030039 -0.140043 1.198 154 150 155
0.672804 -0.678353 2.469 92 89 84
-0.205292 -0.332095 1.362 0 110 108
-0.0935455 -0.54463 1.763 178 170 167
0.61817 0.376313 1.763 70 64 68
0.277238 0.329122 1.905 91 87 78
-0.191117 0.0671107 0.709 198 197 197
-0.247186 -0.762502 2.151 168 161 155
0.109709 0.284256 1.959 107 102 100
-0.332113 0.000184133 0.681 130 116 101
-0.191936 0.177266 0.582 164 171 165
-0.483653 -0.0952441 1.012 181 184 185
-0.231551 0.120184 0.625 188 191 190
0.607295 0.229677 1.929 130 138 137
-0.591592 -0.592148 1.887 148 140 137
-0.453408 -0.878662 2.329 53 24 12
0.810716 -0.26238 1.815 22 10 8
0.0165984 -0.650493 1.887 178 175 172
0.247908 -0.910111 2.402 95 95 89
-0.359314 -0.0406815 0.867 193 196 197
0.17328 -0.809461 2.294 91 89 79
0.169643 -0.0375588 2.347 49 48 48
0.80333 -0.243153 1.682 28 13 3
-0.397955 -0.57564 1.978 170 167 164
-0.0851989 0.0243298 0.823 201 195 197
-0.10016 -0.0143546 0.897 199 196 193
-0.00814973 0.0928409 0.759 169 165 170
-0.293532 -0.160666 1.137 167 159 156
-0.084063 0.012306 0.825 150 145 157
0.105272 0.419702 1.729 80 81 72
-0.217696 -0.169546 1.147 177 172 168
0.0212815 0.192169 0.797 155 155 157
0.345807 0.170951 2.181 41 36 34
-0.0684554 0.0950544 0.694 200 196 199
-0.559213 -0.363491 1.452 179 180 174
-0.0736563 0.123587 0.632 164 161 158
-0.280673 -0.314364 1.362 53 128 109
-0.178688 -0.340961 1.362 0 89 104
0.768156 -0.886592 2.32 95 97 88
-0.0592513 0.124682 0.348 43 19 3
-0.0536268 0.0375906 0.792 197 191 195
0.214103 -0.0109479 2.374 19 17 24
-0.317706 0.0600031 0.645 192 204 210
-0.455241 -0.13409 1.116 136 131 127
-0.107294 -0.131088 1.106 193 192 194
-0.0440777 0.00023172 0.857 186 180 182
0.781953 -0.165884 1.859 100 81 52
0.602166 0.207332 2.017 80 92 98
-0.458504 -0.155171 1.124 201 204 205
-0.310356 -0.115213 1.092 199 199 199
-0.213207 0.124067 0.619 192 196 191
-0.191048 0.0787513 0.68 194 194 190
-0.35029 -0.145608 1.135 191 190 190
0.753256 0.222429 1.705 99 99 95
0.00279224 -0.184609 1.222 161 161 155
0.527496 0.311395 1.837 102 111 104
-0.598696 -0.251263 1.257 163 170 164
-0.0189919 0.114591 0.703 174 173 177
-0.227021 0.103996 0.638 136 118 107
-0.0164838 -0.208634 1.178 154 150 143
-0.364225 -0.0437542 0.872 193 196 197
-0.195769 0.0346151 0.783 184 183 185
0.60497 0.378107 1.758 64 58 62
0.775098 0.179681 1.748 115 120 110
0.836215 -0.143856 1.739 29 10 4
0.308931 0.422869 1.719 94 92 84
0.591549 0.420072 1.719 90 92 83
0.448459 0.530412 1.494 98 100 91
-0.047874 -0.162362 1.149 163 156 150
-0.77252 -0.826375 2.181 162 168 166
-0.16211 0.0814407 0.684 189 188 190
-0.154875 0.10574 0.636 135 107 59
0.101409 -0.451706 1.865 109 108 108
-0.265335 0.0393458 0.729 70 67 64
0.748386 -0.0736186 2.402 25 23 15
-0.12615 -0.104243 1.053 199 195 200
-0.434995 -0.141861 1.12 171 173 162
-0.249296 0.0608672 0.717 150 143 137
-0.450724 -0.527639 1.876 163 160 157
-0.00524899 -0.228053 1.242 141 137 140
-0.142514 -0.174534 1.143 176 176 172
-0.583209 -0.452728 1.547 121 119 111
0.728836 -0.722487 2.402 91 88 83
-0.348369 -0.00821836 0.739 171 164 154
0.504913 0.430611 1.673 89 91 78
-0.3231 -0.0860377 1.02 188 188 188
0.778064 0.0263671 2.261 23 14 7
-0.750536 -0.61756 1.673 173 181 180
0.863927 -0.428831 2.128 26 29 13
0.44074 0.0833901 2.212 35 14 9
-0.00410369 0.138221 0.701 176 175 179
-0.434524 -0.608153 2.044 165 161 162
-0.362944 -0.0842588 1.039 200 203 202
-0.285783 0.101242 0.586 89 106 111
0.788734 -0.516998 1.551 45 16 2
0.684503 -0.243982 2.638 49 50 41
0.568001 -0.867715 2.32 105 101 90
0.840663 -0.260426 2.03 42 50 35
-0.710937 -0.558452 1.62 165 165 165
0.332706 0.128546 2.312 47 48 42
-0.648089 -0.723098 2.078 168 164 153
-0.163363 -0.391494 1.442 0 90 96
-0.287084 0.0212713 0.682 149 133 112
0.509663 -0.0948489 2.347 54 17 24
0.413233 -0.628657 2.479 99 92 86
0.756581 0.25774 1.7 92 88 79
0.825332 -0.419264 2.53 27 36 29
-0.612939 -0.681425 2.085 170 166 157
-0.0824865 0.111154 0.363 80 49 36
-0.462721 -0.613573 2.051 171 167 168
-0.289673 0.141777 0.592 88 96 95
-0.270875 0.136254 0.606 148 156 153
-0.50882 -0.38861 1.513 140 144 137
-0.363539 -0.845911 2.312 55 26 14
-0.645032 -0.372366 1.459 161 167 169
-0.628358 -0.62886 1.774 132 134 123
0.6934 0.533991 1.477 99 107 96
-0.2104 0.0741874 0.689 200 199 201
-0.262493 0.164288 0.583 142 150 151
0.720336 0.210842 1.929 0 8 8
-0.331625 0.0389143 0.68 76 73 70
0.575723 0.297981 1.81 61 75 66
-0.221778 0.151464 0.596 188 192 187
-0.707318 -0.404219 1.48 190 193 196
0.867992 0.362012 1.696 36 43 37
-0.296421 0.176347 0.561 142 156 158
0.718975 0.21889 1.917 18 28 33
-0.0426353 -0.12795 1.11 190 189 189
0.301411 0.421293 1.724 91 89 81
-0.493299 -0.177943 1.141 202 208 206
-0.438808 -0.89106 2.312 57 26 15
0.807584 -0.380829 1.583 26 13 2
-0.234305 -0.00539043 0.864 185 182 177
0.793019 -0.164581 1.719 27 12 0
0.41278 0.4367 1.686 89 85 86
-0.718648 -0.508344 1.579 182 190 189
0.621401 0.196128 2.037 87 91 84
-0.290162 0.132366 0.593 90 81 86
-0.256288 0.0714755 0.674 135 133 125
-0.426396 -0.184044 1.156 187 188 184
-0.316634 -0.220256 1.189 84 147 144
0.754058 -0.302699 2.626 72 70 62
-0.155837 0.0648164 0.722 197 196 196
-0.45182 -0.10636 1.057 195 198 197
0.629635 -0.610941 2.489 90 86 77
-0.238482 -0.236893 1.225 159 177 171
0.841682 -0.39374 2.107 47 39 36
0.824425 -0.138593 1.744 27 9 0
-0.206612 0.192978 0.578 152 163 161
-0.508442 -0.84401 2.338 50 26 10
-0.292558 0.0269455 0.747 131 130 130
0.472016 -0.712712 2.449 102 98 89
0.836221 -0.236607 2.43 6 6 0
-0.396577 -0.0400406 0.884 196 202 202
-0.320856 0.0600031 0.645 192 204 208
-0.236641 0.20365 0.571 155 162 168
0.406421 0.411261 1.729 87 85 77
0.149753 0.435244 1.691 91 87 80
0.874648 -0.488485 2.312 16 11 7
0.484392 -0.0149235 2.392 7 3 4
0.0914672 -0.562362 1.911 116 111 109
-0.422249 -0.707828 2.244 161 159 151
0.313243 -0.258025 2.695 37 38 29
0.868768 -0.696365 1.87 50 62 54
-0.0201629 0.12749 0.38 76 57 55
0.8818 -0.482645 2.121 17 27 11
-0.527673 -0.126285 1.037 137 148 146
-0.0231421 -0.0425321 0.974 191 187 190
-0.617292 -0.829021 2.236 160 153 143
-0.165692 -0.00118461 0.873 201 195 197
0.871812 0.0857126 1.87 27 13 5
-0.298939 0.0211468 0.757 153 155 161
0.698797 -0.880096 2.303 95 97 86
-0.660813 -0.392719 1.473 126 127 123
0.888478 -0.499786 2.261 27 13 5
-0.0387009 0.127326 0.357 33 19 13
-0.535329 -0.506243 1.821 166 166 160
0.688158 0.360905 1.744 105 110 117
-0.0342287 -0.271818 1.267 175 172 167
0.696866 -0.854898 2.347 97 98 89
0.849975 -0.104537 1.744 28 14 0
0.315945 0.244036 2.078 78 84 82
0.0332203 0.320937 0.872 137 148 146
-0.410858 -0.883843 2.303 54 28 15
0.000456078 0.148135 0.694 175 175 177
-0.275085 0.0821725 0.646 164 166 172
0.660006 0.252407 1.865 60 60 60
-0.214241 0.168948 0.586 179 183 178
0.730946 0.2545 1.815 31 27 20
0.763982 0.13646 2.037 30 21 12
0.198499 0.526957 1.498 95 96 87
-0.757848 -0.540376 1.575 138 153 135
-0.0371869 0.105624 0.377 61 25 6
-0.106877 -0.804256 2.078 163 141 115
-0.0417585 0.0437569 0.787 187 178 181
0.206374 -0.860869 2.374 100 89 82
-0.0131192 0.132514 0.695 169 168 172
-0.211952 0.0135824 0.821 111 105 109
0.782437 0.0923878 1.882 24 13 6
-0.0126511 0.201983 0.617 143 148 153
-0.0496327 0.0305738 0.811 191 185 187
0.738529 0.250882 1.729 94 57 64
-0.060367 0.157522 0.612 187 186 186
-0.356827 -0.0361966 0.861 193 196 197
-0.0954951 -0.158816 1.137 152 142 142
-0.210638 -0.109716 1.073 198 194 195
0.0634758 -0.306833 1.535 135 132 127
0.0914632 0.41245 1.734 98 97 97
-0.0750153 -0.0673286 0.989 197 193 194
0.40807 0.019807 2.356 8 8 8
-0.148479 0.0554441 0.738 191 190 190
-0.0776613 0.0985098 0.371 97 76 75
0.255802 -0.69818 2.44 96 87 80
0.777575 -0.491757 1.559 44 10 2
-0.297451 0.0855113 0.596 193 205 209
0.341971 -0.619041 2.489 87 78 73
0.7725 -0.499369 1.559 43 17 6
0.776985 0.0791301 2.099 35 19 12
-0.466762 -0.750678 2.32 124 115 108
-0.286578 0.172088 0.565 171 181 184
0.801305 -0.442302 1.591 29 14 4
0.525979 -0.595574 2.459 95 86 81
-0.194944 0.105574 0.635 174 153 93
0.14385 0.550356 1.463 83 84 78
-0.36368 -0.0532274 0.888 186 190 185
-0.561902 -0.327835 1.372 174 175 171
-0.544796 -0.228085 1.21 150 160 144
-0.223548 0.187335 0.578 156 162 162
0.646633 0.555007 1.432 101 102 93
0.651317 -0.636725 2.479 91 89 81
0.837554 -0.520453 1.917 26 23 18
-0.309204 -0.260233 1.213 139 157 153
-0.206355 0.0162346 0.82 168 168 172
-0.223558 0.0926851 0.646 196 195 195
0.532966 0.514907 1.52 92 97 85
-0.523121 -0.332797 1.412 188 189 185
-0.265713 0.133183 0.61 170 178 177
0.184308 -0.571118 2.44 79 71 68
0.84875 -0.763916 2.303 31 22 17
-0.352622 -0.0375977 0.861 193 196 195
-0.312758 0.00273543 0.776 168 173 178
0.896873 0.0623442 1.81 29 13 8
-0.313891 -0.169918 1.137 182 179 176
0.517643 0.357062 1.753 111 118 112
0.862075 0.0474853 1.805 32 12 2
-0.143149 0.141702 0.604 202 198 199
-0.156847 -0.164656 1.139 161 151 151
-0.444855 -0.0438253 0.934 196 204 203
0.223513 0.0668205 2.392 69 67 57
0.85352 0.0119933 1.769 29 13 8
0.0157085 0.205312 0.778 148 143 141
-0.044783 0.00709553 0.844 191 182 185
0.849142 -0.675953 1.784 36 49 46
-0.462048 -0.631795 2.078 176 174 166
-0.047486 -0.28327 1.291 173 174 165
-0.251597 0.220678 0.567 142 148 150
0.675906 0.321828 1.779 117 119 106
-0.243095 0.174425 0.582 162 170 167
-0.225448 -0.153535 1.139 139 130 133
-0.252715 0.124669 0.622 169 172 173
0.462918 -0.493373 2.53 78 74 65
0.780789 -0.0877091 1.748 28 14 0
0.773174 -0.295925 2.604 70 68 60
0.772211 0.183726 1.941 17 8 1
0.29552 -0.718034 2.44 108 99 92
-0.0939304 0.14708 0.61 195 192 189
-0.584823 -0.514576 1.739 109 112 96
0.834155 -0.357206 2.114 67 51 28
0.339565 -0.209783 2.695 9 13 8
0.739199 0.219296 1.724 94 80 74
0.698546 -0.127808 2.392 69 12 19
-0.330549 -0.173618 1.137 185 181 182
-0.564114 -0.884759 2.286 40 25 24
0.824318 0.0670571 1.859 30 12 3
0.238189 -0.79433 2.383 93 90 85
-0.0489122 0.106347 0.659 180 174 178
0.456394 -0.336919 2.66 58 50 49
-0.198037 -0.0529115 0.961 196 195 197
0.752099 0.342189 1.591 20 29 22
0.666481 0.0629086 2.128 36 48 40
0.568562 0.178187 2.099 28 8 0
-0.0600656 -0.472581 1.633 175 171 164
0.471403 0.491211 1.579 92 94 78
0.426519 0.323153 1.853 18 26 27
0.823389 -0.159448 1.724 31 11 3
-0.0500597 -0.623695 1.853 182 177 175
-0.387241 -0.152996 1.135 93 90 85
-0.194574 0.148979 0.59 181 180 180
0.768184 0.26244 1.677 90 96 94
-0.248214 0.0584869 0.731 183 178 174
0.0342836 -0.0077404 0.984 163 157 161
-0.27382 0.176703 0.571 151 171 168
0.834365 -0.339735 1.646 35 14 1
-0.474172 -0.032795 0.923 200 206 208
0.231711 0.29487 1.966 86 83 78
-0.174936 -0.0514545 0.963 200 199 201
0.793928 -0.471852 1.668 32 10 14
-0.304462 0.150652 0.578 171 185 187
0.409747 -0.685959 2.411 103 94 87
0.538314 0.0386679 2.128 10 10 6
-0.103682 -0.119992 1.087 196 192 195
0.52562 -0.41999 2.638 72 68 59
-0.1164 0.0486945 0.764 195 191 194
0.178752 -0.258696 2.53 25 21 24
0.16551 0.29667 1.978 84 79 77
0.39023 0.114267 2.253 5 6 2
0.855357 -0.652415 1.929 14 21 25
0.497098 0.523118 1.494 89 97 84
-0.241614 0.173776 0.583 168 176 175
-0.242332 -0.0112567 0.883 202 198 199
-0.0465742 0.115059 0.355 73 29 11
0.363552 0.405558 1.753 100 93 83
-0.273265 0.220288 0.566 123 130 134
0.340333 -0.103274 2.365 69 30 28
-0.112494 -0.776044 2.057 171 164 154
0.528971 -0.869151 2.365 106 103 98
0.656679 0.50254 1.52 100 108 97
0.872854 -0.132747 2.411 16 12 3
-0.0887843 -0.0942218 1.037 193 192 194
-0.492303 -0.180115 1.143 201 209 210
0.533428 0.352359 1.758 107 110 109
0.764808 0.190622 1.744 105 109 102
0.709055 -0.860961 2.312 96 97 88
-0.389601 -0.354341 1.463 176 173 168
0.267091 0.337356 1.899 90 85 81
-0.0986494 0.0396104 0.781 201 195 199
0.817245 -0.00920937 1.997 3 10 16
-0.0597343 0.0924949 0.376 128 106 98
0.363317 0.512495 1.535 85 86 75
0.745243 -0.65182 2.43 89 88 73
0.388082 0.186958 2.121 99 26 24
-0.783114 -0.470422 1.539 176 187 185
0.175244 0.125216 2.32 77 69 66
-0.246723 0.193848 0.575 150 161 161
0.0798035 -0.450766 1.789 129 126 123
-0.304213 0.00909612 0.78 150 156 167
0.558215 0.505001 1.535 88 93 83
-0.293586 0.0824535 0.602 193 205 209
-0.0641497 0.119134 0.35 59 24 7
-0.286652 0.0664037 0.646 176 179 182
-0.432001 -0.0739276 0.97 202 208 206
0.361524 0.151783 2.212 14 19 9
0.838562 -0.646997 1.941 9 12 11
0.373732 0.491211 1.579 93 91 83
0.254816 0.319714 1.923 90 86 79
-0.072558 0.150043 0.614 193 193 193
0.910126 -0.0169366 1.784 32 15 1
0.834193 -0.731628 2.459 91 87 78
0.54199 -0.643593 2.459 98 89 82
-0.194843 -0.569417 1.853 157 154 151
0.223093 0.37519 1.842 92 89 84
-0.619607 -0.544953 1.71 134 139 125
-0.280636 0.21292 0.566 112 123 119
0.863494 -0.189933 2.44 8 5 0
0.385059 -0.885014 2.356 109 110 101
0.316689 0.145191 2.278 81 74 68
-0.223667 -0.146805 1.13 196 191 187
0.614837 0.469054 1.591 90 97 89
0.143969 -0.562239 2.189 83 77 79
0.513656 0.334229 1.799 122 123 117
0.836272 -0.316147 2.374 7 4 0
0.457828 0.295687 1.87 19 28 19
0.862159 -0.0196729 1.769 30 15 5
-0.265918 -0.0415714 0.952 201 200 202
0.845419 -0.399385 1.935 15 30 25
0.462337 -0.737887 2.44 103 96 90
-0.288469 0.0406311 0.71 64 59 67
-0.83892 -0.589507 1.633 173 186 183
0.0126133 0.0753143 0.824 179 173 177
0.794294 -0.216809 1.734 31 10 5
0.796126 -0.369808 1.591 26 12 6
-0.0736563 0.125644 0.632 163 163 159
-0.317491 -0.393903 1.505 61 124 123
0.86391 -0.177291 2.43 8 5 0
-0.216149 0.168948 0.586 177 181 176
0.300254 0.0355456 2.383 11 15 10
-0.290328 -0.260814 1.225 62 113 114
0.622053 0.474423 1.583 95 100 90
-0.0348771 0.112699 0.372 66 26 13
-0.157094 -0.410474 1.494 11 93 124
-0.010714 -0.344502 1.432 157 151 155
0.781841 -0.149946 1.744 32 13 0
0.394163 0.529347 1.491 92 92 86
0.489003 -0.232067 2.649 71 34 31
-0.0648377 -0.0870499 1.032 193 192 194
0.0262791 0.0841691 0.832 141 140 144
0.77075 0.0192857 2.294 7 10 11
-0.568103 -0.154307 1.092 191 199 198
0.520532 0.556932 1.425 83 91 78
0.704356 0.289944 1.815 24 32 29
0.709297 0.0152747 2.253 11 12 8
-0.284373 0.0896027 0.591 194 204 209
0.576382 -0.50359 2.54 90 81 74
0.866679 -0.15078 2.449 14 12 4
-0.171088 -0.107265 1.066 198 197 201
-0.270527 -0.10992 1.075 202 201 201
-0.201673 0.120569 0.627 190 191 185
-0.0626566 0.100707 0.368 85 48 18
-0.0881809 0.127768 0.355 58 37 22
-0.0802928 0.0993806 0.372 133 112 111
0.415052 -0.899502 2.374 112 107 103
-0.242616 0.0924849 0.652 193 192 194
0.491948 -0.772491 2.449 106 99 93
-0.287536 -0.14471 1.128 195 195 191
-0.604796 -0.692016 2.128 179 177 169
0.756218 -0.452715 2.604 78 76 68
0.566153 0.377031 1.753 62 65 66
-0.669749 -0.573611 1.696 176 181 171
0.747071 0.305908 1.691 88 89 85
-0.57303 -0.427511 1.52 85 102 105
0.120964 0.296518 1.935 77 73 74
0.0587462 -0.0981926 1.187 126 122 125
0.508654 0.484588 1.591 91 93 82
0.819287 -0.544261 2.499 75 77 68
-0.124486 -0.0129955 0.904 203 198 196
0.557996 -0.275175 2.649 28 17 12
-0.247602 0.120569 0.627 180 183 182
-0.0531724 0.121633 0.349 52 19 22
0.675529 -0.70934 2.479 91 89 79
-0.44316 -0.0372202 0.921 194 202 201
0.494941 0.546218 1.452 89 90 86
0.632828 0.375956 1.748 63 57 63
0.771938 -0.482845 1.563 46 15 6
-0.203072 0.0404103 0.772 113 107 111
-0.0438079 0.118279 0.356 69 28 11
-0.239858 0.162827 0.588 179 185 183
-0.0342725 0.0141614 0.856 189 183 187
-0.267304 0.217752 0.569 129 143 145
0.793757 -0.22019 2.561 80 82 71
0.794887 -0.232605 1.705 27 11 4
-0.244174 -0.0637208 0.983 203 202 204
0.363237 0.17266 2.158 81 19 27
0.852942 -0.808334 2.356 71 73 62
-0.242248 0.115836 0.629 119 107 91
-0.0451985 -0.0897611 1.044 193 192 192
-0.608542 -0.831987 2.244 156 152 141
-0.0377489 0.122197 0.359 56 21 6
-0.338034 0.0515755 0.658 134 133 133
-0.234115 0.16187 0.588 183 186 185
-0.470539 -0.890368 2.32 51 25 10
0.113598 0.318716 1.917 87 81 83
0.857615 -0.0763308 1.748 24 11 0
-0.258743 0.072034 0.669 150 146 139
-0.424163 -0.161516 1.13 185 186 180
-0.222632 -0.749285 2.085 175 163 145
-0.254882 -0.472855 1.691 133 137 130
-0.195292 -0.250286 1.242 171 172 168
-0.0221379 0.12103 0.694 174 173 175
0.856737 -0.162724 1.729 25 14 7
-0.190208 0.111422 0.633 132 109 106
0.656407 0.156641 2.085 7 11 6
0.837378 -0.279161 2.204 28 26 18
0.619659 0.454998 1.624 93 91 81
-0.228782 0.120814 0.623 192 193 189
0.207431 -0.632691 2.479 88 79 74
0.673235 0.204564 1.929 137 140 143
0.652017 -0.470245 2.561 85 81 72
0.789716 0.0780627 1.985 77 77 81
0.330035 -0.0882135 2.374 73 46 38
0.427879 0.090917 2.22 24 20 11
-0.228245 -0.0430301 0.95 200 199 199
-0.315431 -0.110943 1.085 201 201 197
-0.265806 -0.80447 2.189 174 144 87
0.301419 -0.219527 2.707 14 14 10
-0.503374 -0.152523 1.118 200 203 202
-0.123773 -0.504515 1.705 171 163 160
0.689266 0.435244 1.691 103 105 94
0.730478 -0.236377 2.649 61 63 54
-0.0982354 0.0133838 0.809 150 145 153
0.454681 -0.575716 2.53 88 80 79
0.231713 0.254216 2.051 81 78 64
0.887698 -0.0226154 1.774 27 11 4
-0.228884 0.175372 0.582 166 174 171
-0.450955 -0.16123 1.128 202 203 199
0.320618 0.160133 2.228 77 73 66
0.729725 0.398508 1.664 67 70 71
-0.354416 -0.101391 1.059 195 195 191
0.466345 0.197357 2.085 114 114 118
0.0760318 -0.437091 1.769 128 125 122
-0.163836 -0.175451 1.149 180 176 169
-0.050216 0.151998 0.622 185 188 189
-0.00318309 -0.204997 1.225 147 143 136
0.00153551 0.171871 0.672 147 150 153
-0.604203 -0.836932 2.228 154 150 139
0.444254 0.443486 1.65 91 89 81
-0.202638 0.119096 0.63 130 123 115
0.586468 -0.493373 2.53 86 82 73
0.604331 -0.0291425 2.286 3 3 3
-0.0446692 0.0985231 0.378 82 45 31
-0.173657 0.0357976 0.781 195 194 194
-0.155958 0.112274 0.632 125 111 103
-0.236151 -0.0204636 0.909 202 201 201
-0.30976 0.0231121 0.671 116 98 87
0.761188 0.389785 1.65 55 55 51
-0.0852238 -0.0175051 0.909 205 201 202
-0.33425 -0.173618 1.137 183 179 180
0.833767 -0.608967 2.356 50 41 46
0.796579 -0.352132 1.629 27 11 6
0.787719 0.0490568 2.128 31 17 9
-0.290519 0.051889 0.662 181 189 190
-0.194843 -0.560371 1.853 144 139 137
0.0064652 0.12818 0.735 174 173 177
-0.120597 0.126272 0.63 197 196 196
-0.0749746 0.119134 0.35 56 26 8
0.81139 -0.298543 1.784 25 10 0
-0.49707 -0.469297 1.739 167 166 166
0.816009 -0.590688 2.489 81 81 75
0.82227 0.153513 1.71 119 123 118
0.454991 -0.154474 2.509 70 33 30
-0.110369 -0.227772 1.198 8 132 131
0.356421 0.358631 1.865 90 86 75
-0.0576434 0.0757174 0.714 204 198 202
-0.199924 0.194784 0.575 150 156 156
-0.286807 -0.136149 1.118 203 202 202
0.164744 0.167402 2.181 79 74 72
0.187324 0.384459 1.815 91 87 80
-0.0813357 -0.047668 0.95 199 193 195
0.123599 -0.699788 2.03 136 132 135
-0.568205 -0.242591 1.244 149 158 149
0.452058 0.423438 1.71 92 93 82
0.545096 0.0452938 2.114 19 20 14
-0.410336 -0.0520379 0.918 195 198 197
-0.0217165 -0.0131393 0.914 192 188 189
0.695395 0.539556 1.466 101 106 96
-0.305834 0.011411 0.765 142 153 162
-0.178706 -0.0496284 0.958 200 199 199
-0.116769 0.137153 0.61 198 197 197
0.620556 -0.650228 2.469 93 89 82
-0.0396398 0.168302 0.615 175 175 179
-0.283185 -0.245852 1.22 5 112 105
-0.149261 -0.183407 1.152 138 140 131
-0.0668672 -0.193116 1.154 8 73 69
-0.42838 -0.242868 1.215 113 122 113
-0.718215 -0.592063 1.655 168 176 175
0.688398 -0.440003 2.604 83 80 66
-0.203074 -0.00115476 0.851 201 196 194
0.851781 -0.223325 1.719 25 15 3
0.804708 0.21979 1.624 119 128 121
-0.405359 -0.0310895 0.875 195 201 201
-0.533012 -0.156003 1.104 182 189 181
0.772741 0.230565 1.607 78 86 85
-0.807754 -0.45909 1.543 176 191 190
0.0309631 -0.422993 1.668 146 140 142
-0.0663628 -0.135662 1.114 194 193 193
0.162585 0.230298 2.107 84 79 75
-0.377305 -0.416944 1.603 169 165 158
0.561729 0.0825459 2.099 9 8 10
0.31492 -0.342787 2.672 35 31 36
-0.318811 0.0112662 0.681 123 104 87
0.746806 0.366518 1.642 43 53 60
-0.262931 0.0952454 0.642 158 162 155
0.0163344 0.0884248 0.809 171 167 172
-0.35778 -0.0202048 0.837 201 201 201
0.522223 0.549806 1.449 82 90 79
-0.498871 -0.177943 1.141 202 209 203
-0.207348 0.106607 0.635 195 179 117
-0.351417 -0.0852051 1.03 201 201 201
-0.174448 -0.171113 1.145 176 173 170
0.773717 0.141782 1.929 16 9 3
-0.104681 0.145848 0.609 196 196 196
0.792497 0.44532 1.637 82 89 81
0.756218 -0.283213 2.604 72 73 62
0.211846 -0.436285 2.582 72 68 59
-0.100495 0.0303854 0.806 200 196 197
-0.0334692 0.181424 0.612 169 162 171
-0.0405657 0.137388 0.353 30 14 11
0.46213 0.266076 1.966 19 17 28
0.66174 0.42974 1.691 104 102 92
0.794134 -0.364265 1.624 24 12 0
-0.0359595 0.104397 0.377 64 26 15
0.834749 -0.408963 2.151 37 48 48
-0.0117601 0.195837 0.623 160 160 164
0.635499 0.509826 1.505 102 106 99
-0.191577 -0.0899707 1.027 200 199 199
0.332633 -0.0724846 2.365 63 40 39
0.786667 -0.563132 1.567 40 18 8
0.198471 0.332231 1.923 91 82 75
0.393535 -0.0678523 2.338 70 35 32
0.210994 0.425666 1.719 96 89 81
0.428263 -0.918424 2.383 115 106 97
-0.244669 0.182948 0.579 155 166 166
-0.13259 -0.14394 1.122 194 193 193
0.471962 0.321235 1.842 92 101 92
-0.750734 -0.665127 1.763 132 143 124
-0.204552 -0.571261 1.859 161 153 152
-0.451162 -0.129288 1.106 143 139 132
-0.170356 -0.388378 1.422 0 93 99
-0.207567 -0.0171007 0.888 198 197 199
-0.248163 0.196313 0.574 155 158 161
0.41005 0.535186 1.487 87 91 84
0.494614 0.324387 1.826 115 116 110
-0.0311644 0.135154 0.364 48 25 22
-0.276802 -0.112085 1.079 201 201 197
0.789084 0.263903 1.603 102 111 104
0.546214 0.521031 1.502 89 91 82
-0.0649454 0.0309508 0.821 200 194 196
0.395293 0.48988 1.583 96 94 84
0.341036 0.16498 2.196 51 47 50
0.793229 -0.217566 1.763 27 12 2
-0.292179 -0.0220394 0.913 195 195 197
-0.0736242 0.125609 0.349 46 22 6
0.602327 0.539556 1.466 88 93 79
0.545238 0.498928 1.555 94 95 86
-0.0593367 -0.118005 1.085 195 194 194
0.176789 0.0551427 2.392 37 35 27
-0.481502 -0.309974 1.372 165 162 159
-0.280523 0.0676792 0.669 143 140 156
-0.163102 0.0502432 0.75 195 194 196
0.898887 0.0381162 1.779 31 12 0
0.25073 -0.152849 2.55 54 25 13
-0.274657 0.0179583 0.779 97 88 95
0.842841 -0.812178 2.181 26 7 1
0.823795 0.193172 1.668 119 125 123
0.309206 0.374172 1.837 93 88 84
-0.3394 0.00343663 0.667 102 91 82
-0.358687 -0.11363 1.077 194 193 193
0.511416 0.264852 1.911 108 110 99
-0.603323 -0.633166 1.997 143 136 126
0.370819 0.200764 2.121 46 35 30
0.599436 0.48361 1.571 88 93 81
-0.148507 0.0711693 0.715 200 199 201
-0.0146836 0.224436 0.618 112 118 118
0.417427 0.493781 1.579 90 91 82
0.870505 -0.15473 1.734 27 13 5
0.355867 -0.22935 2.719 11 10 10
0.506109 -0.532759 2.561 90 82 81
0.0328473 -0.208562 1.31 153 149 152
0.128861 0.157069 2.236 96 87 92
-0.49589 -0.19943 1.169 192 196 191
0.685308 -0.18047 2.53 27 22 18
0.474828 0.513986 1.532 93 95 86
0.391974 0.276421 1.905 20 17 12
0.210238 -0.0148112 2.374 24 23 25
-0.255721 -0.315883 1.359 14 115 103
0.852731 -0.70387 2.004 31 31 25
0.549755 0.519622 1.505 94 96 87
0.0243556 0.190734 0.813 161 161 157
0.357736 0.549496 1.442 89 93 86
0.021694 -0.203945 1.281 161 158 155
-0.29066 0.124307 0.596 53 32 31
-0.32076 0.00392611 0.762 199 202 205
-0.559165 -0.330586 1.393 173 174 168
0.784181 -0.581119 1.547 45 19 4
-0.102396 0.107111 0.638 131 106 88
0.20873 0.288899 1.991 91 89 79
-0.0819767 0.105521 0.366 81 45 35
0.853535 -0.712793 2.128 22 8 0
-0.0754854 -0.0408291 0.935 198 194 195
-0.0552423 0.111015 0.355 82 41 33
-0.171873 0.117045 0.63 117 109 95
0.840137 -0.810647 2.374 89 87 75
0.567185 0.503812 1.539 89 97 86
-0.0348723 -0.155287 1.152 129 125 126
-0.239835 0.0201253 0.765 56 55 57
-0.357879 -0.124552 1.096 193 196 195
-0.0592535 0.140043 0.632 192 192 194
-0.468669 -0.0358378 0.924 197 208 208
0.449441 0.51383 1.539 95 96 87
0.650054 0.539556 1.466 103 111 100
-0.00682903 0.217518 0.636 106 114 115
0.155249 0.457519 1.633 88 84 75
0.840777 -0.462148 2.312 13 8 4
0.547014 -0.565014 2.519 95 88 80
-0.000847362 0.0300699 0.873 176 170 172
0.821403 -0.183627 1.714 22 14 2
0.828363 -0.394598 2.228 32 39 45
0.336155 0.379803 1.821 92 88 81
0.0565355 -0.286979 1.484 140 136 137
-0.0659986 -0.0360705 0.93 198 192 196
0.323619 -0.294957 2.672 26 17 20
-0.162586 -0.66081 1.899 184 182 172
0.811882 0.241775 1.612 111 118 110
-0.221749 0.00159977 0.843 92 83 88
-0.470687 -0.0424412 0.937 193 199 199
0.280524 0.355596 1.865 91 87 76
-0.14693 -0.750419 2.024 175 168 162
0.719423 -0.294957 2.672 68 61 51
0.0231852 -0.176493 1.249 162 158 159
0.287576 -0.718034 2.44 110 99 92
0.632585 -0.861724 2.294 103 101 93
0.302285 0.419702 1.729 90 88 80
0.839146 -0.0138682 1.763 34 8 4
0.333887 0.16498 2.196 61 56 54
-0.0816295 0.056571 0.753 202 198 201
0.595609 0.529347 1.491 86 94 83
0.265523 -0.87755 2.42 101 92 85
0.696735 0.160213 2.044 111 120 111
-0.616333 -0.678032 2.085 167 164 159
-0.417668 -0.856389 2.32 53 27 14
0.602108 0.383828 1.758 61 58 55
-0.15833 0.0934778 0.659 197 196 196
0.179181 0.368385 1.853 88 83 79
0.622299 0.493795 1.539 95 100 90
-0.205098 -0.272766 1.291 20 116 110
-0.249418 -0.148644 1.13 184 176 173
-0.0444276 0.169473 0.612 169 168 170
-0.0391479 0.018019 0.841 190 186 187
-0.322316 -0.00491004 0.787 193 199 199
-0.050519 -0.659848 1.87 183 178 176
-0.237606 -0.368777 1.409 9 121 110
-0.60558 -0.345111 1.406 147 157 143
-0.681742 -0.308618 1.366 179 185 183
-0.244995 0.142449 0.603 177 181 176
-0.234123 0.0643676 0.717 197 196 196
-0.223377 0.183264 0.58 165 171 169
0.836863 -0.301053 2.54 50 47 44
-0.124473 -0.0977852 1.039 199 195 198
-0.320491 0.010695 0.717 149 144 140
-0.200325 -0.0901459 1.029 201 200 200
0.587348 -0.349706 2.626 70 66 59
-0.505319 -0.430807 1.646 167 164 159
-0.257913 0.181377 0.577 145 153 150
-0.0690793 0.121633 0.349 55 22 5
-0.0726275 0.121531 0.632 103 96 90
0.0351398 -0.652561 1.893 176 173 168
-0.0733953 0.0800086 0.732 201 195 197
-0.68134 -0.72416 1.997 147 149 138
-0.244644 0.137467 0.607 150 159 152
0.185911 0.514993 1.535 97 94 89
0.833498 -0.243193 1.997 51 52 25
0.101793 0.465292 1.587 87 82 78
-0.141825 0.133401 0.611 202 199 196
0.615698 -0.0486409 2.329 8 11 10
0.668325 0.546477 1.459 101 105 98
0.766658 0.524519 1.498 100 112 102
0.488899 -0.268867 2.672 59 48 41
0.457186 -0.207811 2.615 69 30 26
-0.253246 0.0858003 0.666 141 134 126
-0.492506 -0.150165 1.114 199 205 203
-0.0110173 -0.667145 1.882 181 173 170
0.773185 0.21901 1.7 101 96 94
-0.320093 0.0564103 0.652 187 200 199
0.878 -0.553013 2.253 15 5 3
0.122015 -0.247307 2.004 104 95 98
0.804457 -0.399869 1.587 26 13 2
-0.523919 -0.144698 1.1 155 163 162
0.30895 0.448605 1.659 97 93 84
