ply
format ascii 1.0
comment Created by Open3D
element vertex 1343
property double x
property double y
property double z
property uchar red
property uchar green
property uchar blue
end_header
0.828871 -0.313993 2.479 84 82 74
0.93702 -0.211387 2.66 75 73 65
0.743095 0.523254 1.682 95 99 94
1.03281 -0.368911 2.064 3 16 3
-0.310443 0.169123 0.618 59 70 68
-0.161964 -0.727264 2.392 55 27 10
-0.609016 -0.891775 2.374 55 27 10
-0.228782 0.161367 0.623 118 111 103
-0.280838 0.0747258 0.694 88 72 65
-0.254525 0.124625 0.607 182 188 190
1.03938 -0.039862 2.261 12 7 3
-0.0860464 -0.269607 1.406 0 101 97
-0.398073 -0.813572 2.338 44 23 20
0.830323 -0.857322 2.253 104 104 98
-0.220947 0.0707014 0.76 56 55 55
-1.29083 -0.866117 2.489 30 22 19
-0.338508 -0.8261 2.374 51 25 12
0.382009 0.471112 1.842 92 88 79
-0.0686188 0.0653678 0.817 154 150 155
0.861146 -0.675389 2.347 92 92 86
-0.212288 0.129063 0.66 163 160 157
0.460653 0.471668 1.821 82 83 74
-0.0562225 -0.102235 1.167 161 152 147
0.697631 0.158294 2.107 8 11 14
0.950525 0.153279 1.997 11 24 19
-0.064843 -0.246712 1.393 0 84 86
-0.230304 -0.625209 2.374 126 117 108
0.436577 0.11225 2.365 48 37 32
-0.0624067 0.0895217 0.773 197 193 196
-0.424855 -0.134978 1.205 192 192 192
0.88677 0.279724 2.092 6 7 3
-0.21404 -0.565411 2.244 160 153 147
0.963318 -0.50928 2.392 83 83 79
0.574012 -0.683609 2.459 108 101 95
-0.182779 0.0569952 0.793 55 55 57
0.351925 0.51107 1.724 93 91 79
-0.174394 0.162662 0.628 194 194 194
0.731572 0.136141 2.136 8 11 10
0.213449 -0.282522 1.739 125 120 118
-0.291108 0.211745 0.591 153 171 169
0.297677 0.588427 1.571 85 90 80
0.921235 0.241868 2.004 22 13 16
0.840998 -0.259718 2.54 81 74 66
0.135103 -0.120844 1.33 152 148 149
-0.0963529 0.0843088 0.783 199 195 198
0.329843 0.0526857 2.459 44 38 40
-0.0975951 0.0433811 0.914 205 196 199
0.586073 -0.835801 2.347 115 111 102
-0.0812133 -0.173946 1.26 173 173 167
-0.0662966 -0.188438 1.289 47 137 136
1.01807 0.0124224 2.411 8 5 0
0.0627161 -0.142861 1.189 172 169 164
0.521603 0.56485 1.591 83 84 78
-0.237134 0.187067 0.586 164 172 169
0.318913 -0.693735 2.294 91 86 82
-0.0739131 -0.242178 1.393 0 72 74
-0.691121 -0.767916 2.338 174 171 168
-0.192733 0.145536 0.652 127 113 98
-0.299948 0.178728 0.613 139 159 154
-0.310649 0.194141 0.599 168 188 183
-0.657874 -0.829231 2.383 167 165 155
0.0609375 -0.713497 2.151 180 144 78
0.744711 0.551419 1.62 99 104 92
0.644117 0.401077 1.837 100 101 97
-0.239105 0.0524538 0.783 140 141 154
-0.289244 0.114178 0.62 192 202 205
0.445455 0.0317873 2.392 49 18 16
-0.128384 0.168464 0.623 183 183 183
0.62328 0.0688506 2.329 66 31 28
0.985622 -0.165692 2.085 31 22 15
0.412465 0.512385 1.719 91 89 81
0.347313 0.458784 1.865 92 90 82
-0.161735 0.200324 0.6 177 180 179
0.469056 0.534309 1.691 88 90 81
0.419575 0.226842 2.356 71 68 65
0.897737 0.288262 1.842 31 24 16
-0.618641 -0.426638 1.62 180 183 182
1.00632 -0.293455 2.347 20 4 1
0.0629217 0.111382 0.833 168 167 169
0.921741 0.250019 1.991 14 10 11
-0.95565 -0.893039 2.43 54 28 17
0.766889 -0.536866 2.411 98 89 80
-0.0420289 -0.45067 1.899 143 139 130
-0.305722 0.213989 0.584 158 176 183
0.272338 0.350305 2.107 83 78 76
-0.285446 0.150043 0.614 74 73 73
0.77027 0.41361 1.763 53 65 55
0.0227418 -0.472388 1.887 158 150 147
-0.0119186 -0.0593089 1.11 195 191 192
0.736656 0.00846715 2.402 55 22 21
-0.21653 0.187587 0.603 172 178 180
0.197232 -0.478396 1.911 157 151 153
-0.229149 0.181623 0.59 170 174 169
0.455123 0.255469 2.303 70 65 61
1.02094 0.0379512 2.294 5 5 5
1.04206 -0.373766 2.212 22 13 6
-0.712738 -0.298395 1.583 72 90 67
-0.0606486 0.00671868 0.991 198 194 197
1.03713 -0.692016 2.128 16 7 0
0.923993 0.229509 2.01 66 69 72
-0.517563 -0.31765 1.539 185 189 182
0.0935259 -0.0711497 1.187 170 166 171
-0.187401 0.064946 0.78 61 61 57
-0.133694 -0.733381 2.374 61 32 20
0.87557 -0.139042 2.684 62 60 52
-0.294433 -0.366753 1.763 168 160 157
0.258371 0.466844 1.837 87 85 77
-0.543811 -0.130037 1.178 186 192 192
0.796854 0.530804 1.646 96 104 91
0.841437 -0.831338 2.356 99 103 98
0.393569 0.521754 1.686 85 86 75
0.614917 0.33758 2.071 111 112 106
1.01013 0.0645857 2.312 9 12 13
0.786196 -0.318837 2.55 88 81 71
-0.325984 0.0855427 0.664 64 52 52
-0.377151 -0.0345138 1.018 200 203 206
0.125171 -0.0204158 1.158 152 148 151
1.00258 -0.536475 2.143 37 30 20
0.895991 0.0902266 1.779 21 10 3
-0.242649 0.165837 0.617 109 111 98
-0.310945 0.152784 0.617 66 68 78
0.627648 0.375623 1.905 102 111 104
-0.0106942 0.192876 0.62 187 181 185
-0.163286 0.225023 0.588 157 158 154
1.00626 -0.323159 2.519 71 69 57
-0.137707 0.0864135 0.779 108 107 116
-0.2843 -0.0103536 0.931 173 173 169
-0.559458 -0.274904 1.484 129 131 122
-0.186034 -0.0987747 1.171 161 152 145
1.00605 -0.589745 2.212 17 8 0
0.998306 -0.0633607 2.459 10 9 9
0.00965359 0.146084 0.385 55 30 21
0.825403 -0.692114 2.365 97 97 91
-0.558944 -0.491922 1.729 166 166 162
-0.437083 -0.520613 2.121 158 155 150
-0.391785 -0.0077404 0.984 195 198 197
0.503488 0.408282 1.87 17 19 10
0.974856 -0.192896 1.917 16 38 22
-0.258967 0.0627517 0.699 97 88 71
0.00175258 0.0963158 0.767 198 194 195
1.03607 -0.0698181 2.278 17 10 4
0.346708 0.238344 2.356 76 73 70
-0.268088 0.099912 0.652 190 200 203
0.00708832 0.149573 0.68 177 172 170
0.444073 0.351216 2.092 44 44 40
-0.507358 -0.257201 1.439 154 156 147
-0.0318882 0.185813 0.62 178 175 172
0.975441 -0.0978327 2.085 23 19 12
-0.514138 -0.334463 1.559 167 171 164
0.513083 0.525899 1.673 84 85 81
-0.149526 -0.510319 2.107 172 164 163
0.219695 -0.39255 1.917 134 126 125
0.598129 -0.693806 2.411 109 105 98
-0.190822 0.153751 0.642 192 196 191
-0.213058 0.225023 0.588 142 149 143
-0.758026 -0.658434 1.985 141 149 138
-0.72558 -0.494869 1.691 138 148 136
0.121675 0.0230754 1.077 150 149 151
-0.26589 -0.870175 2.347 63 28 11
0.051037 0.134067 0.776 167 166 168
0.584231 0.591032 1.551 87 95 82
0.480347 0.299369 2.212 62 59 54
0.996264 -0.491894 2.004 47 40 30
0.775709 -0.739352 2.32 102 103 92
-0.230222 0.103728 0.656 182 182 184
-0.0543201 0.0630925 0.822 154 147 156
-0.107239 0.0596384 0.849 197 191 195
0.00458969 -0.0951257 1.173 153 143 143
-0.140082 0.16523 0.63 198 198 194
0.70017 -0.725194 2.411 106 102 95
-0.182196 0.106232 0.724 177 172 170
-1.25525 -0.915702 2.459 35 21 17
-0.0446692 0.13051 0.378 76 40 19
0.541012 0.339862 2.085 100 92 89
0.0626124 0.272535 0.734 137 140 143
0.921741 0.217619 1.991 93 113 96
-0.237336 0.172742 0.606 178 182 175
-0.563892 -0.219701 1.366 146 154 143
-0.392838 -0.304983 1.551 159 155 148
-0.238589 -0.104135 1.167 168 163 161
-0.116299 0.151555 0.646 115 108 98
0.730689 0.550138 1.624 91 96 82
0.0744397 0.258874 0.783 151 157 155
-0.166581 0.088711 0.766 69 72 89
-0.22447 0.0274338 0.928 203 199 200
-0.0303764 0.121333 0.384 82 47 32
0.711312 -0.234325 2.626 71 67 58
-0.457966 0.012691 0.955 179 185 187
-0.315569 -0.109598 1.185 171 162 157
-0.530252 -0.267526 1.47 117 122 112
-0.0579199 0.160563 0.64 179 179 173
-0.0350057 0.133879 0.367 188 180 179
0.238619 -0.815812 2.312 37 23 17
0.0304353 0.137936 0.736 180 179 183
0.782934 0.383818 1.826 39 40 55
1.02951 0.00453933 2.392 6 6 0
-0.32914 -0.463929 2.01 166 157 152
-0.550521 -0.415132 1.637 113 111 99
-0.522798 -0.06949 1.072 148 161 148
-0.282374 0.0657855 0.695 123 111 95
-0.615493 -0.268921 1.491 184 191 185
0.575168 -0.888395 2.365 114 112 104
-0.308462 -0.756582 2.411 50 26 10
0.0368015 0.0955438 0.825 186 182 185
0.364815 -0.714065 2.374 93 83 81
-0.152138 0.0859698 0.775 151 151 155
-0.396718 -0.0739628 1.141 156 148 145
-0.709716 -0.330172 1.516 89 97 82
-0.159769 -0.285516 1.452 7 114 109
0.3559 0.179705 2.392 13 13 15
0.0347496 0.11557 0.779 182 181 185
-0.157015 0.0876928 0.768 141 138 152
0.62307 -0.560076 2.479 97 94 91
0.330476 0.343408 2.128 85 77 74
0.0560476 -0.675754 2.099 171 139 105
-0.19898 0.157984 0.638 177 177 171
-0.974439 -0.678393 2.196 151 154 155
-0.375722 -0.834514 2.365 48 24 10
0.596442 -0.481477 2.469 95 90 86
-0.161354 -0.825354 2.383 61 29 7
-0.324074 -0.142013 1.232 176 174 166
0.51527 0.452392 1.815 15 28 27
0.526797 0.456278 1.784 24 39 36
-0.758546 -0.334444 1.449 122 137 123
-0.408067 -0.895639 2.374 42 27 15
0.0723482 0.214448 0.761 124 124 128
-0.288551 0.122263 0.61 189 200 209
0.402762 -0.296729 2.649 72 67 63
-0.714713 -0.286289 1.532 131 141 127
-0.110433 0.0050957 0.989 198 194 195
0.856269 -0.188174 2.638 73 73 67
0.756639 0.443906 1.758 115 123 112
-0.710634 -0.596556 1.853 165 177 169
0.00643538 0.144186 0.38 58 24 14
-1.30822 -0.869597 2.499 36 24 22
-0.748298 -0.328048 1.452 125 132 126
0.0350893 0.164028 0.709 175 171 174
-0.166667 0.0780374 0.784 56 63 67
0.397973 -0.760505 2.411 97 90 82
-0.0228008 -0.0594158 1.112 190 189 191
-1.15184 -0.798889 2.469 47 27 19
-0.161474 0.100944 0.737 194 193 195
-0.294875 0.158809 0.617 88 96 93
-0.257149 -0.248483 1.403 152 160 161
0.316633 0.397013 1.997 87 83 72
-0.472698 -0.467308 1.831 153 149 140
1.04061 -0.692044 2.107 17 8 1
-0.0283282 0.000267411 0.989 193 192 194
-0.213431 0.147942 0.644 159 162 146
0.600951 0.448038 1.763 111 120 113
-0.0124769 -0.0923427 1.162 149 141 140
-0.192766 0.0874645 0.766 107 99 85
-0.00810285 -0.0437671 1.083 192 188 189
-0.180511 0.19183 0.604 179 182 181
0.313385 0.235406 2.365 68 68 62
-0.22356 0.11106 0.668 160 159 166
-0.227442 0.0245713 0.934 203 202 202
-0.0596576 0.0904273 0.77 197 191 195
0.181798 -0.850508 2.356 71 72 66
0.55369 -0.531412 2.44 101 94 84
0.607302 0.497042 1.724 99 107 108
0.594417 0.173828 2.365 3 6 5
-0.298387 0.202187 0.594 152 164 168
0.990805 -0.159613 2.402 17 8 1
-0.761841 -0.388229 1.502 121 136 133
-0.0468844 -0.108303 1.171 175 170 166
0.509663 -0.828162 2.347 112 110 102
-0.223476 0.0703293 0.756 56 52 53
0.822941 -0.663931 2.347 100 96 87
-0.00463561 -0.405959 1.784 167 160 154
-0.164624 0.0478156 0.86 189 179 167
0.815832 0.0086011 2.44 23 26 25
-0.00285308 -0.0550941 1.098 189 188 190
-1.09915 -0.891692 2.459 49 24 17
-0.0345781 -0.221274 1.362 144 153 144
0.387954 0.380449 2.03 45 48 47
0.0796467 -0.877319 2.286 112 134 114
1.02854 -0.0886637 2.286 13 15 6
-0.00724779 0.13639 0.675 198 194 197
0.407449 0.334268 2.114 44 42 34
-0.0967965 -0.249515 1.396 0 109 101
0.375373 0.474709 1.81 94 90 83
0.320397 -0.403453 2.278 81 74 68
-0.557989 -0.38973 1.62 159 160 156
-0.352624 -0.892243 2.365 50 24 11
-0.72114 -0.500269 1.7 140 149 129
-0.51804 -0.881633 2.347 59 36 15
0.622836 -0.888848 2.356 114 109 105
0.198471 -0.415684 1.923 119 119 119
0.754582 0.390366 1.815 123 133 121
0.998733 -0.26524 2.269 15 7 6
-0.704423 -0.918424 2.383 52 28 5
-0.178006 -0.0824599 1.156 196 195 195
0.842043 0.0579247 2.347 18 11 5
0.914551 0.239072 1.81 21 11 0
-0.239636 0.149772 0.617 60 43 43
0.598193 0.550057 1.616 82 90 79
-0.331231 0.0119335 0.898 199 199 199
-0.022745 0.146525 0.647 131 109 99
0.412939 0.479271 1.794 96 87 80
-0.291714 0.0328918 0.693 106 97 78
0.285854 0.528728 1.682 91 87 78
-0.351458 -0.114506 1.176 186 186 186
0.0432585 0.157007 0.73 165 165 167
0.677115 -0.242872 2.626 73 69 60
-0.232619 -0.879042 2.32 55 26 12
-0.0577669 0.144032 0.65 143 119 103
-0.0278442 0.106147 0.757 199 195 198
-0.231474 0.139052 0.614 71 74 75
0.975166 -0.417597 2.402 85 80 76
-0.00533136 0.129066 0.381 68 29 9
0.279197 -0.599467 2.107 137 129 128
0.0340804 0.125778 0.764 187 186 188
0.0416701 0.113345 0.79 177 176 178
0.038444 -0.643148 2.071 168 163 159
0.852328 -0.853655 2.253 103 104 95
-0.132169 0.175878 0.617 198 198 194
-0.0740723 -0.263146 1.396 0 92 111
-0.312723 0.188569 0.603 159 173 175
0.621401 0.351927 2.037 104 103 103
0.0410778 0.0961229 0.83 185 181 184
-0.153016 -0.841553 2.374 58 26 6
0.798875 0.460237 1.744 99 112 109
-0.210509 0.176882 0.617 169 173 168
0.322528 0.264905 2.32 74 71 68
-0.144737 -0.849908 2.365 55 26 5
0.397973 -0.733041 2.411 96 89 83
0.571069 0.304311 2.121 63 28 25
0.128815 -0.161724 1.403 160 156 157
-0.0115333 0.126586 0.381 78 35 10
-0.701027 -0.216992 1.452 170 179 172
-0.36368 -0.524295 2.136 163 158 156
-0.833547 -0.681425 2.085 153 157 152
0.837602 -0.82367 2.356 99 104 94
-0.278579 0.195092 0.593 166 179 178
-0.448255 -0.164955 1.254 150 155 143
0.483288 0.491072 1.763 91 89 79
0.248974 -0.698027 2.236 129 127 119
0.936508 -0.072124 1.941 37 29 17
0.522784 -0.0284807 2.561 46 27 23
0.950965 -0.046103 2.615 82 87 75
-0.383422 -0.880697 2.365 46 23 4
0.0376337 0.201398 0.672 171 174 175
-0.021632 -0.0323345 1.055 193 190 187
-0.106313 0.176978 0.607 176 172 175
1.00257 -0.562335 2.261 27 15 15
0.767646 0.536609 1.664 97 104 96
-0.167627 0.116344 0.693 198 195 192
-0.0363329 -0.0756867 1.139 193 189 192
-0.199371 0.0130631 0.983 196 195 197
0.0258987 -0.131031 1.187 1 89 86
0.636689 0.513761 1.705 67 74 66
-0.0736563 0.16884 0.632 197 197 199
0.419575 0.23451 2.356 72 69 66
0.935179 0.202772 2.071 29 21 9
0.732235 -0.318837 2.55 90 86 77
0.358951 0.0133034 2.582 91 59 25
-0.467537 -0.266568 1.439 146 148 137
0.310713 0.124267 2.374 35 30 40
-0.331349 0.0424825 0.684 108 89 74
-0.466717 -0.576696 2.099 137 133 124
0.726384 -0.896516 2.356 111 108 103
0.722573 0.136888 2.204 2 5 4
0.417746 0.413691 1.953 94 106 98
0.75323 -0.735488 2.356 103 104 93
0.912024 0.253098 1.805 22 11 6
-0.28436 0.215088 0.587 155 172 175
0.0516227 0.246223 0.669 109 112 115
-0.0731713 -0.458294 1.905 155 147 144
-0.237002 0.0554858 0.772 142 144 150
0.669973 -0.28082 2.582 77 70 62
-0.421098 -0.341328 1.591 170 167 164
0.0318947 0.15029 0.715 179 175 178
0.89176 0.0914989 1.748 27 8 2
-0.0549347 0.134773 0.667 195 191 194
0.563745 0.397464 1.848 16 17 13
0.545067 -0.910111 2.402 118 114 107
-0.114509 0.092692 0.768 192 188 191
0.447791 0.476335 1.805 85 83 73
0.670022 -0.254621 2.615 71 69 57
0.476208 -0.319792 2.626 78 69 62
0.0612545 -0.861724 2.294 89 95 78
0.301432 0.398404 2.004 83 81 71
0.982313 -0.205715 2.078 52 47 29
0.0251901 0.142559 0.723 178 174 179
0.768438 -0.442037 2.519 89 89 83
-0.607043 -0.106915 1.156 146 154 143
0.089758 0.09523 0.898 170 166 167
0.790946 0.575206 1.591 104 106 97
0.98544 -0.152849 2.55 52 53 42
0.322461 0.241253 2.347 71 68 63
0.98544 -0.248292 2.55 33 29 34
-0.266605 0.196025 0.59 140 148 147
0.536671 0.430544 1.848 19 26 20
0.239164 -0.450107 1.923 118 113 111
-0.0836207 0.122863 0.698 195 194 196
-0.111213 0.146525 0.647 151 142 137
-0.212305 -0.128667 1.201 48 56 55
-0.414821 -0.113167 1.182 189 190 186
-0.208709 0.156454 0.636 171 179 176
0.56429 -0.481477 2.469 98 89 84
-0.859585 -0.918424 2.383 48 27 22
0.307879 -0.302197 2.189 77 70 62
1.04102 -0.360924 2.136 18 21 5
-0.261182 0.21085 0.578 176 191 190
-0.418141 -0.0406149 1.005 112 117 107
0.549575 0.387072 1.947 52 55 58
0.921647 0.100704 2.365 11 13 4
-0.188808 0.227506 0.587 161 169 170
0.444416 -0.0120593 2.615 33 23 11
-1.11165 -0.839068 2.469 42 27 17
0.991691 -0.25237 2.253 14 9 5
-0.27334 0.163563 0.616 76 72 77
0.292316 -0.769555 2.32 35 20 19
-0.193096 -0.173118 1.254 97 149 145
-1.1444 -0.850535 2.479 36 22 14
-0.0377137 -0.258602 1.396 1 92 97
0.503391 0.521698 1.677 86 87 83
0.0364445 -0.428362 1.805 167 160 154
-0.183024 0.0741152 0.783 117 108 111
-0.297033 0.102463 0.648 188 199 199
1.01422 -0.0507503 2.43 6 6 2
-0.265411 0.0237727 0.851 190 190 192
-0.331869 0.0653524 0.646 106 104 96
0.580019 0.107164 2.338 32 12 13
0.547172 0.407585 1.853 12 18 16
-0.107019 0.120073 0.695 194 193 195
-0.2197 0.0539249 0.825 174 170 175
-0.203789 -0.187851 1.257 49 114 114
-0.183798 0.180312 0.615 188 191 190
0.0380437 0.220615 0.642 171 177 177
0.475412 -0.370872 2.509 80 73 67
-0.327529 0.0435318 0.683 116 107 88
0.949843 -0.0866293 2.684 65 65 61
0.805859 -0.85813 2.236 104 105 94
-0.220437 0.127074 0.634 158 164 164
0.209102 -0.629243 2.092 163 159 152
0.816703 0.495789 1.71 95 105 108
0.852809 0.314292 1.677 91 98 92
0.393351 0.14025 2.383 17 16 20
0.0364471 0.0844077 0.848 185 179 181
0.847681 -0.209638 2.638 79 77 69
-0.00300379 -0.0824599 1.156 188 187 187
-0.261504 -0.419767 1.899 162 158 151
-0.312272 0.207898 0.591 175 189 191
-0.249493 0.182194 0.595 162 171 162
-0.55138 -0.0646465 1.05 130 135 125
-0.740633 -0.342522 1.484 94 107 94
-0.23748 -0.585475 2.294 156 149 143
0.995558 -0.518868 2.128 44 40 31
-0.228815 0.0572068 0.715 142 132 118
0.00396215 -0.388938 1.734 168 163 159
-0.28225 -0.877346 2.356 60 25 8
-0.644115 -0.767053 2.347 176 171 169
-0.25727 -0.150166 1.201 62 87 94
0.204609 0.585194 1.583 84 86 77
0.511449 0.545214 1.633 83 85 74
0.00663233 0.109407 0.754 196 190 192
-0.0766534 0.0567413 0.847 192 188 191
0.0777637 0.266083 0.778 157 160 161
-0.0507304 -0.0391276 1.053 198 194 195
0.69897 0.378723 1.905 122 128 126
1.02945 -0.724944 2.064 17 10 0
-0.297612 -0.00869613 0.916 196 196 196
-0.136882 0.159272 0.639 192 196 191
-0.299974 0.104811 0.643 189 201 203
-0.145587 0.148263 0.65 119 106 93
-0.192012 0.203253 0.6 168 176 175
0.904133 -0.85813 2.236 96 98 89
-0.273367 0.0422161 0.698 114 102 82
-0.324686 0.0996091 0.657 140 157 158
-0.266911 0.0704725 0.708 109 97 97
0.643052 -0.764287 2.374 110 101 94
0.263019 0.542875 1.642 87 84 81
-1.1444 -0.862637 2.479 35 25 11
0.0972089 -0.323483 1.555 169 167 157
-0.109976 0.0173896 0.957 198 197 197
0.82227 0.467961 1.71 108 133 128
-0.0422776 0.0657678 0.822 158 154 159
0.227 -0.43806 1.953 96 87 90
-0.261032 0.12087 0.613 192 202 207
-0.105338 0.0716628 0.813 198 194 197
0.986204 -0.142477 2.044 36 39 23
-0.485301 -0.119736 1.171 183 189 187
0.143008 0.00769496 1.135 77 72 68
0.234738 0.506925 1.729 85 81 72
-0.121442 0.00977346 0.974 197 193 196
0.789504 0.328085 1.899 132 141 134
0.0445609 0.0426729 0.931 191 187 188
-0.186688 0.0250186 0.951 197 196 196
0.136531 -0.588516 1.978 175 172 169
-0.176518 0.111634 0.706 189 184 182
0.275956 -0.525994 1.985 162 158 159
-0.349123 0.0250698 0.695 82 68 60
-0.289145 -0.180836 1.237 126 157 153
-0.16277 -0.0269521 1.046 197 196 196
0.701816 0.161108 2.099 9 12 11
-0.201523 0.12155 0.678 126 122 115
0.665856 0.38371 1.899 110 116 114
-0.269352 -0.300479 1.567 176 174 166
-0.321088 0.111386 0.627 193 204 213
-0.754308 -0.297896 1.432 106 126 119
0.0453494 0.219354 0.657 160 168 169
0.00657668 -0.131031 1.187 95 110 107
0.655926 0.595624 1.524 87 88 82
-1.184 -0.770764 2.469 44 29 19
-0.120712 -0.778511 2.347 59 28 17
-0.540427 -0.295938 1.505 96 99 98
-0.418799 -0.231203 1.409 168 169 160
-0.613265 -0.356741 1.579 163 169 167
0.361346 0.528486 1.664 94 90 83
-0.233914 0.0587942 0.766 151 141 127
1.06029 -0.810359 2.085 17 8 3
-0.639926 -0.587276 1.815 138 148 134
-0.359186 -0.81372 2.383 48 24 10
-0.271895 0.174307 0.615 75 83 80
0.0828767 0.209296 0.803 142 145 144
0.93595 -0.118208 2.707 70 66 55
-0.490102 -0.024427 0.948 139 152 139
0.581321 0.424992 1.837 18 25 19
-0.709727 -0.228402 1.48 146 161 147
0.174677 -0.25728 1.616 140 134 136
0.986298 0.0246745 2.459 7 7 3
0.69463 -0.47893 2.519 95 88 78
-0.314036 -0.264412 1.466 175 170 166
0.102695 0.099355 0.909 136 133 130
0.974266 -0.183241 1.947 24 47 24
-0.154234 -0.158693 1.237 176 176 172
-0.205078 0.136788 0.661 150 146 137
0.461761 0.0773168 2.356 52 42 40
-0.0424319 0.0633227 0.825 150 144 150
-1.07513 -0.81166 2.459 90 89 91
0.921741 0.246779 1.991 16 12 13
0.679077 -0.731156 2.392 107 103 96
-0.118843 0.116048 0.698 194 193 195
0.986681 -0.229015 2.392 33 26 18
0.926004 -0.00335029 2.469 67 65 57
-0.0836882 0.179311 0.615 195 194 194
0.695982 -0.137229 2.649 32 31 31
0.716582 0.128546 2.312 5 4 4
0.556995 -0.28745 2.604 72 69 64
0.856825 0.292259 2.037 6 15 8
-0.293242 -0.79433 2.383 57 23 15
0.781257 -0.639213 2.383 102 95 87
1.02297 -0.687002 2.051 14 6 5
0.975735 -0.126646 2.057 19 20 9
0.00864552 0.197637 0.632 168 173 178
0.934322 -0.762004 2.32 96 98 89
0.810814 0.233727 2.107 12 11 18
-0.242905 0.0215545 0.935 197 194 191
0.399021 0.482406 1.784 88 89 80
-0.441479 -0.0714474 1.025 112 121 114
-0.231564 0.098806 0.666 178 184 186
0.0998499 -0.498535 1.893 172 167 165
-0.309437 0.114816 0.618 192 203 212
-0.300958 0.124215 0.605 191 203 207
0.575168 -0.826816 2.365 116 109 99
-0.140887 -0.849908 2.365 54 24 6
0.0595791 0.0750441 0.884 183 179 182
-0.328949 -0.131927 1.213 183 183 179
-0.461612 -0.0148987 0.931 121 130 121
-0.213572 -0.0383378 1.079 196 195 195
0.932825 0.22084 2.051 81 96 82
-0.214032 -0.830665 2.365 59 26 9
0.630618 -0.265138 2.593 75 71 60
0.350247 -0.5295 2.143 121 114 106
0.261577 0.547872 1.633 86 84 72
-0.0162481 0.17306 0.64 112 112 116
1.04008 -0.354672 2.099 7 22 8
0.807083 -0.446661 2.499 90 88 80
-0.76325 -0.46894 1.677 132 142 126
-0.460483 0.00181611 0.957 112 119 113
0.982228 -0.15212 2.085 28 26 7
-0.201806 0.192494 0.603 174 183 176
-0.0572485 0.00509054 0.988 200 196 199
-0.255686 -0.115529 1.167 180 175 171
-0.460772 -0.583983 2.151 139 130 135
0.659863 -0.769087 2.365 110 103 95
-0.458837 -0.0104981 0.944 119 123 116
-1.09915 -0.839671 2.459 42 26 19
-0.249006 0.122852 0.608 190 200 203
0.468865 -0.223932 2.707 71 62 57
0.737109 -0.622103 2.469 100 96 89
0.199438 -0.866838 2.338 62 62 56
0.600805 0.561079 1.595 80 88 77
0.713127 0.356347 1.935 119 123 118
-0.718873 -0.286481 1.494 131 138 130
0.69607 0.293342 2.092 5 6 2
-0.297885 -0.0238016 0.986 190 190 192
0.939956 0.0823907 2.392 19 14 10
0.623309 0.480213 1.714 108 115 107
0.227497 0.530369 1.696 88 89 85
0.244309 0.540203 1.642 88 83 79
-0.346137 -0.00129045 0.951 200 203 204
-0.201273 0.155841 0.642 172 173 169
1.01573 -0.359103 1.991 6 11 0
0.238619 -0.804525 2.312 38 24 16
0.813471 -0.40112 2.469 89 86 81
0.00526356 0.0219003 0.95 197 193 196
-1.17441 -0.740609 2.449 59 42 44
-0.0621825 0.11201 0.755 199 195 196
0.633451 -0.619259 2.411 102 97 93
0.054861 0.150893 0.759 167 166 168
-0.162269 0.125228 0.68 199 196 191
0.649161 0.20489 2.128 11 11 7
-0.0250454 0.124688 0.379 85 42 17
-0.426679 -0.0502772 1.002 139 146 138
0.893431 0.157551 1.821 16 11 7
-0.00433419 -0.368705 1.668 160 159 159
-0.0857385 -0.039462 1.062 196 195 197
0.582427 -0.274738 2.604 73 68 64
-0.456286 0.00493597 0.958 154 162 159
-0.219062 0.154384 0.636 145 144 144
-0.0265977 -0.692494 2.151 187 155 94
-0.268271 0.111919 0.63 194 202 203
0.0300001 0.163755 0.698 175 175 177
-0.11834 -0.267889 1.409 0 121 113
-0.0807119 0.126892 0.683 202 198 203
-0.257429 0.0894209 0.677 194 202 203
-0.316457 0.150532 0.616 68 73 78
0.387816 0.456971 1.87 90 88 78
0.0511686 0.130615 0.778 169 168 168
-0.0766723 0.15848 0.64 183 183 179
0.350545 0.0133034 2.582 76 49 25
-0.131996 -0.629583 2.278 147 137 135
-0.0825343 0.16292 0.637 196 196 198
-0.59217 -0.748893 2.338 169 169 163
0.363432 0.220012 2.365 67 68 64
0.697251 -0.438527 2.499 92 87 83
-0.264005 0.21179 0.578 168 188 185
0.479391 -0.357507 2.53 80 72 69
-0.00547491 -0.664614 2.107 185 151 102
0.0718386 -0.047085 1.12 188 184 187
-0.293155 0.0626079 0.673 141 127 108
-1.16215 -0.936421 2.44 39 27 27
-0.198622 0.135712 0.661 170 163 155
-0.527356 -0.504667 1.784 145 154 147
0.914048 0.190631 1.947 39 47 48
0.982228 -0.21998 2.085 46 40 27
-0.389633 -0.858176 2.356 44 25 12
0.998578 -0.466815 2.374 79 77 67
-0.142801 -0.0267202 1.037 194 194 190
-0.285555 0.0633522 0.681 114 93 76
0.37342 -0.809997 2.43 99 92 86
0.350054 0.561812 1.612 82 84 73
-0.093341 0.159521 0.64 176 176 176
-0.794508 -0.914955 2.374 60 31 19
0.644218 0.38062 1.899 55 55 59
-0.117019 0.142974 0.65 187 180 133
0.70931 0.226363 2.071 12 13 9
-0.0882929 0.10814 0.737 196 195 197
-0.0745541 -0.0181062 1.027 199 195 196
-0.480025 -0.0911612 1.102 169 176 170
-0.119254 0.0537863 0.866 200 194 196
-0.0920356 0.000270115 0.999 200 196 199
-0.260417 -0.173101 1.225 32 125 120
-0.00198521 0.0959391 0.764 199 195 196
-0.363407 -0.682035 2.411 38 18 10
-0.313461 0.156049 0.618 75 81 83
0.300774 0.499698 1.753 90 88 80
-0.0694091 0.0853644 0.781 197 193 196
-0.201883 -0.016595 1.037 196 195 195
-0.0927606 0.167015 0.629 196 196 198
-0.339228 0.104974 0.644 185 199 203
0.822996 0.517787 1.7 82 95 90
-0.0349992 0.0549054 0.84 183 177 181
0.346406 -0.471592 2.303 87 78 71
0.873828 0.335343 1.805 41 38 24
0.822941 0.0541054 2.347 16 11 7
0.0184244 0.156264 0.69 179 175 176
0.890732 0.337386 1.865 20 16 7
0.0738913 -0.0804675 1.182 184 181 178
-0.159073 0.058374 0.831 164 159 155
-1.1264 -0.916568 2.44 39 23 16
-0.78202 -0.483671 1.7 143 147 140
0.978931 -0.209097 2.078 51 46 28
-0.0253127 0.0935803 0.755 197 193 194
-0.294672 0.0158451 0.872 199 199 201
-0.313961 -0.243184 1.412 176 171 169
-0.177682 -0.00805505 1.024 200 196 199
-0.345226 -0.527976 2.151 168 160 159
-0.272405 -0.00737068 0.937 171 168 165
0.434361 0.550529 1.633 87 92 80
-0.136836 -0.0302695 1.043 194 193 193
0.100444 -0.111452 1.249 160 159 161
0.293878 -0.43493 1.997 96 89 83
0.536671 -0.826816 2.365 113 109 100
0.893465 -0.740565 2.312 97 97 93
-0.387271 -0.884546 2.365 49 24 6
-0.370682 0.0275225 0.931 196 196 196
-0.274254 0.192836 0.592 171 182 182
0.361748 0.0216229 2.572 65 46 31
0.715313 0.00840018 2.383 70 33 28
-0.219394 0.138795 0.631 123 130 134
-0.271895 0.145283 0.615 76 82 82
-0.0523021 0.128529 0.737 197 196 198
-0.179252 0.227506 0.587 149 157 154
0.799471 -0.102743 2.649 11 15 8
-0.0106067 0.108754 0.758 201 195 199
0.087089 -0.866159 2.286 111 136 117
-0.184101 0.0955287 0.751 173 165 162
0.0697327 -0.151291 1.21 163 158 154
0.728787 -0.763916 2.303 109 104 100
0.956768 -0.0406474 2.54 80 82 69
0.561634 -0.69818 2.44 114 104 102
0.374104 -0.627693 2.312 90 85 81
-0.0898066 -0.222998 1.359 93 104 100
-0.00177213 0.136695 0.682 199 195 198
0.290199 -0.435903 1.972 103 96 88
0.0573175 0.233162 0.685 113 119 121
-0.421268 -0.309331 1.535 174 175 171
-0.337648 0.105528 0.641 186 200 204
0.753135 -0.448448 2.509 91 86 82
0.476605 -0.832363 2.392 114 110 103
0.172047 -0.25728 1.616 141 135 137
-0.393937 -0.0483749 1.068 193 196 195
0.421742 0.544197 1.646 86 91 79
-0.0480387 -0.024912 1.032 199 195 198
-0.233983 0.107447 0.64 195 203 204
0.0698012 0.198347 0.747 126 128 134
-0.227533 -0.32908 1.633 164 158 160
0.894645 0.241084 1.848 17 12 10
-0.469594 0.00640004 0.944 119 125 127
0.375258 0.593006 1.543 84 89 79
-0.308195 0.0166212 0.721 104 98 85
-0.619482 -0.20414 1.366 185 192 186
1.02712 -0.600766 2.136 27 8 2
-0.477587 -0.206482 1.324 186 190 183
-0.201079 0.0694847 0.774 50 53 56
-0.313406 0.145571 0.612 66 80 71
-0.31646 0.0970737 0.669 142 156 162
-0.223209 0.105275 0.687 159 152 165
0.567861 -0.275898 2.615 78 71 65
-0.180828 0.170218 0.622 153 153 153
0.948857 -0.31496 2.519 77 79 63
0.696685 -0.0495304 2.572 61 30 30
0.882534 0.305485 1.893 20 11 2
-0.310212 -0.524476 2.151 176 172 165
-0.0592689 -0.224639 1.369 36 96 86
0.531794 0.450924 1.821 11 24 21
0.510346 0.517798 1.691 89 91 80
0.656135 -0.874448 2.338 113 109 102
0.557996 -0.223445 2.649 72 68 61
0.052707 0.15802 0.746 166 166 168
-0.102591 0.005106 0.991 200 196 197
-0.313132 0.0174225 0.88 200 200 202
0.0768746 0.238261 0.795 144 147 150
-0.71231 -0.275789 1.543 124 129 117
0.561127 0.23014 2.204 19 20 14
-0.199389 -0.818373 2.374 61 26 9
-0.267916 0.125406 0.606 175 185 190
0.690347 0.187178 2.085 20 24 19
0.551034 -0.925292 2.411 118 114 107
-0.451489 -0.495495 1.905 142 137 135
0.642837 0.461906 1.729 120 124 117
0.373617 -0.298426 2.626 77 70 64
0.853083 -0.471325 2.479 85 86 75
-0.0869445 0.17178 0.624 197 197 201
-0.282229 0.0866246 0.681 148 162 164
-0.185974 0.112942 0.707 170 163 157
0.531813 -0.668873 2.449 108 101 93
-0.44258 0.0142004 0.952 171 177 175
0.480891 0.434505 1.865 24 25 19
0.0455661 0.032791 0.952 192 188 189
0.449704 0.43963 1.887 90 89 89
-0.0899792 -0.247243 1.396 0 93 88
-0.0468811 0.132879 0.376 78 44 24
-0.120141 0.161897 0.633 185 185 185
-0.153948 0.0945577 0.753 183 177 183
0.338606 0.561964 1.62 82 84 71
-0.485607 -0.718455 2.338 169 155 149
-0.306426 -0.869151 2.365 54 24 8
-0.46799 -0.590338 2.136 124 117 111
0.994605 -0.173862 2.383 9 6 3
-0.0738082 0.136788 0.661 190 189 191
0.631459 -0.675432 2.374 107 100 94
-0.100439 -0.0305597 1.053 194 193 193
0.387049 0.179705 2.392 10 13 12
-0.233381 -0.0827452 1.16 198 197 197
0.541293 -0.0366577 2.55 59 28 28
-0.459133 -0.515714 1.911 130 125 121
-0.435192 -0.0286733 0.988 119 124 114
-0.159274 0.0454877 0.869 170 161 166
-0.0506097 0.00506993 0.984 202 198 201
0.0550121 0.0732725 0.88 186 182 185
0.407651 0.314067 2.189 73 68 64
-0.741873 -0.230798 1.435 88 100 90
0.18923 -0.351991 1.805 137 137 133
-0.371182 -0.0785613 1.154 145 134 138
-0.219668 -0.887591 2.303 54 26 9
0.82824 0.357956 1.677 85 62 61
0.292516 0.410046 1.966 84 80 69
0.715132 -0.524022 2.519 94 90 79
0.566753 0.397464 1.848 15 16 12
-0.0122514 -0.0776763 1.141 190 189 189
0.200419 -0.311303 1.774 132 128 129
-0.0769855 0.165248 0.634 196 196 198
0.753949 0.225598 2.064 8 8 10
0.555509 -0.866356 2.347 117 109 97
-0.0978801 0.105635 0.728 196 195 199
0.433774 -0.855719 2.392 115 113 105
-0.285329 0.198654 0.595 168 181 178
-0.275392 -0.280832 1.516 177 174 169
-0.193912 -0.257017 1.425 95 132 133
0.555275 0.543879 1.629 90 92 83
0.999743 -0.509842 1.985 29 20 15
-0.0238559 0.138152 0.361 62 26 7
-0.450132 -0.218512 1.345 185 186 182
0.322647 -0.693735 2.294 91 86 82
-0.738218 -0.330448 1.484 119 131 121
0.895884 0.267929 1.826 20 11 4
-0.0146539 0.135896 0.366 77 43 31
-0.420065 -0.0641448 1.1 180 184 177
0.51294 -0.226397 2.684 70 65 63
0.564267 -0.243982 2.638 75 68 60
0.536977 -0.174697 2.695 39 35 36
0.659941 -0.840205 2.338 112 108 99
-0.633386 -0.432977 1.624 177 181 174
-0.226026 -0.484632 2.085 165 160 156
-0.280987 0.0719545 0.7 100 91 84
0.745509 -0.183045 2.626 66 62 53
-0.111673 0.0233229 0.945 197 193 196
-0.00489026 -0.461949 1.882 159 152 146
-0.141237 0.124121 0.68 197 196 196
-0.0114235 -0.171077 1.254 6 136 130
-0.231572 0.201634 0.584 158 169 165
0.0286516 -0.160746 1.222 11 136 132
0.729109 0.126155 2.269 4 4 4
-0.647325 -0.457593 1.646 139 148 139
-0.320628 0.0251419 0.697 136 124 108
0.00536241 0.137895 0.392 53 26 4
0.0123583 -0.3895 1.724 170 162 159
-0.0594898 -0.18267 1.278 19 130 126
-0.0396491 0.12351 0.383 88 62 60
0.181185 -0.718 2.253 92 92 88
-0.244673 -0.130037 1.178 178 175 170
-0.336082 -0.0433226 1.072 190 190 186
-0.0622618 0.0115567 0.991 199 195 198
0.316027 -0.78533 2.356 81 69 67
0.22258 -0.277658 1.744 116 111 109
-0.0554499 0.144504 0.376 67 48 31
0.0171554 -0.00137458 1.013 197 193 194
0.740806 0.110541 2.329 9 9 5
-0.0923182 0.169275 0.626 196 196 198
0.839724 0.335268 1.646 103 104 100
0.039519 -0.295839 1.48 0 87 104
-0.338156 0.0816236 0.65 91 93 84
0.057209 -0.36563 1.642 169 164 162
0.110716 0.0688406 0.98 156 151 149
-0.203787 0.173986 0.621 174 177 176
0.372052 0.000707058 2.615 90 64 20
-0.106411 -0.695036 2.286 105 73 53
0.0678272 0.0874934 0.879 168 167 169
0.26342 0.376744 2.064 87 82 80
0.764337 -0.442037 2.519 92 87 83
-0.22979 0.0964566 0.68 162 164 170
0.520025 0.419647 1.853 17 21 14
-0.0559783 -0.877346 2.356 50 24 9
-0.331684 0.034843 0.687 116 97 91
0.742764 0.402181 1.815 135 144 135
-0.879406 -0.892051 2.449 56 31 13
0.70991 0.0429744 2.365 23 12 16
-0.0614901 0.0250975 0.954 202 198 201
0.45287 0.531465 1.682 91 92 83
-0.324798 0.0847165 0.666 52 48 39
0.0389348 -0.00304993 1.022 192 188 189
0.990352 -0.109613 2.42 19 8 3
-0.00168119 0.165477 0.647 104 102 94
-0.119845 0.0664879 0.831 196 191 189
-0.0791233 -0.472302 1.899 162 158 149
-1.2121 -0.637738 2.294 156 159 160
-0.600249 -0.221631 1.378 165 177 167
0.701559 0.281234 2.078 3 6 7
0.979511 -0.466846 2.037 34 31 26
-0.25296 0.0804885 0.695 192 198 198
0.8308 -0.346061 2.449 85 83 75
1.04223 -0.583031 2.44 83 81 73
0.988931 -0.506686 2.092 45 41 34
0.606441 0.544852 1.624 84 89 79
-0.58623 -0.235788 1.409 149 159 147
-0.0328911 0.126484 0.377 80 42 17
1.02053 -0.0243437 2.189 19 20 11
-0.0282699 0.121168 0.736 197 196 198
-0.101577 0.151555 0.646 118 107 100
0.912219 -0.230052 2.626 82 74 73
-0.0347015 0.140661 0.654 187 186 186
1.00238 -0.376016 2.489 79 75 68
0.517643 0.496845 1.753 12 21 31
-0.040869 0.132005 0.377 82 44 19
0.0138278 -0.555102 1.929 185 177 176
0.23338 0.512385 1.719 83 81 73
0.999276 -0.508187 2.03 41 26 27
-0.287608 0.0674864 0.678 129 123 108
-0.52031 -0.514967 1.81 155 154 154
-0.0672019 -0.721934 2.22 179 145 92
0.89935 -0.0201845 1.815 108 89 64
-0.000992603 0.131269 0.382 59 23 4
0.83828 -0.227756 2.649 82 80 72
-0.25016 0.126392 0.606 130 132 138
-0.250566 0.0331521 0.843 188 188 190
-0.39041 -0.484819 2.057 169 164 162
1.0064 -0.444231 2.278 18 7 0
0.861154 -0.00336386 2.479 62 23 21
0.914632 -0.690666 2.347 94 96 87
0.042072 0.0646067 0.879 187 181 185
-0.332947 -0.0411902 1.062 186 187 183
-0.0536505 0.0998555 0.756 200 197 194
-0.159515 0.204864 0.599 177 183 181
-0.152477 0.0359049 0.913 200 194 196
-0.243042 0.155043 0.618 64 41 40
-0.211177 0.159332 0.631 170 176 174
-0.292971 0.00887037 0.884 197 197 193
1.04008 -0.805553 2.099 12 8 0
-0.538516 -0.777106 2.32 169 170 166
0.537379 0.357801 2.071 79 88 81
-0.396784 -0.576852 2.204 173 166 158
-0.0933603 -0.133017 1.205 163 158 154
0.987193 0.0874616 2.32 26 15 6
-0.323925 0.0788213 0.662 61 47 39
-0.0557514 -0.72485 2.196 159 130 75
-0.203702 -0.0441308 1.092 196 195 197
0.473018 -0.876322 2.374 113 109 102
0.514732 0.594543 1.547 83 85 76
-0.309821 0.185256 0.605 155 172 175
-0.741314 -0.362064 1.505 148 156 155
0.279858 -0.462624 1.923 129 120 123
1.00231 -0.291452 2.459 67 69 60
-0.144737 -0.765238 2.365 58 29 15
-0.97547 -0.845096 2.44 122 115 105
-0.181769 -0.0824599 1.156 194 193 193
-0.173137 0.117744 0.688 198 195 190
-0.712575 -0.300464 1.491 131 138 132
0.960758 -0.754453 2.32 96 97 88
-0.11735 0.149453 0.646 120 106 98
-0.24809 0.223243 0.576 137 144 152
0.48455 -0.155814 2.672 33 32 32
0.155552 -0.441177 1.859 152 144 141
0.592815 -0.79133 2.374 113 109 102
-0.0353458 0.128324 0.377 76 40 19
0.505843 0.0579247 2.347 70 34 34
0.0249593 -0.643148 2.071 171 160 155
0.722062 0.515268 1.71 66 70 63
0.286546 0.51798 1.719 92 88 79
-0.566384 -0.0842928 1.106 156 171 157
0.442478 -0.722004 2.44 98 89 84
-0.44802 -0.029331 0.957 159 158 158
0.750405 0.418537 1.784 94 95 91
0.374698 0.52332 1.7 91 89 79
0.0104512 0.104642 0.764 190 184 186
-0.0807793 -0.10206 1.165 167 157 155
1.01005 -0.298644 2.42 43 34 39
0.573088 0.499738 1.714 84 78 82
1.02563 -0.53249 2.374 63 59 60
1.01599 -0.407178 2.037 3 19 8
0.787489 0.445169 1.763 85 100 86
-0.317204 -0.0744814 1.149 198 198 192
-0.0102435 0.0188876 0.954 193 189 192
-0.481882 -0.00420578 0.912 115 123 110
0.843168 -0.79149 2.329 99 100 91
-0.0586314 -0.148205 1.217 28 124 118
-0.0952874 0.185562 0.606 183 183 185
0.750252 0.382427 1.848 136 144 133
1.00954 -0.653607 2.173 25 6 0
0.985114 -0.160323 2.604 61 62 53
0.440538 0.383073 2.044 75 85 88
-0.368696 -0.0242361 1.004 206 207 203
-0.0285195 0.126148 0.376 83 45 18
-0.646071 -0.359554 1.603 126 128 115
-0.490641 -0.138093 1.198 155 160 148
-0.177168 0.0607131 0.791 56 56 52
-0.47266 -0.542762 1.941 123 115 114
0.83278 -0.586128 2.42 92 92 86
0.00961306 0.205584 0.628 172 175 178
0.0749511 0.0639522 0.932 172 166 168
0.73138 0.570028 1.591 93 97 90
0.101482 -0.310943 1.543 171 164 156
-0.157034 0.0385357 0.905 199 190 193
0.523844 0.459494 1.774 30 50 45
-0.143759 0.0967508 0.751 195 191 192
-1.29408 -0.69619 2.519 115 132 116
-0.325167 -0.227364 1.372 171 168 163
0.527169 0.550057 1.616 84 86 77
0.93595 -0.0565354 2.707 68 69 63
-0.00397286 0.136779 0.37 71 34 18
-0.398575 -0.072106 1.141 187 182 180
0.110269 0.0542421 1.005 162 157 155
0.428263 -0.631457 2.383 98 89 82
-0.232365 0.188021 0.586 144 159 158
0.865455 0.0881401 2.338 56 13 8
0.876783 -0.485378 2.489 89 87 77
0.101692 0.350691 0.97 123 133 136
-0.625502 -0.334481 1.571 112 113 102
-0.32806 -0.678327 2.44 43 25 14
0.75714 -0.298088 2.55 88 81 75
0.065641 0.0921546 0.869 171 167 170
0.770576 0.320712 1.929 126 141 136
0.980424 -0.189283 2.244 29 23 10
0.0128414 0.198888 0.636 172 177 182
0.00357368 0.18071 0.645 169 175 175
0.314741 0.547872 1.633 91 92 83
0.504811 0.486819 1.758 70 62 61
-0.710765 -0.771411 2.303 169 169 165
0.639925 -0.124297 2.649 32 23 16
-0.543254 -0.517727 1.779 131 133 120
-0.147067 0.178259 0.608 183 183 183
0.0491324 0.139819 0.766 166 165 167
0.457273 0.561964 1.62 89 94 82
0.241757 0.501367 1.739 84 84 78
-0.551978 -0.79149 2.329 174 171 168
0.272299 -0.428903 2.03 88 79 74
0.951046 0.158825 2.261 27 16 9
1.03783 -0.303952 2.151 23 23 19
0.0401404 0.132714 0.761 177 173 174
0.864966 -0.660111 2.347 97 95 85
-0.198902 -0.170804 1.252 99 157 148
0.472309 -0.719045 2.43 107 102 98
-0.3965 0.00342634 0.972 199 203 198
0.810493 -0.195044 2.615 65 66 57
0.205643 0.582973 1.591 81 82 78
-0.292644 0.0199639 0.866 199 199 201
-0.483758 -0.145985 1.215 153 158 146
-0.409055 -0.102586 1.171 198 202 195
0.379762 -0.798787 2.42 95 88 82
-0.0415927 0.13051 0.378 77 39 14
0.862767 -0.248259 2.593 82 80 72
0.230174 0.594543 1.547 89 92 76
-0.176768 0.127035 0.672 195 196 187
0.363237 0.327179 2.158 60 53 47
-0.275559 0.115373 0.621 190 200 205
-0.114003 0.169205 0.622 194 194 196
0.787423 0.487209 1.719 127 141 143
1.01745 -0.628997 2.303 63 55 52
-0.0667103 -0.886242 2.329 52 26 11
0.0256798 0.222494 0.621 174 177 178
-0.220869 -0.0440096 1.089 196 195 195
-0.142133 0.16523 0.63 194 194 190
0.708327 -0.812885 2.347 111 107 98
-0.121197 0.0678402 0.831 193 188 186
-0.52604 -0.369989 1.603 138 140 127
0.0142705 -0.226867 1.369 100 117 91
1.0305 -0.581924 2.469 85 82 77
0.0732038 0.189418 0.77 131 129 136
0.481407 -0.364151 2.519 80 73 65
0.190582 -0.217598 1.595 136 130 132
-0.500129 -0.374689 1.612 184 187 186
-0.0164301 -0.746292 2.196 148 121 70
0.517376 0.516569 1.696 85 90 78
-0.207351 0.196093 0.602 163 169 167
0.864294 0.020345 2.42 87 26 20
-0.12012 -0.255333 1.403 1 120 113
-0.022106 0.134388 0.693 199 195 196
-0.531718 -0.177812 1.273 183 183 183
-1.22195 -0.80131 2.489 39 18 17
-0.628337 -0.314167 1.559 124 129 115
-0.0654096 -0.0586677 1.098 196 192 193
-0.0982467 0.181618 0.606 187 186 190
0.875015 -0.865408 2.236 96 101 91
0.532777 0.582888 1.563 87 89 78
0.660815 0.301155 2.099 19 10 3
-0.286197 0.027831 0.808 186 177 172
0.0781671 0.0184072 1.013 176 172 175
-0.227365 0.106024 0.657 170 173 176
0.998233 -0.597137 2.449 81 85 78
0.843825 -0.178771 2.626 69 69 63
0.581444 -0.22681 2.638 74 67 59
-0.0341941 -0.726102 2.189 166 137 84
0.892509 -0.308393 2.499 81 82 69
-0.222979 -0.121168 1.185 178 173 171
-0.150867 -0.139477 1.21 163 159 160
-0.472194 -0.870175 2.347 123 115 103
-0.0772697 0.125185 0.692 196 195 197
-0.23355 0.0417758 0.851 175 173 180
-0.643706 -0.246023 1.456 148 158 146
0.911921 0.249329 1.799 19 9 7
-0.161187 0.180535 0.609 158 159 155
-0.142987 0.11377 0.705 197 196 198
-0.587915 -0.116618 1.178 185 186 182
0.551421 0.000657037 2.43 64 29 24
0.537986 0.393587 1.917 27 23 24
-0.0238923 0.114776 0.749 200 196 199
-0.720484 -0.365235 1.539 124 137 122
0.0256462 -0.695479 2.128 184 152 89
0.339968 0.288062 2.236 80 76 67
-0.299306 0.0894209 0.677 120 114 101
0.0755209 0.225168 0.781 137 136 143
0.646947 -0.493361 2.509 93 91 83
0.0509063 0.0549777 0.909 189 185 186
0.0114193 0.114317 0.746 183 179 180
0.89278 0.147868 2.32 16 12 3
-0.772702 -0.494864 1.71 146 156 144
0.0279602 -0.882817 2.32 50 24 9
-0.277613 0.193162 0.593 169 183 185
0.00826754 0.145311 0.686 176 172 173
-0.429845 -0.185386 1.297 185 182 177
-0.288078 0.178552 0.609 123 132 123
-0.183222 0.2013 0.6 167 175 174
-0.589833 -0.116618 1.178 173 176 175
0.00183027 0.075819 0.801 200 195 193
0.0661302 0.132692 0.806 176 174 181
0.674719 0.419128 1.799 31 30 30
0.425058 0.342144 2.099 40 40 34
0.805042 0.293342 2.092 4 11 3
0.0160859 -0.791818 2.244 126 92 57
-0.269216 0.0762332 0.708 88 82 69
-0.621662 -0.313361 1.555 112 122 106
-1.30385 -0.736284 2.53 30 26 17
-0.458022 -0.0739 1.036 150 155 143
0.483143 0.335312 2.099 47 43 36
-0.254288 0.157549 0.616 79 51 52
0.970711 -0.55296 2.43 90 88 78
-0.0457578 0.00666445 0.983 200 196 199
-0.684429 -0.519848 1.719 157 163 161
0.346912 0.524498 1.686 96 89 83
-0.558437 -0.407801 1.629 181 185 180
0.384314 0.316643 2.158 75 67 64
0.115989 -0.856025 2.269 107 136 114
0.734512 0.445496 1.753 104 118 107
0.166268 -0.304994 1.691 147 141 143
-0.549953 -0.200471 1.327 170 177 171
-0.0637363 0.139168 0.657 188 187 187
0.965111 -0.134879 1.935 32 47 33
-0.0857568 -0.310289 1.48 8 89 104
0.909696 -0.648389 2.374 97 90 84
0.000879716 0.131047 0.385 57 22 7
0.000687402 -0.0218456 1.046 193 189 190
-0.0852603 0.130898 0.675 194 194 198
1.03486 -0.395364 2.212 11 3 2
0.691354 0.41971 1.789 37 33 36
-0.263485 0.0678794 0.705 147 143 134
-0.568667 -0.259524 1.452 123 128 114
-0.378938 -0.597557 2.269 149 142 136
-0.536957 -0.101993 1.143 158 166 155
0.64869 -0.445316 2.469 96 89 79
0.503908 -0.939875 2.449 122 118 111
0.38698 0.355629 2.078 47 44 41
0.658301 0.583933 1.559 84 91 83
-1.09014 -0.932583 2.43 45 26 13
-0.592723 -0.605935 1.941 138 148 132
0.842485 -0.847559 2.286 101 103 94
0.047515 0.179164 0.705 169 172 175
-0.734036 -0.307354 1.466 147 154 146
-0.197949 -0.394716 1.826 162 158 151
1.00238 -0.270705 2.489 55 49 53
0.614273 -0.407618 2.509 83 76 66
-0.0959991 -0.0871127 1.143 189 184 180
0.748302 0.423154 1.779 62 61 61
0.896862 0.0719964 1.758 25 14 7
0.444851 -0.227325 2.695 72 65 59
0.486168 -0.686268 2.44 107 105 95
0.282703 0.396326 2.01 84 82 74
0.892912 0.285758 1.826 40 33 25
-0.168973 0.0823983 0.777 39 54 78
0.974164 -0.151468 2.173 32 23 14
-1.23816 -0.849915 2.489 32 25 19
0.48292 0.0808407 2.347 46 29 29
-0.76052 -0.466211 1.677 128 141 124
-0.0443223 -0.201867 1.322 17 127 123
0.766971 0.568865 1.595 98 105 97
-0.366187 0.0215545 0.935 196 197 193
-0.0780838 -0.890032 2.329 52 27 9
-0.152404 -0.326811 1.571 98 128 118
0.419947 -0.761575 2.402 97 92 88
-0.921228 -0.64747 2.107 175 176 172
0.27249 -0.774426 2.312 29 19 17
0.338944 -0.351845 2.329 78 71 63
-0.0718912 0.125041 0.717 196 192 195
-0.254738 0.195983 0.587 146 157 153
0.987171 -0.240904 2.356 20 9 2
0.598858 -0.430984 2.479 85 81 82
0.00181199 0.0815141 0.793 202 193 196
-0.0825527 0.181018 0.614 193 196 197
-0.010497 -0.269031 1.403 0 97 90
0.751319 0.12789 2.173 15 22 26
0.0231497 0.156715 0.697 178 174 177
0.989591 -0.368633 2.55 79 77 69
0.37588 0.537242 1.633 94 95 84
-0.18346 0.19183 0.604 177 183 181
0.821916 -0.218224 2.638 74 71 66
-0.716682 -0.499092 1.696 140 149 129
0.92129 -0.424319 2.374 85 82 79
-0.246187 -0.109832 1.167 182 175 169
-0.345871 -0.491489 2.071 165 157 156
0.813474 0.519011 1.686 94 107 102
-0.531561 -0.500423 1.769 155 162 156
-0.22037 -0.78176 2.392 52 23 9
0.911086 0.240272 2.166 10 10 6
0.575889 -0.155814 2.672 33 30 27
-0.43781 -0.858717 2.347 165 159 146
0.156975 -0.460476 1.876 156 150 152
-0.27529 -0.263871 1.463 174 174 170
-0.900272 -0.893039 2.43 57 33 17
0.23363 -0.448372 1.929 121 116 114
-0.313535 0.0402563 0.684 102 85 71
0.730431 0.312927 2.064 4 8 3
-0.46614 -0.00278731 0.934 80 84 77
-0.363771 -0.0191613 0.995 199 202 201
-0.0455936 0.12265 0.745 197 196 200
0.771061 0.585984 1.551 91 100 93
0.252685 -0.801393 2.303 34 23 14
0.309807 -0.756502 2.338 67 57 57
-0.645011 -0.416093 1.62 178 182 177
0.893465 -0.759376 2.312 99 100 89
0.806076 0.461906 1.729 98 115 101
0.365394 0.384013 1.997 96 100 95
-0.296923 0.118262 0.615 189 201 203
0.0256406 0.114532 0.772 185 181 186
0.0679739 -0.822794 2.269 122 123 114
-0.00843953 -0.0694488 1.128 193 189 190
-0.0028193 -0.0438479 1.085 192 188 189
-0.000694973 0.124867 0.716 198 194 195
-0.245485 0.0304488 0.884 197 196 198
0.493856 -0.479194 2.499 86 79 69
-0.00263295 0.192795 0.623 185 188 189
0.0287112 0.0461023 0.909 193 187 189
-0.0418298 0.141077 0.364 56 26 10
0.607943 -0.163771 2.66 43 38 36
0.958197 -0.803815 2.278 98 94 87
0.896714 0.00911454 1.769 27 8 2
-0.124465 0.202746 0.59 163 169 167
0.450562 -0.456319 2.53 86 76 74
-0.114218 0.181917 0.607 178 181 180
0.67962 -0.0279024 2.509 63 30 29
-0.263859 0.0725712 0.706 94 85 80
0.385923 0.0919448 2.338 61 41 33
-0.479075 -0.0117029 0.918 127 134 126
0.201543 -0.242715 1.642 127 124 119
0.83828 -0.232067 2.649 81 77 70
0.034761 0.183877 0.68 169 172 175
-0.462852 -0.266568 1.439 147 149 140
-0.168474 -0.675432 2.374 51 24 18
-0.182746 0.153991 0.643 192 193 189
1.02951 -0.575454 2.392 84 80 71
0.294565 0.29363 2.196 77 74 71
-0.090077 0.109789 0.732 198 194 197
-0.67538 -0.587276 1.815 153 162 153
-0.438989 -0.0314693 0.975 147 153 153
-0.161906 -0.0904517 1.162 161 158 155
0.343737 0.562685 1.607 79 84 72
-0.054292 0.0830346 0.783 200 197 194
0.115249 -0.400251 1.71 166 161 159
0.569257 0.555317 1.616 91 96 82
0.832685 0.439444 1.686 36 42 53
1.04404 -0.794908 2.107 13 9 0
0.984076 -0.196586 2.244 34 29 27
0.202859 -0.443469 1.935 121 116 114
-0.277803 0.0116545 0.877 200 199 199
-0.144982 0.0955287 0.751 191 190 192
0.995358 -0.135047 2.253 22 19 16
0.0995495 0.0592719 0.98 168 162 164
-0.199129 0.211242 0.595 154 160 158
-0.600985 -0.156167 1.249 188 191 190
-0.868628 -0.893039 2.43 58 33 15
-0.282806 -0.882452 2.329 59 26 9
-0.539855 -0.241968 1.432 176 185 178
-0.449828 -0.0851585 1.094 158 154 147
0.798061 -0.432116 2.509 90 86 77
0.0105548 -0.520295 1.905 182 177 175
-0.103975 -0.213657 1.342 48 121 114
-0.194856 0.145536 0.652 123 108 98
-0.340258 0.0829357 0.652 102 106 99
-0.510177 -0.522771 1.848 182 179 176
-0.308434 -0.330704 1.668 171 169 161
-0.0634678 -0.1563 1.234 41 109 104
-0.399731 -0.0738331 1.139 174 171 166
-1.19359 -0.825613 2.489 29 19 19
-0.188384 -0.0657776 1.128 197 196 198
-0.70601 -0.427404 1.633 161 172 168
0.0952025 0.122671 0.855 129 125 128
0.0466995 0.136257 0.767 169 165 168
-0.210346 -0.705576 2.411 55 26 12
1.01003 -0.805993 2.253 93 91 81
0.328915 0.448607 1.899 90 86 77
0.625602 -0.752658 2.411 110 108 100
-0.102698 0.175579 0.609 193 192 194
0.994862 -0.155958 2.347 5 5 0
-0.046828 0.0160805 0.972 200 196 197
-0.279948 0.0323599 0.706 115 98 82
0.614917 0.219123 2.166 17 17 11
-0.051944 -0.877814 2.347 50 24 9
0.155173 -0.118618 1.354 141 140 140
-0.417616 -0.0501031 1.032 188 188 192
0.598647 0.422447 1.826 16 22 20
0.2816 0.492541 1.758 90 88 80
0.777468 0.309568 2.064 4 10 8
-0.380731 -0.0191998 0.997 199 203 198
0.724975 0.382116 1.876 126 130 123
-0.015592 0.0701204 0.826 202 198 201
-0.320556 0.0466604 0.68 130 114 93
0.353896 0.537531 1.642 92 88 79
-0.0434767 -0.118938 1.182 128 135 127
0.145522 -0.199501 1.48 153 147 149
-0.419317 -0.0387855 1 116 121 107
0.594347 0.492803 1.719 102 110 109
-0.272092 0.0116545 0.877 202 201 201
-0.235128 0.0817624 0.706 162 162 166
0.513971 -0.531412 2.44 100 96 89
-0.120117 0.17387 0.617 170 173 172
-0.432894 -0.0650775 1.057 96 103 97
-0.375143 -0.41931 1.911 162 158 161
0.975243 -0.154236 2.114 45 35 21
-0.362783 0.0193589 0.693 109 98 89
-0.119899 0.13132 0.666 193 192 194
-0.448056 -0.244445 1.393 149 151 142
0.238619 -0.823337 2.312 32 21 16
-0.396074 -0.132576 1.201 198 198 194
-0.338791 -0.138644 1.22 153 148 144
-0.221841 0.213669 0.591 122 129 123
-0.211335 0.14899 0.644 169 174 160
-0.149489 -0.25023 1.4 0 120 110
-0.177953 0.197073 0.602 172 178 176
0.618667 -0.303542 2.561 78 71 63
-0.0189008 0.0544307 0.854 186 179 188
-0.141987 0.224641 0.587 147 150 149
0.883525 0.290232 1.978 26 17 8
0.422093 -0.820686 2.392 107 102 98
-0.296276 0.217583 0.586 152 160 159
-0.126063 0.194127 0.593 176 176 176
0.932169 -0.415858 2.392 78 82 77
0.0382905 -0.801496 2.261 126 90 53
-0.221492 -0.0984373 1.167 157 148 151
-0.0217436 0.133743 0.365 87 52 47
1.01654 -0.800989 2.114 15 5 3
-0.042537 -0.143415 1.21 89 152 151
0.677779 0.405726 1.831 101 103 94
1.03516 -0.443318 2.236 11 3 0
-0.668006 -0.239307 1.473 145 158 145
0.52136 -0.81372 2.383 115 111 104
0.675184 -0.715586 2.392 109 101 98
-0.0512378 -0.246712 1.393 0 84 93
-0.0561262 -0.0982686 1.165 153 144 139
-0.220213 0.0851426 0.725 83 83 87
-0.745741 -0.390039 1.509 160 170 175
0.978677 -0.606855 2.44 87 89 78
-0.549953 -0.202631 1.327 168 175 169
1.01729 -0.735267 2.261 73 63 61
-0.292918 0.118262 0.615 191 203 207
0.710384 0.46472 1.729 95 105 93
0.239565 -0.553108 1.978 170 167 162
-0.190039 0.114917 0.705 160 153 147
0.699113 0.394456 1.848 103 109 109
1.026 -0.00716822 2.402 5 6 2
-0.707848 -0.397063 1.607 179 185 183
0.793376 -0.340852 2.469 85 83 73
