ply
format ascii 1.0
comment Created by Open3D
element vertex 1313
property double x
property double y
property double z
property uchar red
property uchar green
property uchar blue
end_header
0.300577 0.454329 1.416 255 255 255
0.93978 -0.202645 2.55 0 0 0
0.679313 -0.166722 2.449 255 255 255
-0.29686 -0.673384 1.991 255 255 255
1.23047 -0.895694 2.459 255 255 255
-1.19804 0.656288 3.248 255 255 255
1.27939 0.328005 2.793 255 255 255
-0.540016 0.777503 2.411 255 255 255
0.0359196 -0.665578 2.121 255 255 255
0.591611 -0.254399 2.449 255 255 255
0.243876 -0.664312 2.128 255 255 255
0.491034 0.701968 2.66 255 255 255
-0.647657 0.356247 2.253 255 255 255
-0.338967 -0.66054 1.972 255 255 255
-0.0695716 -0.0916896 2.181 255 255 255
1.30141 0.148188 2.831 255 255 255
-0.162641 0.524435 2.402 255 255 255
-1.12214 0.890122 2.356 255 255 255
-1.73943 0.120984 3.354 255 255 255
-0.848546 0.866882 2.499 255 255 255
-0.334575 0.100655 2.196 255 255 255
0.544842 0.049674 2.509 255 255 255
-0.611457 0.442936 2.228 255 255 255
0.00928895 0.278798 2.374 255 255 255
-0.600638 0.760627 2.312 255 255 255
1.18796 0.190998 2.719 255 255 255
0.409747 -0.0974353 2.411 255 255 255
-1.09758 -1.18837 3.248 255 255 255
0.746116 -0.34984 2.42 255 255 255
-0.0474059 0.0608233 2.312 255 255 255
0.540456 0.455274 1.237 255 255 255
0.0122558 -0.200982 2.212 255 255 255
0.461544 -0.621206 2.261 255 255 255
-0.157329 0.129848 2.269 255 255 255
1.14998 0.514491 2.844 255 255 255
-0.148592 -0.337695 2.143 255 255 255
0.235936 -0.267227 2.286 255 255 255
0.0306971 -0.0797312 2.244 255 255 255
-0.649701 0.763233 2.286 255 255 255
0.00144315 -0.238838 2.196 255 255 255
-1.29407 -0.161087 3.318 255 255 255
-1.22296 -0.939175 3.301 255 255 255
1.37164 0.343108 2.805 255 255 255
-0.27258 -0.199588 2.158 255 255 255
0.929346 -0.842211 2.365 255 255 255
-0.574659 0.637736 2.212 255 255 255
-0.292032 0.384388 2.312 255 255 255
0.186477 0.549526 1.48 255 255 255
1.37382 0.558686 2.857 255 255 255
0.494001 -0.330149 2.42 255 255 255
0.0548178 0.0691167 2.338 255 255 255
-0.290389 0.296254 2.329 255 255 255
-1.26657 0.429707 3.609 255 255 255
0.448603 0.394208 2.519 255 255 255
-0.147344 0.145701 2.286 255 255 255
-0.174111 -0.450091 2.114 255 255 255
0.31813 -0.672556 2.236 255 255 255
-1.47826 -0.712673 3.248 255 255 255
0.435106 -0.783349 2.22 255 255 255
-1.14682 -1.10501 3.283 255 255 255
1.01035 -0.310537 2.55 255 255 255
-0.164935 -0.616959 2.085 255 255 255
-0.309058 -0.159839 2.143 255 255 255
-1.10888 0.734701 2.967 255 255 255
0.290732 -0.392332 2.278 255 255 255
-0.495117 0.852347 2.347 255 255 255
1.10573 0.469211 2.768 0 0 0
0.782046 0.0795336 2.55 255 255 255
-1.28155 -0.294819 3.429 255 255 255
-0.200928 -0.688942 2.037 255 255 255
0.925639 0.655305 2.755 255 255 255
1.28754 -0.594525 2.54 255 255 255
0.884628 -0.576101 2.411 255 255 255
0.0484374 -0.183646 2.22 255 255 255
-0.557789 0.79222 2.42 255 255 255
-0.332106 0.568067 2.356 255 255 255
-1.49268 0.715477 3.071 255 255 255
0.241887 -0.00722194 2.42 255 255 255
1.03341 -0.785652 2.392 255 255 255
0.463131 0.686132 2.649 255 255 255
0.605979 -0.485861 2.411 255 255 255
-1.56701 0.310024 3.652 255 255 255
0.69167 -0.0235346 2.479 255 255 255
0.444074 0.380961 2.54 0 0 0
-1.82185 0.567646 3.448 255 255 255
-0.30488 0.877055 2.383 255 255 255
-1.44776 -0.930916 3.181 255 255 255
-0.320298 -0.503309 2.037 255 255 255
0.775653 0.688396 2.78 255 255 255
-0.436905 0.837581 2.449 255 255 255
-0.141616 -0.288872 2.143 255 255 255
0.0898585 -0.52984 2.173 255 255 255
-1.08931 -0.270536 3.336 255 255 255
-1.27742 0.365701 3.674 255 255 255
1.30506 -0.455776 2.55 255 255 255
1.19081 0.572029 2.831 255 255 255
0.594705 0.214775 2.53 255 255 255
1.07069 -0.642192 2.469 255 255 255
0.136044 -0.727707 2.121 255 255 255
0.838195 -0.43551 2.459 255 255 255
1.03376 -0.752658 2.411 255 255 255
-1.78697 0.44077 3.652 255 255 255
-0.116521 -0.145924 2.196 255 255 255
1.38077 0.457224 2.805 255 255 255
-1.27536 -0.539441 3.354 255 255 255
1.35986 0.600529 2.857 255 255 255
-1.45402 -0.638353 3.301 255 255 255
-1.0705 0.466251 3.487 255 255 255
-0.631593 0.906451 2.329 255 255 255
-0.418947 -0.748074 1.941 255 255 255
0.018041 -0.780456 2.051 255 255 255
0.161214 0.0123245 2.392 255 255 255
-0.084656 -0.0316838 2.204 255 255 255
-0.21507 0.681952 2.42 255 255 255
-0.225201 0.583067 2.402 255 255 255
-0.321015 -0.335451 2.107 255 255 255
-1.10367 -0.865438 3.266 255 255 255
0.692332 -0.872923 2.294 255 255 255
0.397154 -0.161474 2.43 255 255 255
0.717541 -0.883843 2.303 255 255 255
0.321769 -0.650724 2.236 255 255 255
-1.3876 -0.473382 3.429 255 255 255
0.496419 -0.67879 2.269 255 255 255
0.637224 0.0867652 2.519 255 255 255
-1.54615 -0.972328 3.181 255 255 255
-1.34335 0.317579 3.741 255 255 255
-0.687315 0.723524 2.338 255 255 255
-1.6703 0.367329 3.631 255 255 255
-0.535052 -0.136063 2.099 255 255 255
-0.335811 -0.206611 2.158 255 255 255
0.951203 -0.109473 2.604 255 255 255
0.413164 -0.607213 2.32 255 255 255
0.327295 -0.0350764 2.44 255 255 255
-1.60828 -0.770443 3.181 255 255 255
-0.609208 0.234837 2.181 255 255 255
0.143499 0.447168 1.484 255 255 255
-1.61404 -0.743197 3.266 255 255 255
0.0155005 0.508568 1.487 255 255 255
-1.11301 0.879514 2.411 255 255 255
-0.0693164 -0.105498 2.173 255 255 255
-0.52809 -0.230159 2.085 255 255 255
-0.307708 -0.150423 2.158 255 255 255
-1.26167 -0.868419 3.318 255 255 255
0.64869 -0.276566 2.469 255 255 255
0.0892382 -0.547253 2.158 255 255 255
1.14947 -0.948333 2.44 255 255 255
-0.211231 0.176595 2.253 255 255 255
0.655352 -0.0477395 2.479 255 255 255
-1.2211 0.355512 3.631 255 255 255
0.0631808 0.330517 1.47 255 255 255
-0.56063 0.207778 2.158 255 255 255
-0.141423 0.680579 2.374 255 255 255
-0.365131 -0.548973 2.01 255 255 255
-0.0810368 -0.783356 2.024 255 255 255
1.30667 0.328005 2.793 255 255 255
0.93254 -0.662481 2.383 255 255 255
0.286943 -0.613554 2.22 255 255 255
-0.388225 0.832368 2.469 255 255 255
0.821509 -0.433263 2.469 255 255 255
-0.906683 0.880582 2.469 255 255 255
0.211242 0.154879 2.43 255 255 255
-0.125934 -0.594578 2.114 255 255 255
-1.35836 -0.00478594 3.527 255 255 255
-0.0334755 -0.484164 2.143 255 255 255
0.0633907 0.313567 2.374 255 255 255
-1.1716 0.368818 3.588 255 255 255
-0.194854 0.423472 2.32 255 255 255
-0.534053 0.0492412 2.136 255 255 255
0.576726 -0.424664 2.42 255 255 255
-1.80273 0.381134 3.487 255 255 255
0.426793 -0.590069 2.312 255 255 255
1.13551 0.576636 2.831 255 255 255
0.0403566 0.322512 2.383 255 255 255
0.218109 0.331399 2.509 255 255 255
-0.349986 -0.449133 2.017 255 255 255
1.30772 0.379625 2.805 255 255 255
-0.0259547 -0.696248 2.099 255 255 255
-1.72644 0.20854 3.448 255 255 255
-0.823677 0.917276 2.347 255 255 255
-0.380441 0.475119 2.278 255 255 255
-1.66202 -0.946835 3.165 255 255 255
0.44434 -0.787726 2.212 255 255 255
-1.66721 -1.10992 3.266 255 255 255
-0.529863 -0.173057 2.092 255 255 255
0.944745 -0.753693 2.365 255 255 255
-1.54252 -0.495855 3.318 255 255 255
1.38204 0.444101 2.78 255 255 255
-1.12356 0.439641 3.547 255 255 255
-0.107048 0.632746 2.383 255 255 255
-0.236395 0.347964 2.32 255 255 255
-1.05502 -1.18741 3.231 255 255 255
-1.07394 -0.207669 3.373 255 255 255
-1.33513 0.111908 3.588 255 255 255
0.64107 -0.197874 2.44 255 255 255
1.28489 0.429836 2.805 255 255 255
0.496043 -0.0151606 2.43 255 255 255
-1.16632 -0.659817 3.248 255 255 255
-1.66855 0.100807 3.41 255 255 255
0.50939 -0.665358 2.261 255 255 255
-0.529488 0.481492 2.189 255 255 255
0.57001 -0.203417 2.459 255 255 255
1.01432 -0.539551 2.459 255 255 255
0.815219 -0.28806 2.499 255 255 255
0.678379 0.231795 2.582 255 255 255
-1.67042 0.64275 3.181 255 255 255
0.741234 0.222925 2.626 255 255 255
-1.70374 0.44077 3.652 255 255 255
0.21202 -0.198777 2.269 255 255 255
0.864628 -0.41652 2.489 255 255 255
-1.47525 0.148703 3.631 255 255 255
0.580239 0.622518 2.672 255 255 255
0.0083264 -0.667775 2.128 255 255 255
0.731392 0.581636 2.684 255 255 255
-1.11149 0.46586 3.527 255 255 255
-0.273905 -0.364087 2.114 255 255 255
-1.39281 0.316631 3.527 255 255 255
0.703178 0.349263 2.55 255 255 255
-1.48202 -0.855688 3.133 255 255 255
0.49468 -0.65924 2.278 0 0 0
-0.566606 0.270329 2.181 255 255 255
-1.61572 0.635146 3.248 255 255 255
-0.175614 0.000600256 2.22 255 255 255
-1.1075 0.805243 2.793 255 255 255
-0.553916 0.251657 2.173 255 255 255
-1.6703 0.432326 3.631 255 255 255
-0.900141 0.790828 2.743 255 255 255
0.309175 -0.186197 2.392 255 255 255
-1.04227 0.749311 3.026 255 255 255
-1.53579 -0.884327 3.181 255 255 255
0.0779072 0.293634 1.477 255 255 255
0.64915 -0.529019 2.411 255 255 255
1.06466 0.328025 2.755 255 255 255
-1.70657 -0.111916 3.301 255 255 255
-1.62872 0.576416 3.467 255 255 255
0.893437 -0.297857 2.479 255 255 255
-1.48573 -0.169246 3.373 255 255 255
-1.25377 0.754015 2.967 255 255 255
0.168851 -0.592273 2.143 255 255 255
0.153427 0.0590353 2.392 255 255 255
0.950874 -0.555236 2.44 0 0 0
-1.09758 -0.707387 3.248 255 255 255
1.3294 0.405272 2.793 255 255 255
1.22201 -0.747596 2.499 255 255 255
-0.448918 -0.0756096 2.128 255 255 255
-0.874717 0.502925 2.911 255 255 255
-1.38612 0.738962 2.871 255 255 255
-0.59842 0.506374 2.22 255 255 255
0.940656 -0.228876 2.519 255 255 255
-1.41003 0.247756 3.527 255 255 255
0.511787 -0.419161 2.411 255 255 255
1.11624 -0.666262 2.499 255 255 255
-1.0653 0.872582 2.392 255 255 255
0.990593 -0.662418 2.411 255 255 255
0.632164 0.126743 2.499 255 255 255
-1.65126 -1.26405 3.266 255 255 255
-0.22376 0.0113146 2.196 255 255 255
0.375823 -0.200191 2.42 255 255 255
-0.064378 0.446606 2.383 255 255 255
0.510563 0.621471 2.649 255 255 255
0.870634 -0.0404873 2.53 255 255 255
-1.08172 -0.945238 3.248 255 255 255
0.506994 0.443367 1.21 255 255 255
-0.52544 0.883711 2.329 255 255 255
-0.0533605 0.338072 2.411 255 255 255
0.468616 -0.37208 2.411 255 255 255
-0.603593 -0.0897978 2.136 255 255 255
1.38058 0.428671 2.768 255 255 255
0.282035 0.461709 1.439 255 255 255
0.482774 -0.280311 2.365 255 255 255
0.348143 0.471553 1.27 255 255 255
0.695259 -0.130854 2.449 255 255 255
0.443407 -0.0345301 2.402 255 255 255
1.15763 0.120733 2.731 255 255 255
-0.997186 0.214588 3.283 255 255 255
-0.314126 0.58948 2.365 255 255 255
-1.4803 -0.498545 3.336 255 255 255
-0.377873 -0.735439 1.941 255 255 255
0.60466 0.453593 1.249 255 255 255
-0.443029 0.300452 2.22 255 255 255
1.24956 0.546474 2.818 255 255 255
0.385897 0.46352 1.265 255 255 255
0.35377 -0.585099 2.278 255 255 255
-1.53712 -0.431061 3.318 255 255 255
-1.42242 0.0122918 3.487 255 255 255
-0.170709 -0.0907227 2.158 255 255 255
-1.62052 0.529915 3.652 255 255 255
-1.58185 -1.00867 3.149 255 255 255
-1.62999 -0.668789 3.266 255 255 255
-0.367674 -0.414461 2.024 255 255 255
1.15379 0.232857 2.743 255 255 255
-0.525059 0.615987 2.278 255 255 255
-0.0321321 -0.766002 2.057 255 255 255
0.393621 0.453729 1.333 255 255 255
-1.45828 0.599211 3.373 255 255 255
-0.223401 -0.0731638 2.158 255 255 255
0.0912076 0.332793 1.459 255 255 255
0.87821 -0.0282471 2.54 255 255 255
-1.4994 -0.797242 3.248 255 255 255
1.16316 0.572029 2.831 255 255 255
-1.45711 -0.82367 3.248 255 255 255
1.15763 0.129621 2.731 0 0 0
-0.204024 0.931346 2.383 255 255 255
0.435587 -0.0775274 2.402 255 255 255
0.32434 -0.734664 2.204 255 255 255
0.429971 0.317704 2.53 255 255 255
0.362049 -0.382762 2.356 255 255 255
-1.39497 0.762 2.768 255 255 255
-0.0167294 0.000604582 2.236 255 255 255
1.03895 -0.33686 2.499 255 255 255
-0.590629 0.825612 2.347 255 255 255
-0.586069 0.685858 2.228 255 255 255
0.729421 -0.434328 2.43 255 255 255
-1.22319 -0.435027 3.391 255 255 255
-1.13744 -0.539051 3.318 255 255 255
-1.08325 -0.563148 3.301 255 255 255
0.2464 -0.58148 2.181 255 255 255
0.199592 -0.701569 2.136 255 255 255
0.181104 -0.136862 2.347 255 255 255
0.729421 -0.14961 2.43 255 255 255
0.305284 0.488145 1.281 255 255 255
0.189161 -0.628574 2.136 255 255 255
0.988828 0.379577 2.707 255 255 255
-0.218189 0.0617922 2.212 255 255 255
-0.521989 0.0567719 2.158 255 255 255
0.903752 -0.220678 2.519 255 255 255
0.898964 -0.827504 2.356 255 255 255
0.826374 0.581822 2.768 255 255 255
-0.611628 0.724326 2.269 255 255 255
1.08043 0.0181154 2.672 255 255 255
-0.203977 0.365883 2.338 255 255 255
-1.64209 -0.702815 3.301 255 255 255
0.858209 -0.455518 2.459 255 255 255
1.36917 0.563335 2.857 255 255 255
1.07761 0.405164 2.731 255 255 255
-0.502794 -0.260018 2.107 255 255 255
-1.11044 -0.782027 3.318 255 255 255
-1.38138 0.792099 2.672 255 255 255
-1.00327 0.866268 2.44 255 255 255
-0.0525569 -0.179384 2.212 255 255 255
-0.135218 -0.772907 1.997 255 255 255
0.543461 -0.706703 2.312 255 255 255
0.36201 0.687189 2.604 255 255 255
-0.446205 0.767483 2.392 255 255 255
-0.91947 0.588801 3.011 255 255 255
0.56315 -0.583724 2.347 255 255 255
0.404235 -0.428769 2.356 255 255 255
1.01818 -0.750681 2.43 255 255 255
-0.197831 0.571341 2.402 255 255 255
0.23513 -0.710843 2.143 255 255 255
-1.54867 -0.957136 3.165 255 255 255
-1.26791 -0.0798508 3.547 255 255 255
-1.19685 -0.620043 3.318 255 255 255
-1.20318 0.837687 2.509 255 255 255
1.02877 0.67477 2.743 255 255 255
-0.33229 -0.0100579 2.181 255 255 255
0.974143 -0.430984 2.479 255 255 255
1.0066 0.591622 2.793 255 255 255
-0.0100331 0.317431 2.374 255 255 255
-1.09835 -0.907957 3.266 255 255 255
-1.10816 -1.09323 3.248 255 255 255
-0.247991 -0.0485814 2.158 255 255 255
1.11388 -0.350653 2.54 255 255 255
0.977764 -0.383121 2.509 255 255 255
0.344719 0.331399 2.509 255 255 255
0.547377 0.421455 1.327 255 255 255
0.588077 -0.491865 2.402 255 255 255
-0.0969403 -0.266311 2.158 255 255 255
0.494602 -0.788166 2.244 255 255 255
-0.108624 -0.081042 2.181 255 255 255
-1.25079 -0.131522 3.391 255 255 255
0.670167 0.437907 1.563 255 255 255
-1.01281 -1.18974 3.181 255 255 255
0.577357 -0.55567 2.374 255 255 255
-1.70442 -0.318008 3.266 255 255 255
0.943524 0.64038 2.768 255 255 255
-0.355558 0.757885 2.411 255 255 255
0.796773 -0.829231 2.383 255 255 255
-1.06554 -0.982354 3.231 255 255 255
-0.304572 -0.249693 2.136 255 255 255
-1.28507 0.488183 3.696 255 255 255
1.1052 -0.944447 2.43 255 255 255
0.386441 0.710089 2.626 255 255 255
-0.301439 0.0112785 2.189 255 255 255
0.62582 0.684448 2.626 255 255 255
0.775653 0.6703 2.78 255 255 255
-1.49615 0.0583495 3.527 255 255 255
-0.132681 0.732928 2.356 255 255 255
0.641152 0.445622 1.425 255 255 255
0.718015 -0.657198 2.392 255 255 255
-0.0780153 -0.586192 2.121 255 255 255
0.812289 -0.829231 2.383 255 255 255
-1.64635 -0.221046 3.41 255 255 255
1.14568 -0.458434 2.519 255 255 255
-0.471199 -0.648146 1.935 255 255 255
1.10873 0.431829 2.731 255 255 255
-0.062676 0.193173 2.32 255 255 255
-0.334608 0.110209 2.173 255 255 255
-1.37477 0.142794 3.631 255 255 255
1.01004 -0.844041 2.392 255 255 255
-0.246787 0.523884 2.347 255 255 255
0.328943 -0.492247 2.312 255 255 255
0.152849 0.314756 2.383 255 255 255
0.22111 0.440557 1.47 255 255 255
-1.30194 0.710976 3.117 255 255 255
0.450422 0.0959561 2.44 255 255 255
-0.0479192 0.567162 1.583 255 255 255
0.905105 0.370767 2.707 255 255 255
0.315024 0.458156 1.359 255 255 255
-0.956813 0.881469 2.374 255 255 255
-0.455283 0.162878 2.078 255 255 255
0.0872336 0.121316 2.392 255 255 255
0.965356 -0.217524 2.53 255 255 255
-0.520457 0.468737 2.196 255 255 255
0.326304 -0.403341 2.32 255 255 255
0.267693 0.471131 1.425 255 255 255
0.873757 -0.493531 2.469 255 255 255
0.1922 0.489209 1.487 255 255 255
1.14486 -0.0901834 2.66 255 255 255
-1.34633 -0.664976 3.354 255 255 255
0.2935 0.667507 2.561 255 255 255
-0.391548 -0.334177 2.099 255 255 255
0.418199 -0.338007 2.392 255 255 255
0.521802 0.432642 1.265 255 255 255
-0.747092 0.919712 2.383 255 255 255
-0.415788 -0.697536 1.941 255 255 255
-1.26316 -1.17901 3.266 255 255 255
-0.00881034 0.453496 1.505 255 255 255
0.942451 0.0432617 2.615 0 0 0
0.0170823 0.175151 2.383 255 255 255
0.824836 -0.366437 2.479 255 255 255
-1.6332 0.106949 3.429 255 255 255
0.821214 -0.250462 2.53 255 255 255
0.854257 0.383366 2.672 0 0 0
-0.425501 -0.429439 2.017 255 255 255
0.513698 -0.338025 2.42 255 255 255
-1.15233 0.594685 3.41 255 255 255
0.699797 -0.677992 2.383 255 255 255
-0.0987308 -0.493 2.121 255 255 255
-0.0395794 0.573785 1.559 255 255 255
0.612406 0.455286 1.265 255 255 255
0.924782 -0.871889 2.383 255 255 255
-1.39582 0.323992 3.609 255 255 255
-0.529488 0.467243 2.189 255 255 255
0.845558 0.270312 2.672 255 255 255
-1.32867 -1.00856 3.181 255 255 255
0.246234 -0.333019 2.278 255 255 255
-1.46212 -0.6509 3.283 255 255 255
1.13358 -0.900685 2.44 255 255 255
0.288083 0.00849888 2.411 255 255 255
-0.507415 -0.561714 1.941 255 255 255
-0.237131 0.855036 2.365 255 255 255
1.38436 -0.137033 2.731 255 255 255
-0.843035 0.857422 2.519 255 255 255
0.622836 0.309094 2.561 255 255 255
-0.524032 0.0684924 2.196 255 255 255
0.324216 -0.567678 2.253 255 255 255
0.223985 -0.240343 2.278 255 255 255
-0.218189 0.0725911 2.212 255 255 255
0.425339 0.0168069 2.479 255 255 255
0.596204 0.50714 2.572 255 255 255
0.141084 0.454413 1.484 255 255 255
-0.63451 0.805775 2.312 255 255 255
0.218906 -0.776028 2.121 255 255 255
0.240799 0.443034 2.449 255 255 255
1.13296 -0.460697 2.509 255 255 255
0.349186 -0.821172 2.158 255 255 255
-0.137026 -0.116534 2.181 255 255 255
0.871575 -0.178972 2.509 255 255 255
-0.160745 0.502868 2.374 255 255 255
0.803854 -0.303109 2.489 255 255 255
0.203735 -0.818951 2.143 255 255 255
-0.624571 0.419056 2.236 255 255 255
-0.514552 -0.183884 2.099 255 255 255
-0.451347 -0.150297 2.107 255 255 255
0.119261 -0.0803352 2.261 255 255 255
-0.50276 0.198708 2.136 255 255 255
-0.941691 -1.20131 3.117 255 255 255
0.0653952 0.351089 1.466 255 255 255
-1.66373 -0.738131 3.198 255 255 255
-1.66893 -0.0615857 3.198 255 255 255
-1.14842 0.89818 2.347 255 255 255
-1.45402 -0.772648 3.301 255 255 255
-1.36451 0.768509 2.743 255 255 255
0.109239 -0.791436 2.071 255 255 255
0.581493 -0.324936 2.44 255 255 255
0.11482 0.0572583 2.32 255 255 255
1.21401 -0.25355 2.604 255 255 255
-0.0718478 -0.383031 2.143 0 0 0
0.556394 0.428074 1.452 255 255 255
-0.218357 0.470596 2.329 255 255 255
-1.74489 -0.446654 3.354 255 255 255
0.725466 -0.576687 2.43 255 255 255
-0.425317 -0.0923131 2.114 255 255 255
1.38989 0.584784 2.871 255 255 255
0.435749 0.471378 1.237 255 255 255
0.591987 -0.343329 2.402 255 255 255
0.0601597 -0.138713 2.253 255 255 255
-0.536814 0.739689 2.329 255 255 255
-0.626806 0.482635 2.244 255 255 255
-1.19145 -1.1114 3.318 255 255 255
0.0486801 0.385154 2.411 255 255 255
-0.266539 0.01116 2.166 255 255 255
0.295231 -0.612139 2.228 255 255 255
-0.510399 0.89818 2.347 255 255 255
-0.339129 -0.424085 2.071 255 255 255
0.155513 -0.197375 2.253 255 255 255
-1.28577 -0.816518 3.283 255 255 255
0.696402 -0.777106 2.32 255 255 255
0.406511 -0.499699 2.347 255 255 255
-0.314346 0.457195 2.338 255 255 255
1.36592 0.162009 2.831 255 255 255
0.955222 -0.0971686 2.615 255 255 255
1.20904 -0.940392 2.44 255 255 255
0.701409 0.704621 2.755 0 0 0
-0.460782 0.346282 2.236 255 255 255
-0.467091 0.656477 2.303 255 255 255
0.705386 0.049476 2.499 255 255 255
-0.00876936 0.40507 1.498 255 255 255
-0.434254 -0.577899 1.953 255 255 255
-0.366622 0.564233 2.356 255 255 255
-0.63227 -0.0965925 2.212 255 255 255
0.695562 0.409232 2.615 255 255 255
1.11388 -0.544924 2.54 255 255 255
1.17511 -0.35797 2.593 255 255 255
-0.231251 -0.542042 2.071 255 255 255
-1.38269 -0.0387786 3.487 255 255 255
0.129322 -0.255014 2.244 255 255 255
1.32127 0.111844 2.844 255 255 255
-0.55531 0.154598 2.151 255 255 255
0.581493 -0.22964 2.44 255 255 255
0.113431 0.306596 1.47 255 255 255
-1.02363 -0.653113 3.215 255 255 255
-0.168359 -0.165613 2.173 255 255 255
0.341185 -0.696873 2.244 255 255 255
-1.27206 -0.739101 3.248 255 255 255
0.119683 -0.0658499 2.269 255 255 255
-0.256732 -0.170301 2.143 0 0 0
-1.43741 -1.09656 3.181 255 255 255
-0.203254 0.514458 2.374 255 255 255
0.152683 -0.305372 2.212 255 255 255
0.553672 0.435056 1.509 255 255 255
0.198135 -0.529695 2.158 255 255 255
-0.556082 -0.00630875 2.114 255 255 255
-1.68827 -0.0619131 3.215 255 255 255
0.733873 0.285823 2.615 255 255 255
0.245785 0.18874 2.459 255 255 255
0.209144 0.48437 1.487 255 255 255
1.04946 -0.772276 2.411 255 255 255
-0.257691 -0.279449 2.151 255 255 255
-0.436454 0.816296 2.469 255 255 255
-0.766916 0.853006 2.459 255 255 255
-1.25224 -0.343128 3.41 255 255 255
-0.3283 0.432695 2.329 255 255 255
0.520843 0.398317 2.572 255 255 255
0.249084 -0.707356 2.143 255 255 255
-1.32493 -1.13552 3.248 255 255 255
-1.66143 -0.537008 3.373 255 255 255
0.747895 0.415502 1.466 255 255 255
-0.58989 0.762429 2.329 255 255 255
-0.257258 0.40393 2.338 255 255 255
-1.39318 -0.428741 3.429 255 255 255
-0.154245 0.122949 2.278 255 255 255
-1.03127 0.864511 2.469 255 255 255
-1.27088 -0.0282241 3.588 255 255 255
0.137852 0.382119 2.392 255 255 255
-0.57947 -0.163389 2.099 255 255 255
-0.198199 -0.453531 2.114 255 255 255
-1.33043 -0.692071 3.301 255 255 255
-0.200186 0.0257957 2.212 255 255 255
0.0475864 -0.389823 2.181 255 255 255
0.0943059 0.240165 2.374 255 255 255
0.747391 -0.667705 2.374 0 0 0
1.05033 0.144861 2.684 255 255 255
1.23222 -0.176253 2.719 255 255 255
-1.58243 0.485277 3.674 255 255 255
0.525239 -0.27081 2.383 255 255 255
-0.0555506 0.266961 2.338 255 255 255
0.747266 -0.438779 2.411 255 255 255
0.0799309 0.306596 1.47 255 255 255
-1.22279 0.846548 2.499 255 255 255
-0.060552 -0.653061 2.114 255 255 255
0.558863 0.473303 2.593 0 0 0
-1.16594 0.833311 2.707 255 255 255
-1.63882 0.637079 3.231 255 255 255
-0.196023 -0.16508 2.166 255 255 255
0.459484 -0.597557 2.269 255 255 255
-0.172786 0.200797 2.278 255 255 255
-0.464899 -0.742613 1.935 255 255 255
1.29818 -0.645284 2.561 255 255 255
0.127788 0.512322 1.47 255 255 255
-0.0232573 -0.362468 2.166 255 255 255
-0.544484 0.0874769 2.136 255 255 255
0.836007 0.0629348 2.55 255 255 255
0.0881884 -0.237836 2.22 255 255 255
0.303204 -0.702153 2.181 255 255 255
0.891599 -0.612276 2.43 255 255 255
-0.228491 -0.0524552 2.173 255 255 255
-0.574659 0.410958 2.212 255 255 255
1.0394 -0.215094 2.55 255 255 255
-1.21379 0.644668 3.165 255 255 255
1.00636 0.310092 2.755 255 255 255
-1.37662 -1.23323 3.283 255 255 255
0.534849 -0.466815 2.374 255 255 255
-0.175923 -0.32964 2.136 255 255 255
-0.107452 0.343193 2.392 255 255 255
0.162825 0.386794 1.484 255 255 255
-0.779744 0.861493 2.449 255 255 255
0.787647 -0.00742785 2.489 255 255 255
-1.58044 -0.826603 3.198 255 255 255
0.849306 -0.591795 2.411 255 255 255
-0.214271 0.640181 2.411 255 255 255
-0.447188 0.575209 2.278 255 255 255
0.153884 0.478394 1.491 255 255 255
0.836952 -0.684417 2.365 255 255 255
0.189781 -0.623659 2.143 255 255 255
-0.484419 -0.352923 2.03 255 255 255
0.619415 0.0459726 2.53 255 255 255
0.695259 -0.138824 2.449 255 255 255
0.121357 0.101087 2.374 255 255 255
0.872173 -0.637324 2.42 255 255 255
-0.527186 0.876521 2.32 255 255 255
-0.767457 0.920102 2.374 255 255 255
0.333454 0.418266 1.459 255 255 255
0.0602089 0.569047 1.456 255 255 255
-0.303401 0.923137 2.402 255 255 255
0.535477 0.706594 2.582 255 255 255
-0.190152 -0.637615 2.064 255 255 255
-0.506291 -0.041423 2.151 255 255 255
-0.42787 -0.375315 2.044 255 255 255
-0.422107 -0.697536 1.941 255 255 255
0.606105 0.143582 2.509 255 255 255
0.208674 -0.610465 2.158 255 255 255
0.554214 0.42202 1.524 255 255 255
-0.529952 -0.428178 1.966 255 255 255
0.102035 0.274935 2.374 255 255 255
0.667354 -0.146795 2.449 255 255 255
-1.389 0.729873 2.967 255 255 255
1.41578 0.128019 2.793 255 255 255
0.571146 -0.096925 2.499 255 255 255
-1.41086 -0.291552 3.391 255 255 255
-0.153464 -0.384728 2.114 0 0 0
-0.312546 -0.159839 2.143 255 255 255
-0.324635 0.251721 2.303 255 255 255
1.43557 0.169651 2.805 255 255 255
1.3521 0.0929048 2.831 255 255 255
-0.937879 -0.302435 3.055 255 255 255
-0.026287 0.469141 1.524 255 255 255
1.25224 -0.365701 2.649 255 255 255
-1.59674 0.523972 3.652 255 255 255
-0.540821 -0.464909 1.959 255 255 255
0.68281 0.465983 1.369 255 255 255
0.790755 -0.842211 2.365 255 255 255
0.427449 0.465612 1.254 255 255 255
-1.55123 0.345463 3.588 255 255 255
-0.130653 0.763259 2.32 255 255 255
0.534849 -0.362506 2.374 255 255 255
-1.20446 -0.12251 3.448 255 255 255
-0.415254 0.1721 2.151 255 255 255
1.16781 0.641855 2.755 255 255 255
-0.478215 -0.374492 2.004 255 255 255
0.570791 -0.728859 2.347 255 255 255
-0.0561576 -0.175785 2.212 255 255 255
0.778608 -0.271793 2.499 255 255 255
-0.614267 0.346165 2.212 255 255 255
0.533354 -0.793254 2.269 255 255 255
-0.451539 -0.299019 2.092 255 255 255
-0.298727 0.597177 2.365 255 255 255
-1.3167 -0.993184 3.215 255 255 255
-0.0657791 -0.264626 2.173 255 255 255
-1.04508 0.836194 2.593 255 255 255
-0.0291264 0.517677 1.543 255 255 255
-0.155792 -0.518628 2.099 255 255 255
-0.231751 0.0902617 2.204 255 255 255
-0.162546 -0.267948 2.143 255 255 255
0.585196 0.456094 1.273 255 255 255
-0.971649 0.546808 3.165 255 255 255
-1.60107 0.64199 3.283 255 255 255
0.0298219 0.524376 1.477 255 255 255
-1.42109 0.63706 3.429 255 255 255
1.3413 0.179609 2.818 255 255 255
0.503938 -0.423085 2.411 255 255 255
-1.09758 -1.09323 3.248 255 255 255
0.752296 -0.460594 2.402 255 255 255
1.33671 0.697805 2.818 255 255 255
-1.28577 -0.811175 3.283 255 255 255
0.993309 0.143566 2.66 255 255 255
0.382996 0.508987 2.519 255 255 255
0.169238 0.4587 1.498 255 255 255
0.304312 0.635164 2.582 255 255 255
0.25443 -0.608548 2.189 255 255 255
-1.08172 -0.844812 3.248 255 255 255
-1.67038 -0.0306738 3.231 255 255 255
0.353532 0.695665 2.604 255 255 255
-1.36257 0.798917 2.695 255 255 255
-0.526903 0.714872 2.286 255 255 255
0.458258 0.453751 1.201 255 255 255
0.163922 0.457475 1.494 255 255 255
1.22366 0.0912312 2.78 255 255 255
-0.373922 0.30968 2.261 255 255 255
-0.92706 -1.17029 3.102 255 255 255
-0.422866 0.388551 2.228 255 255 255
-0.573288 -0.0923131 2.114 255 255 255
-1.30378 -1.19894 3.248 255 255 255
0.0833936 -0.401939 2.189 255 255 255
-0.158917 0.909638 2.347 255 255 255
-1.2248 0.831233 2.672 255 255 255
0.242982 0.0551427 2.392 0 0 0
0.34672 0.437768 1.445 255 255 255
-0.593111 0.881023 2.312 255 255 255
-0.477469 -0.304059 2.057 255 255 255
-1.60519 -0.56369 3.336 255 255 255
0.23769 -0.220494 2.303 255 255 255
0.205161 -0.536718 2.158 255 255 255
0.744338 -0.384496 2.44 255 255 255
-0.464587 0.832368 2.469 255 255 255
-0.571562 0.446562 2.228 255 255 255
-0.595164 0.759483 2.32 255 255 255
0.209104 0.370745 2.499 255 255 255
-0.12367 -0.038716 2.196 255 255 255
-0.292734 -0.700427 1.985 0 0 0
-1.20664 0.538145 3.588 255 255 255
-0.0981365 -0.738665 2.037 255 255 255
-0.0455195 -0.0572025 2.22 255 255 255
-0.131361 0.360263 2.402 255 255 255
0.367356 0.18549 2.469 255 255 255
-1.25625 0.761081 2.884 255 255 255
-0.166531 0.228339 2.294 255 255 255
-0.244751 0.778509 2.402 255 255 255
-1.4453 -0.258278 3.318 255 255 255
1.06527 0.521009 2.78 255 255 255
0.80198 0.183692 2.615 255 255 255
-1.464 -0.379112 3.336 255 255 255
-1.6243 0.311891 3.674 255 255 255
-0.593162 -0.0480861 2.136 255 255 255
0.390471 0.465851 1.416 255 255 255
1.37258 -0.0215771 2.743 255 255 255
-0.396439 -0.34657 2.071 255 255 255
0.200974 -0.102881 2.356 255 255 255
0.960534 -0.190196 2.55 255 255 255
-0.344136 -0.734032 1.929 255 255 255
0.773162 0.727038 2.755 255 255 255
0.38268 -0.303402 2.365 255 255 255
-1.15439 0.884811 2.383 255 255 255
0.678085 -0.179407 2.459 255 255 255
-1.76026 -0.174735 3.373 255 255 255
-0.394346 -0.22648 2.114 255 255 255
-1.2853 0.644388 3.215 255 255 255
0.572118 0.558173 2.615 255 255 255
0.832408 -0.837689 2.374 255 255 255
-1.69751 -0.417113 3.336 255 255 255
0.514116 -0.104218 2.479 255 255 255
0.959425 -0.700016 2.392 255 255 255
0.114619 -0.444972 2.173 255 255 255
1.0065 -0.154168 2.572 255 255 255
-0.461363 0.255247 2.204 255 255 255
1.28568 -0.482748 2.561 255 255 255
0.689115 0.0942097 2.499 255 255 255
-1.20406 0.902661 2.329 255 255 255
0.0346304 0.464287 1.477 255 255 255
-1.12027 0.539591 3.448 255 255 255
0.56148 0.449915 1.196 255 255 255
1.3976 0.278008 2.793 255 255 255
-0.426954 0.473242 2.269 255 255 255
0.0364078 0.560395 1.452 255 255 255
1.10975 -0.900685 2.44 255 255 255
0.204419 -0.759707 2.114 255 255 255
0.70462 -0.23361 2.44 255 255 255
0.152385 -0.175999 2.261 255 255 255
-0.309508 -0.584953 2.01 255 255 255
-0.0627002 -0.0991504 2.189 255 255 255
-1.28122 0.117091 3.568 255 255 255
0.460613 0.463629 2.54 255 255 255
0.289331 0.550814 2.561 255 255 255
0.207847 -0.0757522 2.347 255 255 255
1.30174 -0.222941 2.593 255 255 255
-0.397849 -0.437761 2.01 255 255 255
-1.03529 0.864511 2.469 255 255 255
1.05287 -0.79733 2.392 255 255 255
-0.403149 -0.751233 1.941 255 255 255
-1.55025 -0.737882 3.266 255 255 255
1.19316 -0.924509 2.44 255 255 255
0.478384 0.730505 2.638 255 255 255
-1.73031 0.604626 3.467 255 255 255
-1.26735 -0.13704 3.391 255 255 255
-0.430768 -0.170869 2.107 255 255 255
-0.948486 0.792447 2.78 255 255 255
0.951936 -0.747795 2.383 255 255 255
0.224568 0.485919 1.477 0 0 0
0.675536 0.110919 2.509 255 255 255
-0.365433 -0.662561 1.959 255 255 255
-1.31964 -1.1408 3.248 255 255 255
0.944757 -0.232976 2.519 255 255 255
-0.539292 0.0807888 2.143 255 255 255
-0.669528 0.577774 2.303 255 255 255
0.221051 -0.38627 2.286 255 255 255
-0.0651344 0.338072 2.411 255 255 255
-0.466083 0.358476 2.244 255 255 255
0.46372 -0.756247 2.236 255 255 255
0.715036 0.182147 2.593 255 255 255
1.11827 -0.40183 2.55 255 255 255
0.605097 -0.536528 2.392 255 255 255
-1.60641 -0.741723 3.283 255 255 255
-1.57459 0.374657 3.588 255 255 255
0.318494 0.442471 1.445 255 255 255
0.747475 -0.847815 2.338 255 255 255
-1.61179 0.119418 3.467 255 255 255
-0.389093 0.00768812 2.181 255 255 255
-0.203074 -0.15098 2.166 255 255 255
0.519776 -0.00329737 2.43 255 255 255
-0.401138 0.844114 2.356 255 255 255
-0.135141 -0.265448 2.151 255 255 255
-0.572247 0.289132 2.189 255 255 255
0.45333 0.425086 1.305 255 255 255
0.469032 -0.755301 2.244 255 255 255
-0.298141 -0.701176 1.978 255 255 255
1.17678 0.659789 2.755 255 255 255
0.839007 0.498389 2.78 0 0 0
-1.61234 0.311891 3.674 255 255 255
0.512866 -0.821032 2.244 255 255 255
0.942141 0.137458 2.626 0 0 0
-0.44348 0.575209 2.278 255 255 255
-0.997409 -1.16316 3.165 255 255 255
-1.60268 0.506143 3.652 255 255 255
-1.30182 0.417961 3.609 255 255 255
0.465655 0.455419 1.185 255 255 255
-1.08906 0.857422 2.519 255 255 255
-0.434232 0.277771 2.212 255 255 255
0.842246 -0.31906 2.519 255 255 255
0.429938 -0.834521 2.212 255 255 255
0.305088 0.517185 2.519 255 255 255
-1.32328 0.399169 3.652 255 255 255
-1.08959 0.867044 2.42 255 255 255
-1.66189 -0.312693 3.266 255 255 255
0.806135 -0.572178 2.411 255 255 255
-0.240661 0.155945 2.22 255 255 255
-0.459309 0.142557 2.128 255 255 255
-0.469022 -0.010021 2.173 255 255 255
0.377392 0.31915 2.509 255 255 255
-1.15926 0.453857 3.568 255 255 255
0.467443 0.711997 2.649 255 255 255
-0.285087 -0.123179 2.173 255 255 255
0.16769 -0.364279 2.22 255 255 255
0.40807 -0.444105 2.356 255 255 255
-1.37509 -0.684836 3.318 255 255 255
1.17986 0.191841 2.731 255 255 255
-0.0021781 -0.0249553 2.244 255 255 255
-0.158508 0.220102 2.286 255 255 255
-1.65802 -0.342683 3.248 255 255 255
-0.502682 0.121378 2.121 255 255 255
-1.67785 0.620319 3.429 255 255 255
-0.865863 0.847226 2.55 255 255 255
-0.259662 0.185513 2.228 255 255 255
-1.03224 0.836849 2.582 255 255 255
1.08921 -0.389381 2.55 255 255 255
0.88155 -0.719479 2.392 255 255 255
-1.41991 0.187122 3.467 255 255 255
-0.105797 -0.142351 2.196 255 255 255
0.430486 0.449805 2.509 255 255 255
0.49014 -0.0350764 2.44 255 255 255
0.33782 0.00856585 2.43 255 255 255
-0.951839 -1.15059 3.117 255 255 255
1.31062 0.705631 2.831 255 255 255
-0.417073 -0.645829 1.947 255 255 255
0.54199 -0.199415 2.459 255 255 255
-0.595758 0.15159 2.158 255 255 255
0.875777 -0.545051 2.43 255 255 255
0.65756 -0.797646 2.303 255 255 255
1.25649 -0.466077 2.561 255 255 255
0.279964 -0.739621 2.166 255 255 255
1.09734 -0.354787 2.54 255 255 255
0.38095 0.258856 2.479 255 255 255
0.595607 -0.853655 2.253 255 255 255
-0.28432 -0.583708 2.017 255 255 255
-1.32788 0.815096 2.593 255 255 255
0.133529 -0.642478 2.136 255 255 255
0.122506 -0.182709 2.253 255 255 255
-1.53363 -0.971838 3.231 255 255 255
-1.55563 0.65518 3.117 255 255 255
-1.10239 0.8275 2.66 255 255 255
0.0716674 -0.0658499 2.269 255 255 255
-0.630459 0.340217 2.244 255 255 255
0.308614 -0.298784 2.329 255 255 255
0.715869 -0.756582 2.411 255 255 255
0.294067 -0.746671 2.166 255 255 255
-0.382819 -0.462262 2.017 255 255 255
-1.18341 -0.955791 3.266 255 255 255
-0.306937 0.803402 2.43 255 255 255
0.842986 -0.076898 2.509 255 255 255
-1.01329 0.0168276 3.266 255 255 255
0.894336 0.229188 2.649 255 255 255
-1.1762 -1.09571 3.336 255 255 255
0.199375 0.0243835 2.43 255 255 255
-1.17698 0.772973 2.743 255 255 255
1.2297 -0.0751423 2.743 255 255 255
0.629575 0.449029 1.242 0 0 0
-0.547961 0.0979048 2.136 255 255 255
0.874652 -0.445695 2.449 255 255 255
0.587304 -0.542265 2.383 255 255 255
0.411741 0.415928 1.502 255 255 255
-1.20226 -0.555249 3.318 255 255 255
0.477585 0.15521 2.499 255 255 255
-1.45143 -1.18515 3.283 255 255 255
-1.07644 -0.865954 3.248 255 255 255
-0.236384 -0.591936 2.057 255 255 255
1.20574 -0.662196 2.499 255 255 255
-1.12516 0.850615 2.499 255 255 255
-0.95067 -0.76009 3.181 255 255 255
-0.242372 -0.59021 2.051 255 255 255
-0.268211 0.731603 2.402 255 255 255
0.290918 -0.128342 2.402 255 255 255
-0.474778 0.0180835 2.151 255 255 255
-0.153972 -0.451581 2.121 255 255 255
-0.49953 -0.383863 1.985 255 255 255
-1.44558 0.758491 2.805 255 255 255
0.862748 -0.159189 2.519 255 255 255
0.686407 0.694039 2.731 255 255 255
0.150721 0.38123 2.411 255 255 255
-1.00781 -0.644456 3.198 255 255 255
0.8639 -0.876849 2.365 255 255 255
0.843782 -0.120168 2.561 255 255 255
0.0422392 -0.7518 2.092 255 255 255
0.0154694 -0.512136 2.158 255 255 255
-0.0672259 0.623187 2.347 255 255 255
0.541979 0.696946 2.593 0 0 0
0.323976 0.480705 1.289 255 255 255
-0.41153 -0.480427 1.997 255 255 255
-0.134201 0.334146 2.383 255 255 255
0.0392422 -0.649621 2.114 255 255 255
-1.15742 0.528996 3.527 255 255 255
0.275741 0.503459 1.299 255 255 255
-1.12402 0.714429 3.248 255 255 255
0.673967 -0.702475 2.374 255 255 255
0.293098 -0.0150982 2.42 255 255 255
0.0869569 -0.337819 2.189 255 255 255
-0.431075 -0.577899 1.953 255 255 255
-1.08223 0.858764 2.43 255 255 255
0.530467 0.244677 2.499 255 255 255
-1.0947 0.162579 3.547 255 255 255
-0.288002 -0.681913 1.997 255 255 255
-0.299693 -0.598037 2.01 0 0 0
0.764198 -0.328907 2.44 255 255 255
0.102035 0.259482 2.374 255 255 255
0.0617874 -0.482102 2.181 255 255 255
0.686133 0.61472 2.695 255 255 255
-0.415835 0.0979048 2.136 255 255 255
0.28171 0.375344 2.53 255 255 255
0.361055 0.355897 2.509 255 255 255
-1.56175 -0.400827 3.336 255 255 255
0.720834 -0.771721 2.338 255 255 255
-1.48685 0.644668 3.165 255 255 255
-1.32536 -1.00355 3.198 255 255 255
0.385228 0.423438 1.494 255 255 255
0.467832 -0.152012 2.469 255 255 255
-0.457271 0.0320851 2.151 255 255 255
1.15115 -0.0343565 2.695 255 255 255
1.14071 -0.276618 2.582 255 255 255
0.69167 -0.0195005 2.479 255 255 255
-0.529113 -0.269537 2.024 255 255 255
0.17925 0.525441 1.48 255 255 255
-1.56928 0.0177654 3.448 255 255 255
0.447941 -0.791325 2.212 255 255 255
-1.57381 -1.1361 3.133 255 255 255
0.494324 0.443412 1.189 255 255 255
-0.150672 -0.172686 2.173 255 255 255
0.104007 -0.292916 2.173 255 255 255
1.16208 0.129621 2.731 0 0 0
-0.0756174 -0.412464 2.151 0 0 0
0.764739 -0.598809 2.392 255 255 255
-1.0306 0.867743 2.411 255 255 255
0.909511 0.480896 2.707 0 0 0
0.979501 -0.796832 2.356 255 255 255
0.132845 0.419883 1.473 255 255 255
-0.304256 -0.659164 1.997 255 255 255
-0.226045 0.789273 2.411 255 255 255
-1.54097 -0.858444 3.181 255 255 255
0.20816 0.506174 1.48 0 0 0
-0.991349 0.87559 2.411 255 255 255
-0.620219 0.857181 2.329 255 255 255
0.401834 -0.607213 2.32 255 255 255
0.977441 -0.197717 2.54 255 255 255
-0.481948 -0.479368 1.966 255 255 255
0.24118 -0.612729 2.166 255 255 255
-1.69185 0.458599 3.652 255 255 255
0.0686352 -0.536913 2.173 255 255 255
-0.549091 -0.271268 2.037 255 255 255
0.0856406 -0.798177 2.071 255 255 255
0.448993 -0.0817414 2.411 255 255 255
-0.590802 0.858855 2.303 255 255 255
0.411276 -0.192314 2.42 255 255 255
0.174023 -0.717352 2.121 255 255 255
-0.455667 -0.469263 1.991 255 255 255
-0.948548 0.872322 2.402 255 255 255
-1.8084 0.432204 3.487 255 255 255
0.576347 -0.196208 2.469 255 255 255
0.909511 0.406008 2.707 255 255 255
0.469988 0.442024 1.201 255 255 255
0.241647 0.391078 2.499 255 255 255
0.193622 0.573274 1.498 0 0 0
-1.11024 0.318715 3.487 255 255 255
0.642582 0.69331 2.66 255 255 255
1.12261 -0.809842 2.383 255 255 255
-0.820795 0.908079 2.383 255 255 255
-0.0614383 0.378715 2.42 255 255 255
0.7609 -0.704817 2.356 255 255 255
-0.640011 0.452877 2.278 255 255 255
0.877133 0.117385 2.561 255 255 255
-0.0308407 -0.178736 2.204 255 255 255
-0.090873 -0.22301 2.181 255 255 255
-1.67917 -0.342683 3.248 255 255 255
-1.22926 -0.517453 3.318 255 255 255
-0.628211 0.68832 2.236 255 255 255
-0.411552 -0.202399 2.114 255 255 255
-1.81063 0.292706 3.448 255 255 255
1.29154 -0.0942518 2.78 255 255 255
-0.976132 0.316348 3.231 255 255 255
-1.64916 -0.0792501 3.283 255 255 255
1.26483 -0.466077 2.561 255 255 255
0.71538 0.452579 1.425 255 255 255
-0.483656 0.733948 2.347 255 255 255
1.28984 -0.645284 2.561 255 255 255
0.414361 0.459677 1.283 255 255 255
0.905909 -0.389066 2.469 255 255 255
-1.20651 0.814881 2.719 255 255 255
-0.442583 0.339004 2.236 255 255 255
-1.42897 0.174874 3.448 255 255 255
0.200974 -0.0952126 2.356 255 255 255
-1.30378 -1.17252 3.248 255 255 255
-0.497936 -0.561714 1.941 255 255 255
-1.61087 0.173911 3.429 255 255 255
-1.42487 0.617309 3.507 255 255 255
1.0311 -0.248292 2.55 255 255 255
0.416403 -0.748969 2.236 255 255 255
-0.430768 -0.311449 2.107 255 255 255
-0.253244 -0.104042 2.143 255 255 255
0.709592 0.19987 2.604 255 255 255
-1.18708 -0.0105852 3.547 255 255 255
0.140768 -0.0482859 2.312 255 255 255
-0.252388 -0.573521 2.051 0 0 0
0.290574 0.615962 2.572 255 255 255
-0.0474059 0.128546 2.312 255 255 255
1.29752 -0.210282 2.593 0 0 0
-1.01712 0.769679 2.953 255 255 255
0.60326 0.431512 1.48 255 255 255
-1.06132 -0.773778 3.283 255 255 255
-1.32493 -0.976951 3.248 255 255 255
-1.53595 0.0520133 3.487 255 255 255
-1.49116 -0.422542 3.336 255 255 255
0.0275475 0.357815 1.484 255 255 255
1.2575 -0.111337 2.755 255 255 255
-0.470772 -0.304059 2.057 255 255 255
0.898466 0.68092 2.768 255 255 255
0.439058 -0.692603 2.278 255 255 255
0.725359 0.256035 2.615 255 255 255
-0.37703 -0.673245 1.953 255 255 255
0.622431 0.452064 1.354 255 255 255
0.87821 -0.0323805 2.54 255 255 255
0.486624 -0.44965 2.365 255 255 255
-1.0513 0.0171883 3.336 255 255 255
-0.550306 0.913759 2.338 255 255 255
0.688396 -0.752658 2.411 255 255 255
0.153162 0.505127 1.484 255 255 255
1.10877 -0.569113 2.519 255 255 255
1.04164 -0.804572 2.402 255 255 255
-0.302137 0.895938 2.392 255 255 255
0.423857 -0.0658009 2.402 255 255 255
-0.075441 0.42014 2.365 255 255 255
-1.05872 0.395874 3.467 255 255 255
-1.37251 -0.876525 3.248 255 255 255
0.576726 -0.334087 2.42 255 255 255
-0.366747 0.00774099 2.196 255 255 255
1.23271 0.711016 2.78 255 255 255
-1.43685 -0.161961 3.336 255 255 255
-1.2479 -0.0960715 3.507 255 255 255
-1.30454 -0.679721 3.373 255 255 255
-0.171235 -0.44813 2.121 255 255 255
0.342923 0.0937145 2.383 255 255 255
-0.488852 0.0249094 2.136 255 255 255
-0.395529 -0.0872109 2.158 255 255 255
1.08067 -0.32457 2.53 255 255 255
1.07301 -0.913521 2.411 255 255 255
0.926476 -0.501489 2.449 255 255 255
-0.905539 0.87623 2.402 255 255 255
0.948857 -0.224777 2.519 255 255 255
0.0169532 0.250801 2.365 255 255 255
0.546739 0.0332092 2.499 0 0 0
-1.46556 0.452095 3.696 255 255 255
0.856525 -0.380067 2.489 255 255 255
0.97957 0.608849 2.768 255 255 255
-1.2479 0.571652 3.507 255 255 255
-0.549565 0.836368 2.303 255 255 255
0.190654 -0.666822 2.114 255 255 255
-0.535517 0.125242 2.128 255 255 255
0.285125 0.489655 1.313 255 255 255
-0.0287987 0.156022 2.329 255 255 255
-1.54476 0.0865539 3.507 255 255 255
-0.114321 -0.742734 2.03 255 255 255
-1.62304 -0.588011 3.231 255 255 255
-0.585109 -0.229159 2.107 255 255 255
0.0444028 0.347086 2.392 255 255 255
0.570066 0.424281 1.393 255 255 255
0.692243 0.660016 2.719 255 255 255
-1.70032 -0.326827 3.248 255 255 255
0.246876 0.097961 2.392 255 255 255
0.119026 -0.405502 2.189 255 255 255
-0.542253 0.508149 2.212 255 255 255
1.19551 -0.291203 2.638 255 255 255
-1.53172 -0.452659 3.318 255 255 255
0.514886 -0.748945 2.269 255 255 255
-0.280233 -0.298356 2.136 255 255 255
0.913947 -0.397102 2.469 255 255 255
0.940357 0.383982 2.707 255 255 255
-0.181655 -0.661373 2.044 255 255 255
0.827038 -0.727264 2.392 255 255 255
0.262451 0.105746 2.392 255 255 255
-0.42926 0.0320851 2.151 255 255 255
-1.18254 -0.763222 3.354 255 255 255
-1.60515 -0.633389 3.248 255 255 255
0.938195 0.00921799 2.615 255 255 255
-0.966737 -0.895929 3.149 255 255 255
1.17612 0.232857 2.743 255 255 255
-0.161878 -0.127182 2.181 255 255 255
0.469106 0.32862 2.519 255 255 255
-0.264835 0.153205 2.181 255 255 255
-0.62957 0.77337 2.294 255 255 255
0.104169 -0.13138 2.253 255 255 255
-1.12664 -0.490455 3.318 255 255 255
0.950959 -0.570375 2.42 255 255 255
-0.492329 0.0249094 2.136 255 255 255
-0.278775 0.837549 2.392 255 255 255
-0.391496 -0.134985 2.136 255 255 255
0.953763 -0.392218 2.489 255 255 255
1.02479 0.632528 2.793 255 255 255
1.08417 -0.450235 2.519 255 255 255
-0.504301 0.164524 2.099 255 255 255
-1.13557 -1.22685 3.266 255 255 255
0.73125 -0.705943 2.347 255 255 255
0.851216 0.216256 2.649 255 255 255
1.13973 -0.784046 2.411 255 255 255
-0.542548 0.689483 2.228 255 255 255
0.59317 -0.12084 2.489 255 255 255
-1.24527 -0.418472 3.391 255 255 255
0.0677816 0.315304 1.466 255 255 255
-1.34633 -0.659518 3.354 255 255 255
-0.424533 -0.525924 1.997 255 255 255
-0.0542015 0.554623 2.449 255 255 255
-0.146096 -0.489746 2.107 255 255 255
0.253156 0.48426 1.396 255 255 255
-0.516053 0.868102 2.338 255 255 255
-1.04759 0.82567 2.755 255 255 255
-0.07005 -0.145924 2.196 255 255 255
-1.36593 -1.20652 3.283 255 255 255
-1.22386 -0.933212 3.318 255 255 255
0.115824 0.373576 1.47 255 255 255
0.715882 0.00470443 2.479 255 255 255
0.9808 0.0779853 2.638 255 255 255
1.09899 0.119672 2.707 255 255 255
0.607168 0.619105 2.695 255 255 255
0.286168 0.494176 1.308 255 255 255
1.00231 -0.615582 2.459 255 255 255
-0.211131 0.693766 2.42 255 255 255
-0.205998 0.0842948 2.236 255 255 255
-0.155792 -0.600607 2.099 255 255 255
1.35048 0.450172 2.818 255 255 255
-1.18453 0.756464 2.939 255 255 255
1.00645 0.21218 2.707 255 255 255
-0.0581104 -0.394962 2.151 0 0 0
0.379209 0.431512 1.48 0 0 0
0.212718 -0.00716822 2.402 255 255 255
1.14933 0.701552 2.743 255 255 255
-1.75164 0.59109 3.487 255 255 255
0.323779 -0.313944 2.329 255 255 255
0.773556 -0.240217 2.509 255 255 255
0.485338 -0.719406 2.269 255 255 255
0.622621 -0.509462 2.43 255 255 255
-0.352229 -0.181438 2.151 255 255 255
0.901784 0.271526 2.684 255 255 255
-0.34743 -0.194713 2.143 255 255 255
-0.426153 -0.0100948 2.189 255 255 255
-1.27768 0.81643 2.519 255 255 255
-0.186798 0.738268 2.411 255 255 255
0.128397 0.360934 1.477 255 255 255
-0.171601 0.275279 2.312 255 255 255
0.087235 -0.342473 2.196 255 255 255
0.00483044 -0.704664 2.114 255 255 255
-0.342037 0.373929 2.294 255 255 255
1.22831 -0.190599 2.672 255 255 255
-1.53579 -1.02927 3.181 255 255 255
0.346954 -0.76077 2.166 255 255 255
-0.445454 -0.269535 2.128 255 255 255
0.730002 0.597177 2.695 255 255 255
1.15529 0.451193 2.768 255 255 255
-0.506264 0.460724 2.244 255 255 255
0.758109 0.430062 1.535 255 255 255
-0.230427 -0.182029 2.158 255 255 255
-1.44019 0.634979 3.448 255 255 255
-1.28947 0.569173 3.527 255 255 255
-1.4458 0.163652 3.448 255 255 255
-0.163684 -0.213635 2.158 255 255 255
0.446533 0.436362 1.456 255 255 255
-0.536352 -0.415381 1.966 255 255 255
-0.282771 -0.503295 2.078 255 255 255
-0.117025 -0.696045 2.078 255 255 255
0.427093 0.47113 1.247 255 255 255
0.410976 -0.522397 2.329 255 255 255
0.84262 -0.764111 2.338 255 255 255
0.0146522 -0.777792 2.044 255 255 255
0.169444 -0.764049 2.107 255 255 255
1.15977 -0.652862 2.479 255 255 255
-1.34268 -0.927813 3.318 255 255 255
1.17612 0.121263 2.743 255 255 255
-0.166034 -0.26446 2.143 255 255 255
0.332466 0.421224 2.509 255 255 255
0.920903 -0.658603 2.383 255 255 255
-1.22073 0.77848 2.731 255 255 255
0.190738 -0.330518 2.236 255 255 255
0.150543 -0.496299 2.181 255 255 255
-0.570156 0.362608 2.181 255 255 255
-0.317287 -0.25222 2.128 255 255 255
-0.293804 0.0797904 2.212 255 255 255
-0.11418 -0.0319138 2.22 255 255 255
0.100502 -0.124047 2.253 255 255 255
-0.930433 -0.648107 3.165 255 255 255
0.0977982 0.0968553 2.365 255 255 255
-1.65926 0.105764 3.391 255 255 255
-0.937792 -0.309016 3.071 255 255 255
1.22421 -0.451337 2.572 255 255 255
-0.379023 -0.58117 1.997 255 255 255
-0.0397237 0.124298 2.303 255 255 255
0.519188 0.625781 2.649 255 255 255
0.0107096 0.544999 1.494 255 255 255
-1.69915 0.621837 3.318 255 255 255
1.46 0.552079 2.871 255 255 255
-1.60133 0.708254 3.04 255 255 255
0.656999 -0.458396 2.411 255 255 255
-1.56875 0.362979 3.588 255 255 255
0.490076 0.438924 1.242 255 255 255
-1.01329 -0.124629 3.354 255 255 255
1.21846 0.548995 2.831 255 255 255
-1.29112 0.814316 2.604 255 255 255
0.383701 0.122737 2.42 0 0 0
-0.499102 0.6753 2.278 255 255 255
-1.30733 0.299934 3.674 255 255 255
-0.080082 0.0413935 2.278 255 255 255
-0.558669 0.629205 2.22 255 255 255
0.0676428 0.462267 1.463 255 255 255
-1.67252 -0.700678 3.266 255 255 255
-1.52026 -1.11727 3.181 255 255 255
-1.73156 0.616437 3.318 255 255 255
1.32651 -0.0938449 2.768 255 255 255
-1.24285 0.82737 2.54 255 255 255
-1.08235 0.78101 2.871 255 255 255
-0.537412 0.824247 2.365 255 255 255
0.809726 0.0802197 2.572 255 255 255
0.12567 -0.240407 2.244 255 255 255
0.0793327 0.439635 1.459 255 255 255
1.06915 0.328025 2.755 255 255 255
-0.877936 0.850881 2.561 255 255 255
-0.226888 0.666199 2.42 255 255 255
-0.09084 0.42014 2.365 255 255 255
-1.07073 -1.09782 3.215 255 255 255
0.539719 0.445205 1.254 255 255 255
1.21481 -0.22019 2.561 255 255 255
-1.56647 -0.936924 3.149 255 255 255
0.622621 -0.339422 2.43 255 255 255
0.483975 -0.198604 2.449 255 255 255
-0.384129 0.120818 2.173 255 255 255
-0.137026 -0.191067 2.181 255 255 255
-0.30964 0.326676 2.303 255 255 255
0.688039 0.46208 1.384 255 255 255
-1.41103 -0.573891 3.301 255 255 255
0.267188 -0.145609 2.365 255 255 255
-0.259279 -0.431457 2.107 255 255 255
0.516061 -0.0475469 2.469 255 255 255
-0.1153 -0.0984256 2.173 255 255 255
0.247908 0.125732 2.402 255 255 255
-1.42947 0.452095 3.696 255 255 255
0.429434 -0.503518 2.347 255 255 255
-0.539292 0.167973 2.143 255 255 255
-1.01822 -0.795377 3.198 255 255 255
-0.313553 0.776467 2.42 255 255 255
1.39937 -0.0126496 2.743 255 255 255
-0.233829 -0.590592 2.064 255 255 255
-1.21064 0.840486 2.66 255 255 255
-0.916322 -0.810739 3.117 255 255 255
0.94834 -0.679295 2.374 255 255 255
1.12745 0.390791 2.755 255 255 255
-1.33903 -0.950806 3.231 255 255 255
0.732714 -0.0687321 2.509 255 255 255
0.00341376 0.40885 1.494 255 255 255
1.19357 0.292896 2.805 255 255 255
0.430101 0.45484 1.299 255 255 255
0.383701 -0.109613 2.42 255 255 255
1.04663 0.357843 2.743 255 255 255
0.427642 0.000667582 2.469 255 255 255
0.288065 0.460587 1.4 255 255 255
0.282442 0.226058 2.43 255 255 255
-1.66893 -0.0511773 3.198 255 255 255
0.951573 -0.13796 2.582 255 255 255
0.807659 -0.851078 2.347 255 255 255
-0.381477 -0.143399 2.158 255 255 255
1.33979 -0.12207 2.695 255 255 255
-0.202976 -0.300702 2.128 255 255 255
-1.22796 0.831829 2.66 255 255 255
1.31801 0.498245 2.857 255 255 255
-1.54856 0.547168 3.609 255 255 255
-1.41202 -0.849494 3.266 255 255 255
1.10873 0.436273 2.731 255 255 255
0.505259 0.424018 1.27 255 255 255
0.988785 0.239669 2.719 255 255 255
0.635738 -0.599002 2.347 255 255 255
1.05256 -0.162539 2.572 255 255 255
-1.81624 0.270262 3.448 255 255 255
-0.240406 -0.472642 2.092 255 255 255
