ply
format ascii 1.0
comment Created by Open3D
element vertex 1317
property double x
property double y
property double z
property uchar red
property uchar green
property uchar blue
end_header
-1.32326 -0.735232 3.231 255 255 255
-0.0231714 -0.656118 2.158 255 255 255
-0.241545 -0.668026 2.044 255 255 255
-0.705871 0.249109 2.151 255 255 255
1.14557 -0.632248 2.593 255 255 255
-0.651472 -0.0400172 2.078 255 255 255
0.590032 0.51586 2.638 255 255 255
0.486448 -0.643091 2.383 255 255 255
-0.513934 0.805047 2.278 255 255 255
1.10713 -0.208926 2.684 255 255 255
0.302648 -0.0423478 2.402 255 255 255
-1.3641 0.506037 3.527 255 255 255
-0.102967 -0.136189 2.212 255 255 255
-1.1063 0.833024 3.026 255 255 255
0.453586 0.194309 2.479 255 255 255
0.663191 0.143002 2.572 255 255 255
1.25322 -0.479433 2.707 255 255 255
0.330081 -0.690271 2.32 255 255 255
0.220867 0.0763834 2.449 255 255 255
1.00184 0.708872 2.844 255 255 255
-0.872953 0.834348 2.499 255 255 255
-0.0422078 -0.00667283 2.236 255 255 255
-0.265957 0.090917 2.22 255 255 255
0.454091 -0.796832 2.356 255 255 255
0.300541 0.722735 2.55 255 255 255
1.31979 0.626832 2.871 255 255 255
-0.392437 0.444959 2.22 255 255 255
-1.32108 -1.00881 3.318 255 255 255
-1.33368 -0.487687 3.336 255 255 255
0.0160285 -0.0612534 2.236 255 255 255
0.122668 0.556256 1.466 255 255 255
-0.537758 0.73171 2.269 255 255 255
-1.36587 0.899489 2.593 255 255 255
-1.50734 -0.914001 3.231 255 255 255
-0.313666 -0.61933 2.037 255 255 255
-0.4502 -0.516264 2.01 255 255 255
-0.622116 0.0802234 2.128 255 255 255
-1.39547 -0.643144 3.354 255 255 255
0.925501 0.775513 2.768 255 255 255
0.901092 -0.60284 2.489 255 255 255
0.2612 -0.529871 2.312 255 255 255
-1.20957 -1.16904 3.181 255 255 255
0.615942 0.702433 2.695 255 255 255
0.839008 0.476491 2.707 255 255 255
0.767389 -0.440823 2.489 255 255 255
-1.25248 -1.24294 3.198 255 255 255
0.940656 -0.392846 2.519 255 255 255
0.10349 -0.135287 2.32 255 255 255
-0.0275498 -0.0211517 2.228 255 255 255
1.06251 -0.210513 2.649 255 255 255
0.377392 0.604958 2.509 255 255 255
-0.586931 0.563697 2.204 255 255 255
-0.231841 -0.469173 2.107 255 255 255
-1.59113 -0.706434 3.318 255 255 255
-0.535051 0.641336 2.212 255 255 255
0.316385 0.125729 2.479 255 255 255
0.415216 -0.204129 2.42 255 255 255
0.135022 0.314531 2.411 255 255 255
0.655395 -0.640976 2.449 255 255 255
-0.382149 -0.399808 2.085 255 255 255
0.308012 -0.340613 2.383 255 255 255
-1.23371 -0.197865 3.301 255 255 255
0.143407 -0.35029 2.294 255 255 255
-1.56622 0.335734 3.429 255 255 255
0.849048 -0.435018 2.479 255 255 255
1.39353 0.590283 2.898 255 255 255
-0.395529 -0.115305 2.158 255 255 255
-1.59971 0.252032 3.429 255 255 255
-1.22834 -0.627609 3.301 255 255 255
-0.156881 0.703759 2.374 255 255 255
-0.630459 0.785728 2.244 255 255 255
0.117267 -0.346557 2.294 255 255 255
0.579018 -0.692114 2.365 255 255 255
1.41578 0.609802 2.793 255 255 255
-1.66189 0.776852 3.266 255 255 255
-0.980317 0.843604 2.755 255 255 255
-0.389609 0.319806 2.204 255 255 255
-0.301375 0.632015 2.269 255 255 255
0.18801 0.369261 2.489 255 255 255
0.160759 -0.249513 2.329 255 255 255
0.436051 0.464107 1.357 255 255 255
0.672078 0.455344 1.412 255 255 255
-1.5789 0.672547 3.652 255 255 255
-1.31357 -0.675893 3.354 255 255 255
0.314344 0.784199 2.561 255 255 255
0.958002 -0.66093 2.479 255 255 255
-0.290512 -0.535527 2.085 255 255 255
-0.465947 -0.492165 1.966 255 255 255
1.29543 0.110821 2.818 255 255 255
-1.16227 -1.18376 3.165 255 255 255
0.649525 -0.069006 2.519 255 255 255
-1.47485 0.804344 3.086 255 255 255
1.14864 0.74452 2.911 255 255 255
-0.774495 0.645234 2.303 255 255 255
-0.040037 -0.710449 2.121 255 255 255
-1.41793 -0.998127 3.231 255 255 255
-0.0732972 -0.749285 2.085 255 255 255
0.254969 0.490017 1.406 255 255 255
0.805515 0.531929 2.743 255 255 255
0.35148 0.480546 2.499 255 255 255
1.09242 0.118375 2.78 0 0 0
0.226799 0.663339 2.561 255 255 255
0.211242 0.154879 2.43 255 255 255
-0.114821 0.564333 1.547 0 0 0
0.488476 -0.405002 2.374 255 255 255
-0.548854 0.334215 2.181 255 255 255
0.341776 0.170697 2.43 255 255 255
0.561899 -0.652252 2.374 255 255 255
-0.56371 0.0215036 2.143 255 255 255
-0.0667326 -0.779035 2.092 255 255 255
0.567407 0.488488 1.456 255 255 255
0.432142 -0.530631 2.383 255 255 255
1.15752 -0.705198 2.582 255 255 255
-0.430119 0.54083 2.228 255 255 255
-1.55622 -1.12653 3.149 255 255 255
-0.280989 0.852049 2.411 255 255 255
-1.3262 -0.132995 3.429 255 255 255
0.329614 0.494418 1.432 255 255 255
1.0596 -0.0302378 2.719 255 255 255
0.0653377 -0.627619 2.181 255 255 255
1.00187 0.73788 2.831 255 255 255
0.585628 -0.614379 2.392 255 255 255
0.994184 -0.501607 2.53 255 255 255
0.906243 -0.643593 2.459 255 255 255
0.0272491 0.0594816 2.261 255 255 255
0.728069 -0.629072 2.374 255 255 255
1.00214 -0.0514562 2.672 255 255 255
-1.2511 0.937931 2.42 255 255 255
-0.727512 0.780125 2.228 255 255 255
0.259166 -0.484682 2.294 255 255 255
0.0646486 -0.65963 2.158 255 255 255
0.17098 0.0991077 2.42 255 255 255
0.810882 0.551824 2.731 255 255 255
1.31965 -0.829788 2.672 255 255 255
0.414361 0.459677 1.283 255 255 255
0.208644 -0.336754 2.356 255 255 255
0.00932416 0.217808 2.383 255 255 255
-0.208887 0.000602419 2.228 255 255 255
-0.335811 -0.136376 2.158 255 255 255
-0.64184 0.414218 2.136 255 255 255
0.344308 -0.0859846 2.42 255 255 255
1.18314 0.521492 2.857 255 255 255
1.36577 -0.131054 2.793 0 0 0
-0.294141 -0.228837 2.136 255 255 255
0.900165 -0.477029 2.509 0 0 0
0.808671 -0.0875389 2.582 255 255 255
0.368704 0.48981 1.439 255 255 255
0.380326 -0.190634 2.449 255 255 255
-1.46171 0.0813079 3.527 255 255 255
-1.34808 -0.863019 3.318 255 255 255
0.57298 -0.84284 2.356 255 255 255
-0.156554 -0.698074 2.064 255 255 255
-0.250688 -0.251446 2.151 255 255 255
0.289331 0.809205 2.561 255 255 255
-0.429664 -0.223373 2.085 255 255 255
-1.59748 -0.533983 3.354 255 255 255
-0.0133912 0.500362 1.47 255 255 255
0.499909 0.364833 2.572 255 255 255
0.230362 0.408975 2.509 255 255 255
1.14486 0.116799 2.743 0 0 0
1.38777 0.200691 2.857 255 255 255
-0.629259 0.360376 2.189 255 255 255
0.704124 0.870187 2.857 0 0 0
-0.121764 -0.781118 2.044 255 255 255
-1.42599 -0.628835 3.336 255 255 255
-0.427663 -0.0168574 2.143 255 255 255
-0.317138 0.574027 2.303 255 255 255
-0.435247 0.13191 2.181 255 255 255
-1.69136 0.419944 3.527 255 255 255
0.789801 0.282084 2.66 255 255 255
-0.332298 -0.0134636 2.158 255 255 255
0.854257 0.144214 2.672 255 255 255
-0.632654 0.913457 2.347 255 255 255
-0.312588 -0.640326 2.03 255 255 255
0.361748 0.741527 2.572 255 255 255
1.21779 0.737615 2.884 255 255 255
0.386189 0.558698 2.54 255 255 255
-1.77124 0.193026 3.373 255 255 255
0.0581169 0.467029 1.463 255 255 255
-0.368931 0.469905 2.253 255 255 255
-0.381993 0.0715738 2.181 255 255 255
0.0366817 -0.464687 2.166 255 255 255
0.759438 -0.279282 2.53 255 255 255
-0.404047 0.212073 2.166 255 255 255
-1.21095 -0.207471 3.283 255 255 255
-1.52792 0.801299 3.133 255 255 255
0.417463 0.477987 1.505 255 255 255
-1.4835 0.754183 3.283 255 255 255
-1.58033 -0.663238 3.318 255 255 255
0.644671 -0.147994 2.469 255 255 255
1.38307 -0.434134 2.755 255 255 255
-0.279388 -0.411992 2.078 255 255 255
-1.63525 0.00647121 3.41 255 255 255
-1.34455 -1.02488 3.283 255 255 255
0.423981 -0.783135 2.338 255 255 255
0.518665 0.408269 2.582 255 255 255
0.737332 -0.568778 2.43 255 255 255
-1.13589 -1.02404 3.149 255 255 255
0.52008 0.0689714 2.469 255 255 255
0.373594 0.488804 1.396 255 255 255
-0.642346 0.506262 2.173 255 255 255
1.3712 0.505359 2.871 255 255 255
-0.603593 0.143092 2.136 255 255 255
-0.633119 -0.191053 2.03 255 255 255
-0.926587 0.86093 2.604 255 255 255
-1.10215 0.927537 2.649 255 255 255
-1.38637 -1.23999 3.231 255 255 255
1.37741 0.423169 2.884 255 255 255
-0.590891 -0.244776 2.01 255 255 255
0.141713 0.596903 2.459 255 255 255
-1.70741 0.0453155 3.41 255 255 255
-0.469297 0.376343 2.158 255 255 255
1.22366 -0.171159 2.78 255 255 255
0.94803 0.771009 2.768 0 0 0
-0.32712 -0.762334 1.978 255 255 255
0.503857 -0.853862 2.303 255 255 255
-1.67232 -1.01379 3.165 255 255 255
0.692899 -0.13594 2.469 255 255 255
-1.65171 -1.0756 3.165 255 255 255
-0.00626483 0.455777 2.411 255 255 255
0.71306 0.471131 1.425 255 255 255
-0.0547867 -0.462971 2.158 255 255 255
-0.220557 0.0479078 2.236 255 255 255
0.94566 -0.582588 2.489 255 255 255
0.287008 -0.222155 2.402 255 255 255
0.805205 -0.790911 2.42 255 255 255
-1.63484 0.686406 3.631 255 255 255
0.206858 -0.641006 2.253 255 255 255
-0.20462 0.261848 2.261 255 255 255
0.320164 -0.733934 2.303 255 255 255
0.0120397 -0.512159 2.173 255 255 255
-0.190152 -0.664486 2.064 255 255 255
-0.177911 -0.655466 2.078 255 255 255
-0.467797 -0.262222 2.044 255 255 255
0.336448 -0.65758 2.338 255 255 255
-1.41803 0.405008 3.547 255 255 255
-0.563857 0.536946 2.212 255 255 255
0.834826 -0.855719 2.392 255 255 255
-0.401229 -0.257441 2.114 0 0 0
-1.34297 0.283794 3.547 255 255 255
1.07885 0.335526 2.78 255 255 255
0.832215 -0.477277 2.489 0 0 0
-1.49909 0.343371 3.507 255 255 255
0.893046 0.048771 2.684 255 255 255
-0.478979 -0.694377 1.941 255 255 255
-0.365818 0.119387 2.212 255 255 255
-0.275224 0.432695 2.329 255 255 255
-0.281818 -0.407234 2.071 255 255 255
-1.74236 -0.317672 3.318 255 255 255
-0.266909 0.591071 2.356 255 255 255
-0.43394 -0.310753 2.057 255 255 255
0.639559 -0.889272 2.347 255 255 255
1.23383 -0.497198 2.684 255 255 255
-0.0761447 -0.432964 2.166 255 255 255
-0.186543 -0.573281 2.099 255 255 255
0.405822 -0.485861 2.411 255 255 255
-1.51012 -0.839634 3.354 255 255 255
-0.126768 -0.49809 2.128 0 0 0
1.32445 0.272577 2.831 255 255 255
-1.2675 0.849785 2.805 255 255 255
-0.526131 -0.0867709 2.064 255 255 255
0.67453 0.476384 1.348 255 255 255
-0.0529334 -0.728927 2.085 255 255 255
-0.103243 -0.487652 2.143 255 255 255
-0.177735 -0.259288 2.158 255 255 255
-0.514004 -0.388263 1.991 255 255 255
-1.46825 -0.0664001 3.448 255 255 255
0.482208 0.481481 1.516 255 255 255
-0.600753 0.353252 2.189 255 255 255
-0.432058 -0.647703 1.972 255 255 255
-1.25913 -1.1763 3.215 255 255 255
-1.54389 -0.0102331 3.429 255 255 255
1.25289 0.488714 2.911 255 255 255
0.871822 -0.813951 2.43 255 255 255
0.94702 -0.893302 2.42 0 0 0
-0.616359 -0.412182 1.966 255 255 255
-0.319696 -0.2721 2.121 255 255 255
0.587021 -0.402693 2.43 255 255 255
0.237874 -0.604942 2.269 255 255 255
0.410703 -0.166109 2.44 255 255 255
-0.551628 -0.274215 2.01 255 255 255
-1.13353 -0.64265 3.215 255 255 255
0.808095 0.151594 2.649 255 255 255
0.0370347 0.320073 1.477 0 0 0
-0.05697 0.0115619 2.244 255 255 255
0.249909 -0.454623 2.312 255 255 255
-0.781286 0.832112 2.312 255 255 255
-1.43184 -1.19723 3.215 255 255 255
-1.46001 0.672547 3.652 255 255 255
-1.26016 0.835236 3.165 255 255 255
-0.0496196 0.551934 1.48 255 255 255
-0.213455 -0.73943 2.03 255 255 255
0.752257 -0.738298 2.365 255 255 255
0.247123 0.514311 1.327 255 255 255
1.15115 -0.288724 2.695 255 255 255
-0.269197 0.312009 2.278 255 255 255
-1.55756 -0.892382 3.248 255 255 255
0.783113 -0.276252 2.54 255 255 255
0.773162 0.727038 2.755 255 255 255
-1.55767 0.820425 3.071 255 255 255
-0.273542 -0.399808 2.085 255 255 255
-0.509653 -0.102294 2.107 255 255 255
-1.47625 0.200695 3.507 255 255 255
-1.10462 -1.11571 3.133 255 255 255
0.337634 -0.686496 2.32 255 255 255
-0.738393 0.54083 2.228 255 255 255
-0.0645507 0.575447 1.491 255 255 255
0.249162 0.492108 1.412 255 255 255
1.19357 0.0235817 2.805 255 255 255
0.907853 -0.405144 2.519 255 255 255
1.1801 -0.60103 2.604 255 255 255
-0.280233 -0.0515621 2.136 255 255 255
-0.343942 -0.1982 2.143 255 255 255
0.215593 0.500288 1.449 255 255 255
0.0560839 0.463863 2.392 255 255 255
-0.352756 0.919293 2.392 255 255 255
-1.60828 0.798046 3.181 255 255 255
-0.1696 0.106127 2.236 255 255 255
-1.06322 0.936564 2.638 255 255 255
1.41825 -0.198303 2.78 255 255 255
-0.3999 -0.273733 2.107 255 255 255
-1.08321 0.853475 2.911 255 255 255
1.02304 -0.524424 2.561 255 255 255
0.883073 0.428034 2.707 255 255 255
-0.307296 -0.36631 2.107 0 0 0
0.349188 0.708043 2.572 255 255 255
0.746925 0.00906641 2.572 255 255 255
0.569144 -0.708651 2.356 255 255 255
1.34454 -0.0307827 2.768 255 255 255
-0.56976 0.26847 2.166 255 255 255
-0.278415 0.453047 2.356 255 255 255
-0.400459 -0.339871 2.092 0 0 0
-1.5599 0.105764 3.391 255 255 255
0.476265 -0.0151606 2.43 255 255 255
-0.0497537 0.531692 1.484 255 255 255
0.420362 0.63689 2.572 255 255 255
-0.44397 0.324754 2.189 255 255 255
0.131587 0.0360976 2.42 255 255 255
0.251801 0.856692 2.604 255 255 255
-0.250688 -0.254946 2.151 255 255 255
1.4713 0.418476 2.884 255 255 255
0.67703 0.121553 2.561 0 0 0
0.579338 0.500574 1.297 255 255 255
-1.54644 0.278382 3.41 255 255 255
0.482886 0.591454 2.593 255 255 255
0.732423 -0.896714 2.44 255 255 255
0.887644 -0.68741 2.43 255 255 255
-0.263702 -0.755041 2.01 255 255 255
-0.495305 0.570276 2.244 255 255 255
1.27836 -0.142051 2.831 0 0 0
0.228358 -0.0540743 2.402 255 255 255
-0.0381541 -0.236979 2.212 255 255 255
0.507754 -0.583239 2.392 255 255 255
-1.21171 0.941869 2.42 255 255 255
0.0296805 0.349655 1.47 255 255 255
0.288539 -0.63364 2.32 255 255 255
0.417587 0.479395 1.422 255 255 255
-1.66823 0.734391 3.467 255 255 255
-1.71759 -0.28837 3.354 255 255 255
-1.44181 -0.383317 3.373 255 255 255
-1.08086 0.955804 2.519 255 255 255
-0.417073 -0.709197 1.947 255 255 255
-1.68901 0.436176 3.429 255 255 255
0.914891 0.0924485 2.684 255 255 255
0.433254 -0.675389 2.347 255 255 255
0.299793 0.506966 2.509 255 255 255
1.19844 -0.903697 2.459 255 255 255
0.742066 0.502922 2.707 255 255 255
-0.246177 -0.0418467 2.173 0 0 0
1.42775 0.102588 2.844 255 255 255
-0.080774 -0.224544 2.196 255 255 255
-0.096 0.587241 1.528 255 255 255
-0.0206698 0.111386 2.269 255 255 255
1.22433 -0.890876 2.479 255 255 255
0.864626 -0.174346 2.561 255 255 255
-0.526457 -0.0470956 2.092 255 255 255
-0.147761 0.171624 2.236 255 255 255
0.392577 -0.362873 2.402 255 255 255
-1.1807 0.861614 3.04 255 255 255
1.26274 -0.678755 2.626 255 255 255
0.664885 -0.743917 2.383 255 255 255
-0.274169 0.239898 2.228 255 255 255
1.18047 -0.473234 2.672 255 255 255
-0.0658394 -0.785403 2.064 255 255 255
0.0346101 -0.021465 2.261 255 255 255
0.697154 -0.667705 2.374 255 255 255
0.335179 -0.120976 2.411 255 255 255
-0.53774 -0.0797818 2.057 255 255 255
-0.356772 -0.566292 2.037 255 255 255
0.825483 -0.0875389 2.582 255 255 255
-0.310276 0.489416 2.365 255 255 255
-0.481615 0.398887 2.166 255 255 255
-0.0621236 0.483246 1.491 255 255 255
-0.213277 0.124321 2.236 255 255 255
-0.604258 0.182901 2.114 255 255 255
-1.69915 -0.495855 3.318 255 255 255
-1.51556 -0.896656 3.283 255 255 255
0.443011 0.563734 2.582 255 255 255
-0.0728536 -0.374248 2.173 255 255 255
0.689188 0.692345 2.707 255 255 255
-0.0374814 -0.360103 2.173 255 255 255
-0.545853 0.608939 2.212 255 255 255
-1.59748 -0.304745 3.354 255 255 255
-1.68665 -0.275965 3.336 255 255 255
-0.339341 -0.214933 2.136 255 255 255
-0.366719 -0.572922 2.037 255 255 255
0.263349 -0.799223 2.204 255 255 255
-0.558669 0.52805 2.22 255 255 255
-1.10045 -0.354528 3.165 255 255 255
-0.447288 -0.535673 1.997 255 255 255
0.733512 0.368658 2.66 255 255 255
-0.303657 -0.756813 1.972 255 255 255
0.477151 0.248692 2.54 255 255 255
0.657518 0.100282 2.55 255 255 255
1.16208 -0.810969 2.519 255 255 255
-1.72894 0.352762 3.487 255 255 255
0.711944 -0.862516 2.411 255 255 255
0.0472592 -0.739621 2.166 255 255 255
-0.0374814 -0.427291 2.173 255 255 255
0.885236 -0.929655 2.402 255 255 255
-0.0450132 0.47711 1.487 255 255 255
0.332526 0.315334 2.479 255 255 255
-0.183179 -0.205264 2.181 255 255 255
1.33432 -0.580185 2.684 0 0 0
0.1009 0.496995 2.44 255 255 255
0.111504 -0.245038 2.253 255 255 255
0.208808 -0.276878 2.402 255 255 255
0.0667451 0.138661 2.356 255 255 255
-0.24213 -0.373167 2.107 255 255 255
-0.426933 -0.678644 1.978 255 255 255
0.113971 0.529184 1.477 255 255 255
1.24502 0.78101 2.871 0 0 0
0.393214 0.473204 1.339 255 255 255
-1.83375 0.306882 3.547 255 255 255
-0.38859 -0.524704 2.03 0 0 0
-1.0853 -0.475381 3.181 255 255 255
-1.14381 0.952904 2.469 255 255 255
1.07885 0.113851 2.78 0 0 0
-0.0351647 0.530258 1.48 255 255 255
-0.0235795 -0.413945 2.196 255 255 255
-0.430119 0.439311 2.228 255 255 255
0.533537 0.422667 2.593 255 255 255
0.131879 -0.59158 2.166 255 255 255
-1.48573 -0.180224 3.373 255 255 255
-0.234424 0.852884 2.338 255 255 255
0.281197 0.320656 2.489 255 255 255
-1.458 -0.590331 3.215 255 255 255
-0.124571 -0.182984 2.212 255 255 255
0.707555 -0.379392 2.383 255 255 255
-0.464469 -0.305463 2.044 255 255 255
1.26343 -0.0803316 2.768 255 255 255
0.483909 0.0970966 2.469 255 255 255
-1.25214 0.227923 3.487 255 255 255
-1.14923 -0.632186 3.215 255 255 255
-0.0674441 -0.111794 2.228 255 255 255
0.205666 -0.0738944 2.411 255 255 255
-0.427702 -0.196888 2.092 255 255 255
1.36123 -0.249227 2.793 255 255 255
0.123866 -0.18103 2.278 255 255 255
-1.6208 -1.00349 3.165 255 255 255
0.0484374 -0.292026 2.22 255 255 255
0.767936 -0.87884 2.402 255 255 255
0.740882 -0.232051 2.509 0 0 0
0.4399 -0.534509 2.383 255 255 255
0.199343 0.62649 2.53 255 255 255
-0.100453 -0.389224 2.158 0 0 0
0.719918 -0.148593 2.479 255 255 255
-0.617353 -0.299136 1.959 255 255 255
0.20238 0.498986 1.473 255 255 255
1.2084 0.559272 2.884 0 0 0
0.44645 -0.122431 2.44 255 255 255
-0.662462 0.525872 2.181 255 255 255
-0.935033 0.949044 2.459 255 255 255
-0.363119 -0.623096 2.017 255 255 255
-0.586931 0.517071 2.204 255 255 255
-0.0384301 -0.177056 2.228 255 255 255
-1.18535 -0.171005 3.301 255 255 255
0.711944 -0.854669 2.411 255 255 255
0.92912 -0.572728 2.499 255 255 255
0.932455 -0.519922 2.519 255 255 255
-1.36347 0.113776 3.467 255 255 255
0.640915 0.199875 2.55 255 255 255
-1.00713 0.888102 2.66 255 255 255
0.956665 0.548153 2.78 0 0 0
-0.305979 -0.650236 2.03 255 255 255
0.277145 0.296354 2.489 255 255 255
-0.076686 0.505083 1.491 255 255 255
-1.14517 -0.12069 3.248 255 255 255
-0.129804 -0.682836 2.121 255 255 255
-0.576812 0.113379 2.166 255 255 255
-0.212357 -0.145459 2.189 255 255 255
0.0243713 0.320226 2.338 255 255 255
-1.64453 -0.64103 3.181 255 255 255
0.572787 -0.47586 2.42 255 255 255
-0.492929 0.88426 2.392 255 255 255
1.03907 -0.58551 2.519 255 255 255
1.19651 0.796971 2.78 255 255 255
-0.0622419 -0.437899 2.173 255 255 255
-0.154486 0.102122 2.228 255 255 255
0.622216 -0.685748 2.383 255 255 255
-1.19405 0.750278 3.266 255 255 255
-0.479167 0.535275 2.22 255 255 255
-0.163153 -0.317953 2.151 255 255 255
0.265523 -0.038727 2.42 255 255 255
-1.28207 -0.27307 3.301 255 255 255
0.356738 0.33147 2.479 255 255 255
-0.436352 -0.420438 2.037 255 255 255
0.559332 -0.564823 2.43 255 255 255
0.311891 -0.379392 2.383 255 255 255
-0.159057 -0.424879 2.143 0 0 0
-0.345459 0.112593 2.22 255 255 255
-1.47771 -0.733432 3.318 255 255 255
-0.302433 -0.348035 2.121 255 255 255
1.11073 0.749257 2.911 255 255 255
-0.452479 0.60699 2.286 255 255 255
0.579338 0.502684 1.297 255 255 255
-1.58347 -0.373683 3.336 255 255 255
0.191862 0.711634 2.54 255 255 255
0.454124 0.52355 2.55 255 255 255
0.685971 0.488809 1.547 255 255 255
0.609323 0.495301 1.513 255 255 255
0.478924 -0.622839 2.365 255 255 255
1.21574 0.146199 2.793 255 255 255
0.144511 -0.388026 2.253 255 255 255
-1.58347 -0.666837 3.336 255 255 255
-0.534302 0.144097 2.151 255 255 255
1.11892 -0.728636 2.561 255 255 255
0.421178 -0.561261 2.365 255 255 255
1.22204 0.422657 2.818 255 255 255
-1.392 0.818251 3.026 255 255 255
0.29453 0.19181 2.499 255 255 255
0.0511367 -0.538889 2.181 255 255 255
-1.38589 -1.106 3.318 255 255 255
-0.362727 -0.51508 2.071 255 255 255
-1.57342 -0.892382 3.248 255 255 255
-1.36347 0.108134 3.467 255 255 255
0.969171 -0.507723 2.54 255 255 255
0.22484 -0.334192 2.365 255 255 255
0.616001 -0.764287 2.374 255 255 255
0.821868 0.789026 2.768 255 255 255
0.942451 -0.0503585 2.615 255 255 255
-0.142052 0.225054 2.261 255 255 255
1.14012 -0.507957 2.649 255 255 255
-1.48196 0.149331 3.507 255 255 255
-0.306426 0.762669 2.365 255 255 255
-1.5716 -1.04454 3.149 255 255 255
0.453722 0.465724 1.294 255 255 255
-1.17379 0.910937 2.626 255 255 255
-1.55046 0.0808468 3.507 255 255 255
-0.0197315 -0.6797 2.166 255 255 255
-0.200145 0.609478 2.383 255 255 255
0.109871 -0.404019 2.22 255 255 255
1.07618 0.66097 2.857 255 255 255
-0.572581 0.370019 2.204 255 255 255
-0.584641 0.0319657 2.143 255 255 255
1.14919 -0.549025 2.66 255 255 255
-1.50482 0.15717 3.429 255 255 255
1.42033 -0.221956 2.793 255 255 255
0.830504 0.00929906 2.638 255 255 255
0.622677 0.332647 2.649 255 255 255
-0.806101 0.591723 2.374 255 255 255
0.226198 0.507124 1.384 255 255 255
-0.0681361 -0.625098 2.136 0 0 0
-0.569201 -0.569787 1.947 255 255 255
-0.329015 -0.471268 2.071 255 255 255
-0.0823129 -0.588785 2.143 255 255 255
0.564313 0.488965 1.39 255 255 255
0.564267 0.661819 2.638 255 255 255
1.42962 0.117004 2.857 0 0 0
-0.562029 -0.0571169 2.085 255 255 255
0.291548 0.0125718 2.44 255 255 255
1.26791 0.0282768 2.818 255 255 255
0.6221 0.488633 1.316 255 255 255
-0.694117 0.323667 2.158 255 255 255
0.178779 -0.512631 2.269 255 255 255
-0.355117 0.740596 2.356 255 255 255
-0.166035 -0.0635281 2.189 255 255 255
0.351126 0.107868 2.44 0 0 0
-1.68445 0.703858 3.248 255 255 255
-0.183476 -0.302821 2.143 255 255 255
0.359449 -0.83929 2.244 0 0 0
-1.09489 -0.747319 3.149 255 255 255
-0.171235 -0.520613 2.121 255 255 255
-0.440406 0.360376 2.189 255 255 255
-0.658912 0.650094 2.181 255 255 255
-0.40652 0.855036 2.365 255 255 255
0.689736 -0.679489 2.402 255 255 255
0.892314 -0.130108 2.593 255 255 255
1.33105 -0.726501 2.66 255 255 255
-0.734766 0.533579 2.228 255 255 255
-0.477267 0.548081 2.228 255 255 255
-1.45029 -1.17528 3.198 255 255 255
0.390124 -0.0856649 2.411 255 255 255
-1.73343 -0.444968 3.301 255 255 255
-0.423941 0.25432 2.196 255 255 255
1.05433 -0.138421 2.672 0 0 0
-1.29023 -0.596263 3.336 255 255 255
1.074 -0.892744 2.44 255 255 255
-0.371048 -0.351256 2.099 255 255 255
-1.51621 0.097968 3.507 255 255 255
0.512042 0.0368285 2.469 255 255 255
0.477102 -0.597465 2.356 255 255 255
0.97346 -0.556816 2.519 255 255 255
0.185348 -0.112707 2.402 255 255 255
-0.621123 0.382496 2.173 255 255 255
-1.64635 -0.126709 3.41 255 255 255
-0.633571 0.639016 2.204 255 255 255
0.695259 -0.585181 2.449 255 255 255
-0.109371 -0.13163 2.196 255 255 255
0.650716 0.486291 1.547 255 255 255
0.723772 0.461634 2.672 255 255 255
0.0348703 -0.00679817 2.278 255 255 255
1.09348 -0.31235 2.672 255 255 255
0.159652 0.536394 1.477 255 255 255
-0.437187 0.0253408 2.173 255 255 255
-0.597695 0.513484 2.204 255 255 255
-0.480894 0.548081 2.228 255 255 255
-0.483166 0.135956 2.189 255 255 255
-0.0822453 -0.00303413 2.236 255 255 255
-1.2519 0.899489 2.593 255 255 255
-1.04212 0.879063 2.672 255 255 255
-0.243533 -0.0668452 2.181 255 255 255
0.176124 -0.034257 2.383 255 255 255
-1.35836 0.276454 3.527 255 255 255
0.600461 -0.320762 2.469 255 255 255
0.283604 0.0125718 2.44 255 255 255
-0.284914 0.887361 2.411 255 255 255
-0.225066 0.770809 2.32 255 255 255
0.778306 -0.733381 2.374 255 255 255
-0.424296 -0.210505 2.092 255 255 255
-0.618023 0.0521742 2.114 255 255 255
-0.282806 0.686629 2.329 255 255 255
0.233355 -0.606488 2.261 255 255 255
0.698844 -0.341963 2.42 255 255 255
-1.01712 0.327573 2.953 255 255 255
0.978073 -0.760806 2.489 255 255 255
-1.22972 0.922924 2.53 255 255 255
0.0271577 0.383701 1.463 255 255 255
0.679938 0.285309 2.572 255 255 255
-0.126373 0.000606745 2.244 255 255 255
-0.0823129 -0.571348 2.143 0 0 0
0.808695 -0.410813 2.479 255 255 255
-1.1796 -1.02957 3.198 255 255 255
-0.278699 -0.00291878 2.151 255 255 255
-1.71758 0.54002 3.487 255 255 255
-0.0952479 0.045259 2.286 255 255 255
0.406732 -0.301112 2.44 255 255 255
0.189161 -0.826704 2.136 255 255 255
-0.145257 0.286566 2.312 255 255 255
-1.55993 -0.614301 3.231 255 255 255
-0.138127 -0.362107 2.143 255 255 255
1.2612 0.223467 2.793 255 255 255
0.615447 -0.515318 2.402 255 255 255
-0.473103 -0.320008 2.01 255 255 255
0.0460832 0.50374 1.459 255 255 255
1.04362 0.651671 2.857 255 255 255
0.978073 -0.432722 2.489 255 255 255
-0.429619 0.920463 2.365 255 255 255
-0.0494874 -0.104918 2.236 255 255 255
1.40311 0.000748427 2.768 255 255 255
0.494381 -0.681579 2.329 255 255 255
-1.64594 -0.541232 3.266 255 255 255
0.129478 -0.157395 2.312 255 255 255
-0.346824 -0.60607 2.037 255 255 255
-0.155061 -0.472155 2.136 255 255 255
-0.59822 -0.404338 1.959 255 255 255
-0.435045 0.723003 2.312 255 255 255
-1.69911 -0.828234 3.266 255 255 255
-0.0448128 0.332884 2.374 255 255 255
0.607099 0.499 1.466 255 255 255
-0.172446 -0.440871 2.136 255 255 255
0.277592 0.515327 2.53 255 255 255
-1.64496 -0.0924006 3.373 255 255 255
-0.168418 0.336638 2.32 255 255 255
0.571319 -0.776784 2.365 255 255 255
0.140038 0.537339 1.473 255 255 255
-0.488298 -0.647819 1.953 255 255 255
0.200214 -0.674969 2.22 255 255 255
0.753135 -0.227968 2.509 0 0 0
-0.372599 0.392911 2.253 255 255 255
-0.461098 0.520825 2.22 255 255 255
-1.35637 0.685793 3.507 255 255 255
-0.61991 -0.496914 1.947 255 255 255
-0.680801 0.890309 2.278 255 255 255
-0.226812 0.868102 2.338 0 0 0
0.34849 -0.864852 2.244 255 255 255
-0.629418 -0.481072 1.947 255 255 255
-0.388379 -0.496545 2.064 0 0 0
0.822676 -0.71076 2.402 255 255 255
0.386728 -0.701598 2.32 255 255 255
-1.31357 -0.588564 3.354 255 255 255
0.797141 -0.31906 2.519 255 255 255
1.25673 0.632727 2.898 255 255 255
0.490062 -0.239572 2.42 255 255 255
-1.21339 0.522546 3.41 255 255 255
-0.11022 -0.47719 2.143 255 255 255
0.701095 0.514001 2.719 255 255 255
0.963514 -0.046297 2.626 255 255 255
1.36802 0.507647 2.884 255 255 255
-1.63313 -0.912683 3.283 255 255 255
0.378803 0.485183 1.342 255 255 255
0.742171 0.416274 2.66 255 255 255
1.38509 -0.409156 2.768 255 255 255
0.718541 -0.909055 2.42 0 0 0
0.908212 0.514074 2.743 255 255 255
-1.73766 0.399315 3.448 255 255 255
0.0365833 0.413518 1.459 255 255 255
-0.343864 -0.234133 2.121 255 255 255
0.315109 0.177454 2.469 255 255 255
-0.207895 -0.281897 2.143 255 255 255
-0.399235 -0.567296 2.017 255 255 255
0.942141 -0.0804839 2.626 255 255 255
0.962176 -0.718532 2.469 255 255 255
-0.64184 0.254324 2.136 255 255 255
-0.24213 -0.476031 2.107 255 255 255
1.3527 -0.674557 2.66 255 255 255
-1.52845 0.674588 3.631 255 255 255
-0.291453 -0.624784 2.044 255 255 255
0.749781 0.540549 2.719 255 255 255
-1.24343 -1.11352 3.215 255 255 255
-0.35014 -0.59944 2.037 255 255 255
-0.254878 -0.446897 2.099 255 255 255
0.289052 0.488894 1.416 255 255 255
-1.62415 -0.0989634 3.41 255 255 255
-0.0898452 0.00425847 2.244 255 255 255
-1.58529 0.0564139 3.41 255 255 255
-1.06796 -0.963377 3.086 255 255 255
-0.486729 0.417372 2.189 255 255 255
-0.342003 0.414163 2.269 255 255 255
-1.40534 -0.517801 3.391 255 255 255
-0.441195 0.204266 2.158 255 255 255
-1.75724 -0.34111 3.336 255 255 255
-1.09783 0.927537 2.649 255 255 255
-1.50466 -0.916047 3.354 255 255 255
0.646671 0.0668214 2.54 255 255 255
0.382901 0.139634 2.44 255 255 255
-1.2696 -0.810069 3.215 255 255 255
1.2575 -0.00373838 2.755 255 255 255
0.615296 0.214775 2.53 0 0 0
-1.28788 0.873879 2.78 255 255 255
-0.13246 0.0526991 2.286 255 255 255
1.01432 -0.895694 2.459 0 0 0
0.225195 -0.619008 2.253 255 255 255
0.595597 -0.373959 2.449 255 255 255
-1.2257 0.937741 2.44 255 255 255
0.16598 -0.713497 2.151 255 255 255
0.94208 -0.72255 2.469 255 255 255
-1.34454 -0.721124 3.336 255 255 255
0.0054451 0.252709 2.383 255 255 255
0.702043 0.0673739 2.561 255 255 255
0.0128337 0.498992 1.459 255 255 255
-0.273215 0.643993 2.312 255 255 255
0.270575 0.000657037 2.43 255 255 255
-0.216832 -0.304165 2.128 255 255 255
-0.191438 0.095211 2.236 255 255 255
0.227525 0.500124 1.435 255 255 255
0.0773505 -0.813996 2.121 255 255 255
-1.08702 0.874452 2.871 255 255 255
-0.728514 0.733972 2.22 255 255 255
0.607708 0.195725 2.55 255 255 255
0.421303 0.141865 2.479 255 255 255
-0.584347 -0.251318 2.01 255 255 255
0.128049 0.491795 1.473 255 255 255
1.03832 0.251815 2.805 255 255 255
-0.697964 0.497478 2.181 255 255 255
0.352703 0.303231 2.479 255 255 255
1.31574 -0.668978 2.638 255 255 255
-1.47893 0.701183 3.527 255 255 255
-0.0244599 0.0784641 2.278 255 255 255
0.743799 0.843841 2.831 255 255 255
-1.6427 0.0616179 3.391 255 255 255
-0.523925 0.046408 2.166 255 255 255
0.808351 0.667406 2.768 255 255 255
-0.435654 0.832612 2.356 255 255 255
0.881795 -0.593978 2.469 255 255 255
1.3766 -0.576346 2.707 255 255 255
-0.00560743 -0.462971 2.158 255 255 255
0.410331 -0.679208 2.347 255 255 255
-0.110633 0.528662 1.524 0 0 0
-0.435303 0.426333 2.236 255 255 255
0.802805 0.656728 2.78 255 255 255
-0.683764 0.603954 2.181 255 255 255
0.249865 -0.79547 2.244 255 255 255
0.370121 0.787567 2.572 0 0 0
0.766889 -0.831128 2.411 255 255 255
0.377029 0.491792 1.313 255 255 255
1.31664 0.371019 2.844 255 255 255
-0.448221 0.197243 2.158 255 255 255
-0.221732 0.64721 2.365 255 255 255
-0.0458476 -0.152221 2.236 255 255 255
0.0595263 0.178353 2.374 255 255 255
1.4046 0.616309 2.844 255 255 255
-0.499547 -0.484404 1.935 255 255 255
-0.40333 -0.273733 2.107 255 255 255
0.135464 -0.241187 2.286 255 255 255
0.0923328 0.529184 1.477 255 255 255
0.46103 -0.489817 2.392 0 0 0
-1.17459 0.95201 2.509 255 255 255
1.03074 -0.858016 2.489 255 255 255
0.439939 0.761235 2.54 255 255 255
-0.270143 0.361465 2.286 255 255 255
-0.0708156 -0.0210758 2.22 255 255 255
1.23843 -0.885428 2.593 255 255 255
-0.382594 -0.516781 2.051 0 0 0
-1.35219 0.700539 3.467 255 255 255
-1.03644 0.700903 2.967 255 255 255
-1.27597 0.16833 3.429 255 255 255
-0.0816568 -0.0391391 2.22 255 255 255
-1.18218 -0.569963 3.248 255 255 255
-0.552176 -0.312355 2.024 255 255 255
-0.332197 0.116624 2.228 255 255 255
-0.38462 0.236452 2.196 255 255 255
0.767485 0.536125 2.719 255 255 255
-0.247888 0.0295016 2.22 255 255 255
0.0859207 0.130993 2.356 255 255 255
-0.284026 0.242649 2.22 255 255 255
0.336448 -0.665189 2.338 255 255 255
0.804554 0.614956 2.755 255 255 255
-0.398905 0.422695 2.236 255 255 255
0.60032 -0.245273 2.519 255 255 255
-1.26289 -0.790173 3.198 255 255 255
0.00808372 0.494243 1.459 255 255 255
0.189258 -0.116616 2.402 255 255 255
1.02408 -0.00367325 2.707 255 255 255
1.33986 0.762381 2.925 255 255 255
-0.518909 -0.1859 2.01 255 255 255
1.0651 -0.921838 2.402 255 255 255
1.27088 0.514827 2.898 255 255 255
-0.481136 0.0506244 2.196 255 255 255
0.219935 0.630607 2.53 255 255 255
0.58832 -0.82367 2.356 255 255 255
-1.19254 0.870856 2.844 255 255 255
-0.541199 -0.435903 1.972 255 255 255
0.682955 0.460273 1.406 255 255 255
0.478924 -0.769087 2.365 255 255 255
-0.176499 -0.295847 2.143 0 0 0
0.340253 -0.589095 2.338 255 255 255
0.432162 0.477987 1.505 255 255 255
-0.191818 0.341734 2.329 255 255 255
-0.958779 0.944661 2.479 255 255 255
-0.175923 -0.416539 2.136 255 255 255
0.553379 -0.882057 2.338 255 255 255
-0.333488 -0.454692 2.057 255 255 255
1.13799 0.751694 2.884 255 255 255
0.852044 -0.695319 2.43 255 255 255
-0.150023 -0.563617 2.114 255 255 255
-0.60707 0.080525 2.136 255 255 255
-0.956041 0.902865 2.615 255 255 255
-1.37879 -1.07884 3.301 255 255 255
0.274918 0.466741 2.469 255 255 255
-1.12754 -0.446696 3.198 255 255 255
-0.359597 0.0256091 2.196 255 255 255
0.0323523 0.493264 2.365 255 255 255
-1.55376 0.81989 2.996 255 255 255
0.981829 -0.551013 2.53 255 255 255
-0.125022 0.112593 2.22 255 255 255
-1.3107 0.22923 3.507 255 255 255
-0.542253 0.454154 2.212 255 255 255
-0.381993 0.075123 2.181 255 255 255
0.853885 0.686688 2.755 255 255 255
-0.67514 -0.105321 2.099 255 255 255
0.533086 0.477444 1.351 255 255 255
-0.0216263 0.502868 2.374 255 255 255
-0.614048 0.481509 2.173 255 255 255
-0.590757 -0.396185 1.966 255 255 255
-0.721286 0.549726 2.22 255 255 255
-0.442831 0.0217344 2.166 255 255 255
0.586485 0.504612 1.313 255 255 255
0.0828838 0.392977 1.48 255 255 255
0.392577 -0.257334 2.402 255 255 255
-0.56976 0.0957551 2.166 255 255 255
-0.616741 -0.547608 1.947 255 255 255
-1.36723 0.135597 3.448 255 255 255
0.574646 -0.0437053 2.479 255 255 255
0.464398 0.0204291 2.43 255 255 255
0.66093 -0.368614 2.44 255 255 255
0.341971 0.0654797 2.489 255 255 255
-1.41721 0.824766 2.996 255 255 255
0.264718 0.0405155 2.449 255 255 255
0.143405 0.296014 2.42 255 255 255
1.33381 0.799699 2.871 255 255 255
-1.83111 0.602439 3.487 255 255 255
0.365516 0.637233 2.54 255 255 255
0.268683 -0.83653 2.189 255 255 255
-0.4446 -0.626131 1.985 255 255 255
-0.124055 0.563727 2.338 255 255 255
-1.15357 0.755473 3.198 255 255 255
-0.555955 0.202894 2.181 255 255 255
-0.529759 0.585853 2.22 255 255 255
1.29266 -0.653115 2.626 255 255 255
1.2021 0.291643 2.793 255 255 255
-0.667242 -0.127077 2.064 255 255 255
0.0445006 -0.332961 2.204 255 255 255
0.135464 -0.248627 2.286 255 255 255
1.16161 0.146827 2.805 255 255 255
0.048591 0.450363 1.463 255 255 255
0.883688 -0.730909 2.43 255 255 255
-1.14226 -0.0405522 3.181 255 255 255
1.4173 0.644375 2.805 255 255 255
1.38259 0.0787208 2.818 255 255 255
1.2297 -0.351896 2.743 255 255 255
-0.542753 -0.46657 1.966 255 255 255
-0.621821 -0.52387 1.953 255 255 255
0.595971 0.511233 1.359 255 255 255
0.459484 -0.844948 2.269 255 255 255
0.193168 -0.0579832 2.402 255 255 255
-0.142059 -0.0245105 2.204 255 255 255
-0.0990067 -0.128523 2.204 255 255 255
-0.545853 0.49375 2.212 255 255 255
-0.364495 -0.0029907 2.204 255 255 255
0.428975 0.460128 1.302 255 255 255
-1.29503 0.867978 2.719 255 255 255
0.824219 0.578489 2.731 255 255 255
0.0675101 0.175151 2.383 255 255 255
0.912654 -0.0333367 2.615 255 255 255
1.11595 0.452659 2.805 0 0 0
-1.39607 -0.966421 3.266 255 255 255
0.361553 0.131153 2.43 255 255 255
0.147845 -0.026301 2.365 255 255 255
-0.110089 0.443232 2.365 255 255 255
-1.49954 -0.977505 3.181 255 255 255
-1.17017 -1.11875 3.215 255 255 255
1.10467 0.389089 2.743 255 255 255
-0.172529 -0.127182 2.181 255 255 255
0.0953785 0.445652 1.487 0 0 0
-0.252436 -0.0311375 2.166 255 255 255
-0.169523 -0.309796 2.143 0 0 0
0.480267 0.483783 1.275 255 255 255
0.00488071 -0.760661 2.136 255 255 255
0.566732 -0.419161 2.411 255 255 255
1.21987 -0.265916 2.731 255 255 255
-1.05277 -0.708818 3.071 255 255 255
-0.196793 -0.535707 2.099 255 255 255
0.0247466 0.193806 2.374 255 255 255
-1.06277 0.220722 3.071 255 255 255
0.0872336 0.273127 2.392 255 255 255
-0.562213 0.893956 2.356 255 255 255
0.0962639 -0.701772 2.158 255 255 255
-0.679061 0.412987 2.166 255 255 255
1.33686 -0.360823 2.743 255 255 255
0.0117516 -0.793286 2.121 255 255 255
-0.534341 -0.142477 2.044 255 255 255
0.0232247 -0.162554 2.228 255 255 255
0.197816 -0.152364 2.411 255 255 255
-0.0823129 -0.574836 2.143 0 0 0
-0.269968 0.834398 2.383 255 255 255
-1.3924 0.850279 2.719 255 255 255
-0.481115 -0.267033 2.03 255 255 255
-0.559183 0.127478 2.166 255 255 255
-0.241528 0.0658648 2.228 255 255 255
1.1603 0.796971 2.78 255 255 255
1.39044 -0.450098 2.743 255 255 255
-1.21457 0.570098 3.429 255 255 255
-0.0423921 0.523033 1.48 255 255 255
-1.12052 -0.0145219 3.149 255 255 255
-0.0757281 0.414013 2.374 255 255 255
0.20815 0.50036 1.463 255 255 255
-0.311758 -0.329685 2.114 0 0 0
0.958157 -0.597996 2.469 255 255 255
-1.22063 -0.318008 3.266 255 255 255
0.64014 -0.746727 2.392 255 255 255
-0.450682 -0.23711 2.057 255 255 255
-1.72732 -0.0320219 3.373 255 255 255
-1.47496 0.811179 3.055 255 255 255
0.1119 -0.367328 2.261 255 255 255
-0.515519 -0.435903 1.972 255 255 255
-1.56267 -0.742055 3.215 255 255 255
-0.541754 0.202894 2.181 255 255 255
-0.461786 0.324754 2.189 255 255 255
1.16332 0.798771 2.755 255 255 255
-0.631409 0.202184 2.136 255 255 255
0.00865507 -0.280175 2.212 255 255 255
-0.119545 0.00794192 2.253 255 255 255
0.0477513 0.150736 2.365 255 255 255
-1.66258 0.243541 3.467 255 255 255
0.0199175 0.417406 1.456 255 255 255
0.205445 -0.492422 2.278 255 255 255
0.473588 -0.694047 2.32 255 255 255
-0.34617 -0.243681 2.114 255 255 255
-1.62691 0.777216 3.336 255 255 255
0.789015 0.179 2.672 255 255 255
-1.66018 0.547168 3.609 255 255 255
-0.625376 0.884072 2.32 255 255 255
1.2352 -0.668831 2.604 255 255 255
-1.81063 0.623757 3.448 255 255 255
0.468817 -0.485925 2.392 0 0 0
0.499909 0.369018 2.572 255 255 255
0.558226 0.503768 1.322 255 255 255
-0.492871 -0.249775 2.024 255 255 255
0.855999 -0.790225 2.43 255 255 255
0.580246 0.490784 1.435 255 255 255
1.25953 -0.898087 2.593 255 255 255
-0.56567 -0.168508 2.037 255 255 255
0.763059 0.558248 2.719 255 255 255
0.434912 -0.0702321 2.42 255 255 255
-1.60534 -0.67901 3.165 255 255 255
1.24648 -0.923705 2.459 255 255 255
-1.20547 0.87955 2.967 255 255 255
1.39242 0.154199 2.857 255 255 255
0.436302 0.336819 2.519 255 255 255
0.351863 0.646669 2.561 255 255 255
-1.52714 0.196231 3.429 255 255 255
-0.39845 -0.162793 2.136 255 255 255
0.970108 -0.636725 2.479 255 255 255
-0.440647 0.877055 2.383 255 255 255
-0.373896 0.197143 2.196 255 255 255
0.632353 -0.700016 2.392 255 255 255
0.242526 -0.674068 2.278 255 255 255
0.0739992 -0.19881 2.228 255 255 255
0.259166 -0.492148 2.294 255 255 255
0.826187 -0.563561 2.459 255 255 255
-0.759368 0.849868 2.269 255 255 255
-0.566672 -0.741944 1.917 255 255 255
1.22371 0.712899 2.898 255 255 255
-0.20517 -0.254946 2.151 255 255 255
-1.21906 0.903305 2.604 255 255 255
0.0318334 0.463378 1.459 255 255 255
0.97756 -0.565014 2.519 255 255 255
0.193146 -0.716349 2.181 255 255 255
-0.5991 0.357955 2.196 255 255 255
0.434534 -0.134343 2.44 0 0 0
0.464052 -0.72327 2.329 255 255 255
0.568561 0.636061 2.638 255 255 255
-0.804574 0.802696 2.347 255 255 255
-0.166633 -0.694715 2.064 255 255 255
-1.18341 -0.0894695 3.266 255 255 255
0.339044 -0.387148 2.383 255 255 255
1.02878 0.189043 2.755 255 255 255
0.251818 -0.20261 2.402 255 255 255
1.38522 0.608144 2.871 255 255 255
-0.583672 -0.431703 1.953 255 255 255
-0.394741 0.216295 2.173 255 255 255
0.323005 0.212144 2.499 0 0 0
-0.360589 -0.645513 1.985 255 255 255
0.971202 0.0315682 2.707 255 255 255
-1.2344 -0.756267 3.165 255 255 255
-1.56238 0.485818 3.547 255 255 255
0.0484374 -0.198097 2.22 255 255 255
0.473867 -0.82388 2.303 255 255 255
-1.22238 0.18148 3.467 255 255 255
-0.611443 0.360376 2.189 255 255 255
0.932455 -0.474831 2.519 255 255 255
-0.181248 -0.234705 2.158 255 255 255
-0.196785 -0.340068 2.136 255 255 255
-1.43632 -0.383317 3.373 255 255 255
-0.165858 0.47554 2.392 255 255 255
-0.334607 -0.22798 2.128 255 255 255
0.984444 0.0533565 2.695 255 255 255
0.826977 0.727038 2.755 255 255 255
0.764575 -0.0576538 2.561 255 255 255
-0.33339 0.309895 2.236 255 255 255
1.32477 -0.20997 2.755 255 255 255
-0.512121 -0.611554 1.959 255 255 255
-0.210225 -0.0818966 2.204 255 255 255
-1.48312 0.823995 3.011 255 255 255
-0.467782 -0.668008 1.947 255 255 255
-0.170141 -0.0780257 2.196 255 255 255
-0.281717 -0.296261 2.121 255 255 255
0.54572 0.467886 1.528 255 255 255
0.944962 0.0928274 2.695 255 255 255
-1.57573 0.680497 3.631 255 255 255
-0.381981 -0.594077 2.03 255 255 255
-0.94142 0.768218 2.695 255 255 255
0.742176 -0.901179 2.42 255 255 255
-1.11713 0.396384 3.198 255 255 255
-1.75316 -0.414863 3.318 255 255 255
0.234446 0.380394 2.509 255 255 255
-1.31903 -0.615854 3.354 255 255 255
0.492555 0.477743 1.445 255 255 255
0.376855 -0.670209 2.329 255 255 255
-0.0239231 -0.017526 2.228 255 255 255
-1.56482 -0.592414 3.198 255 255 255
1.11246 0.779343 2.831 0 0 0
0.73614 0.0639961 2.593 255 255 255
-1.70773 0.237899 3.467 255 255 255
-0.223394 0.123876 2.228 255 255 255
-0.349986 -0.701872 2.017 0 0 0
-1.71692 0.0344078 3.429 255 255 255
1.36707 -0.314563 2.768 255 255 255
0.158181 -0.194152 2.347 255 255 255
-1.14455 0.890101 2.719 255 255 255
1.28441 -0.178587 2.755 255 255 255
0.680979 -0.0359246 2.499 255 255 255
-0.398278 0.0889922 2.173 255 255 255
-0.900255 0.906455 2.53 255 255 255
-0.750346 0.722884 2.253 255 255 255
-0.548701 -0.552474 1.953 255 255 255
-0.612045 0.563697 2.204 255 255 255
0.469957 0.62626 2.615 255 255 255
0.602843 -0.398738 2.43 255 255 255
0.795585 0.722555 2.755 255 255 255
-0.0222276 0.417581 2.44 255 255 255
-0.546889 -0.0470956 2.092 255 255 255
0.402745 0.25585 2.489 255 255 255
0.0550288 0.306182 2.347 255 255 255
-0.252477 0.644938 2.329 255 255 255
1.11399 0.332508 2.755 255 255 255
-1.09489 0.0725939 3.149 255 255 255
-0.0786872 0.329098 2.347 255 255 255
-1.49648 -0.5318 3.41 255 255 255
-0.13164 -0.345956 2.151 0 0 0
0.184988 0.176017 2.449 255 255 255
0.718015 -0.602702 2.392 255 255 255
-0.126351 -0.665578 2.121 255 255 255
-1.25898 -0.151919 3.354 255 255 255
-0.134389 -0.756071 2.085 255 255 255
-0.339592 0.143598 2.253 255 255 255
1.10225 0.37506 2.805 255 255 255
0.0222876 0.476641 1.456 255 255 255
0.231899 -0.780526 2.212 255 255 255
-0.596639 0.0596691 2.136 255 255 255
-0.690288 0.100337 2.114 0 0 0
-1.65374 -0.186704 3.391 255 255 255
0.621624 0.478686 1.267 255 255 255
-1.2853 -1.13968 3.215 255 255 255
1.17028 -0.0265156 2.793 255 255 255
-1.68353 0.358436 3.487 255 255 255
0.847821 0.247422 2.707 255 255 255
-1.6031 -1.01892 3.181 255 255 255
-0.516902 0.369707 2.181 255 255 255
-0.395541 -0.725716 1.966 255 255 255
0.44333 0.467002 1.359 255 255 255
-0.215395 0.734938 2.338 255 255 255
-0.181248 -0.266311 2.158 255 255 255
-0.549802 0.432059 2.228 255 255 255
0.720507 -0.487734 2.44 255 255 255
0.740361 0.123071 2.593 0 0 0
-0.289271 0.386947 2.261 255 255 255
-0.26444 0.303391 2.269 255 255 255
-0.368764 -0.590774 2.03 255 255 255
0.930537 0.790828 2.743 255 255 255
-0.170497 -0.762554 2.03 255 255 255
-1.32995 -0.348409 3.354 255 255 255
-1.0074 0.659252 2.911 255 255 255
-0.497133 0.800434 2.286 255 255 255
-0.804574 0.83707 2.347 255 255 255
-0.0951465 -0.787771 2.044 255 255 255
-0.232592 -0.730657 2.024 255 255 255
-1.12651 0.876619 2.925 255 255 255
0.655512 -0.723963 2.42 255 255 255
-1.22164 0.775553 3.283 255 255 255
0.0306971 -0.105293 2.244 255 255 255
0.43051 -0.55567 2.374 255 255 255
-0.128635 -0.0246884 2.22 255 255 255
0.614273 -0.121811 2.509 255 255 255
0.681269 0.300297 2.593 255 255 255
-0.4428 -0.153142 2.099 255 255 255
0.718541 -0.586128 2.42 255 255 255
-1.37909 0.732287 3.354 255 255 255
-1.48573 -0.91656 3.336 255 255 255
-0.200901 0.42883 2.392 255 255 255
0.237063 -0.246528 2.411 255 255 255
0.252864 0.817756 2.615 255 255 255
-0.353732 0.0866751 2.204 255 255 255
-0.189384 0.202179 2.212 255 255 255
0.325764 0.405715 2.489 255 255 255
-1.58357 0.745675 3.467 255 255 255
0.260939 0.486724 2.489 255 255 255
-1.54979 0.614489 3.696 255 255 255
-1.61832 0.634747 3.674 255 255 255
0.761094 0.646164 2.793 255 255 255
0.832215 -0.465125 2.489 255 255 255
0.0827127 0.332884 2.374 255 255 255
-0.0270676 -0.327133 2.189 255 255 255
0.376432 0.45357 2.53 0 0 0
0.230431 -0.162228 2.383 255 255 255
0.668585 0.588406 2.695 255 255 255
0.826374 0.635875 2.768 255 255 255
0.590145 0.507237 1.403 255 255 255
-0.180288 -0.19533 2.189 255 255 255
0.586752 -0.0235346 2.479 255 255 255
-0.512455 -0.771492 1.985 255 255 255
0.722308 0.297334 2.604 255 255 255
-0.551809 0.0320851 2.151 255 255 255
0.363041 -0.193904 2.44 255 255 255
0.195997 0.711634 2.54 255 255 255
-1.38837 0.227923 3.487 255 255 255
-0.422218 -0.521344 2.017 255 255 255
0.0257427 -0.677237 2.136 255 255 255
-0.47781 -0.263729 2.03 255 255 255
-1.53782 -0.0597841 3.391 255 255 255
0.379956 0.334145 2.499 255 255 255
1.04951 -0.299789 2.638 255 255 255
1.24549 -0.202801 2.719 255 255 255
0.839008 0.260637 2.707 255 255 255
0.311891 -0.193252 2.383 255 255 255
0.94917 0.198965 2.707 255 255 255
1.34584 -0.293307 2.78 255 255 255
-0.292032 0.425775 2.312 255 255 255
0.188031 0.529186 1.419 255 255 255
-1.10405 -0.973055 3.117 255 255 255
0.885087 -0.258805 2.572 255 255 255
-1.53371 0.695794 3.588 255 255 255
1.24695 -0.829248 2.55 255 255 255
1.1365 -0.722005 2.582 255 255 255
0.822128 0.320881 2.695 255 255 255
-0.58186 0.623338 2.212 255 255 255
0.536671 -0.615142 2.365 255 255 255
0.113459 -0.745 2.151 255 255 255
0.515966 0.474366 1.324 255 255 255
0.337743 -0.633376 2.347 255 255 255
0.200919 0.681238 2.55 255 255 255
0.0207238 0.341862 2.356 255 255 255
0.653074 -0.733041 2.411 255 255 255
0.39158 -0.101737 2.42 255 255 255
-0.518918 -0.202969 1.985 255 255 255
0.51468 0.611801 2.626 255 255 255
-1.22236 0.916368 2.593 255 255 255
-1.27867 0.924169 2.489 255 255 255
-0.317215 -0.10793 2.151 255 255 255
1.38747 0.776661 2.925 255 255 255
-0.264454 -0.351486 2.121 255 255 255
1.30738 0.389531 2.844 255 255 255
0.908398 -0.054614 2.615 255 255 255
1.37938 0.793071 2.898 255 255 255
-1.00707 0.949715 2.43 255 255 255
0.887644 -0.806042 2.43 255 255 255
1.09157 0.000744912 2.755 255 255 255
0.163426 -0.433557 2.261 255 255 255
0.911585 -0.0165269 2.649 255 255 255
-1.16225 0.894526 2.719 255 255 255
-0.486282 -0.187194 2.024 255 255 255
-1.27967 0.81709 3.04 255 255 255
-0.350896 -0.74565 1.985 255 255 255
-0.356493 -0.267762 2.114 255 255 255
0.707532 0.442246 2.66 255 255 255
1.11547 0.74452 2.911 255 255 255
0.690809 0.484423 1.599 255 255 255
0.733512 0.424931 2.66 255 255 255
1.36366 0.752861 2.925 255 255 255
-0.00619567 0.42743 1.466 255 255 255
1.40172 0.307625 2.857 255 255 255
1.22029 0.296189 2.793 255 255 255
-0.339631 0.592765 2.303 255 255 255
-0.540821 -0.493601 1.959 255 255 255
0.547868 -0.721221 2.347 255 255 255
0.00518461 0.0375376 2.269 255 255 255
0.451761 0.480436 1.505 255 255 255
0.0328038 -0.665507 2.143 255 255 255
-0.192731 -0.588391 2.092 255 255 255
-1.68122 -0.243393 3.336 255 255 255
0.489003 0.677511 2.649 255 255 255
1.14158 -0.86016 2.519 255 255 255
0.41942 0.47681 1.273 255 255 255
-1.09352 0.923226 2.649 255 255 255
-1.52486 0.0583495 3.527 255 255 255
1.26082 -0.402751 2.695 255 255 255
-0.19098 -0.72872 2.037 255 255 255
-1.26347 0.923815 2.499 255 255 255
-1.19404 -1.17421 3.181 255 255 255
-1.51877 0.230984 3.448 255 255 255
-0.581269 -0.0965189 2.057 255 255 255
-0.581226 0.407986 2.196 255 255 255
-1.43915 -0.730473 3.354 255 255 255
0.952862 0.7819 2.743 255 255 255
0.437667 -0.443106 2.392 255 255 255
-0.421919 0.851187 2.365 255 255 255
0.445515 0.202378 2.479 255 255 255
-0.569792 -0.69203 1.917 255 255 255
-0.196048 -0.449609 2.128 255 255 255
-1.44223 0.85257 2.755 255 255 255
-1.20211 0.920255 2.604 255 255 255
0.536156 -0.184155 2.469 255 255 255
-0.506264 0.581231 2.244 255 255 255
1.24309 -0.276012 2.743 255 255 255
0.894816 0.576567 2.743 255 255 255
0.575746 0.287638 2.593 255 255 255
-0.0777618 -0.334169 2.212 255 255 255
-0.189227 0.0226074 2.253 255 255 255
0.333857 -0.694047 2.32 255 255 255
1.00206 0.405272 2.793 255 255 255
0.296375 -0.425927 2.383 255 255 255
-0.220557 0.0224368 2.236 255 255 255
0.133454 -0.0807921 2.383 255 255 255
-1.1848 -1.066 3.198 255 255 255
-0.0491333 -0.0246884 2.22 255 255 255
0.44471 -0.837563 2.269 0 0 0
-0.112913 -0.671238 2.128 255 255 255
0.246785 0.1654 2.469 255 255 255
0.845558 0.222482 2.672 0 0 0
-0.443545 -0.751311 1.966 255 255 255
-0.419482 -0.298019 2.085 0 0 0
1.24694 -0.501566 2.684 255 255 255
-1.04728 -0.103575 3.055 255 255 255
1.38959 -0.418165 2.768 255 255 255
-1.25627 -0.506654 3.318 255 255 255
0.841236 0.558712 2.743 255 255 255
0.652017 0.121553 2.561 0 0 0
-0.729489 0.490151 2.212 255 255 255
-1.71031 0.406148 3.507 255 255 255
1.11052 0.36267 2.78 255 255 255
1.20486 0.0953418 2.768 255 255 255
-1.31896 0.830799 2.898 255 255 255
-0.102906 -0.520819 2.136 255 255 255
-0.0413206 -0.672668 2.189 255 255 255
1.19682 -0.56634 2.66 255 255 255
0.00333378 0.439635 1.459 255 255 255
1.41027 0.385624 2.884 255 255 255
0.730925 -0.145142 2.489 255 255 255
-0.178728 -0.47385 2.128 0 0 0
-0.0798163 -0.729861 2.078 255 255 255
0.746643 0.0475172 2.615 255 255 255
0.81273 -0.358369 2.479 255 255 255
0.0362922 -0.759666 2.143 255 255 255
-1.47014 -0.547032 3.301 255 255 255
0.461425 -0.370233 2.374 255 255 255
-0.0912065 0.0562218 2.278 255 255 255
-0.169077 0.263817 2.278 255 255 255
-0.385543 0.192247 2.181 255 255 255
-1.29584 0.861098 2.768 255 255 255
-0.182192 -0.505016 2.128 0 0 0
0.439372 0.460325 1.327 255 255 255
-0.344214 0.29217 2.212 255 255 255
-1.67937 0.0936939 3.354 255 255 255
0.672953 -0.0651902 2.53 255 255 255
-1.18063 -1.23908 3.215 255 255 255
-0.268948 0.82352 2.374 255 255 255
