ply
format ascii 1.0
comment Created by Open3D
element vertex 1351
property double x
property double y
property double z
property uchar red
property uchar green
property uchar blue
end_header
-0.559053 -0.475856 1.774 173 177 172
-0.0159997 0.141955 0.384 72 40 20
0.870884 -0.830862 2.312 107 105 95
0.00613897 -0.0105189 1.108 189 185 188
0.760226 -0.451998 2.44 94 92 84
-0.110287 0.171525 0.654 120 106 100
-0.108782 0.0779212 0.884 197 191 193
0.846408 0.527242 1.686 58 73 70
-0.415796 -0.853143 2.374 54 24 6
0.131392 -0.596418 2.158 159 136 106
-0.11728 0.0990624 0.832 57 50 63
-0.241838 0.0205901 0.961 169 165 166
0.505873 -0.869151 2.365 114 110 103
0.0099789 0.0985861 0.828 184 182 189
-0.411003 -0.121114 1.265 152 154 145
-0.168021 -0.127289 1.265 22 115 110
0.672769 0.549831 1.705 105 108 109
-0.72473 -0.802125 2.479 54 28 13
1.06685 -0.409064 2.189 9 4 0
-1.02348 -0.803666 2.509 41 24 10
0.780105 0.263435 2.071 8 15 9
-1.08146 -0.695113 2.53 41 24 10
0.550302 0.326837 2.278 52 53 47
0.500069 -0.837689 2.374 100 96 87
0.794057 0.469409 1.859 133 136 135
0.692704 -0.690239 2.44 106 102 93
-0.105358 0.0978601 0.845 189 185 190
-0.114335 0.0673997 0.917 198 193 191
0.557996 0.0524458 2.649 14 12 4
-0.22091 0.153032 0.618 83 87 99
1.09569 -0.763357 2.204 70 68 60
-0.294053 0.0563267 0.704 107 98 79
0.0767609 0.206696 0.721 170 173 174
0.946256 0.254471 2.294 12 4 1
-0.3308 0.180035 0.628 68 67 71
-0.505554 -0.0934875 1.201 186 190 183
-0.704909 -0.182642 1.48 100 107 99
-0.244479 0.0620318 0.745 146 128 117
-0.837047 -0.829663 2.489 56 28 11
-0.280262 0.168525 0.627 69 75 73
-0.0376221 0.0794273 0.869 198 192 194
-0.347542 0.0857675 0.683 122 117 99
0.75107 -0.433739 2.449 93 91 83
-0.156881 -0.77974 2.374 51 23 6
0.762026 0.603784 1.612 88 93 81
-0.27334 0.204663 0.616 145 158 157
0.704555 -0.222518 2.54 75 71 62
0.409629 0.339319 2.365 73 66 60
0.77328 -0.328798 2.469 90 86 77
1.08919 -0.198097 2.22 25 42 47
0.529074 0.473925 1.853 13 13 13
-0.428145 0.0445522 0.972 146 145 145
-0.252232 0.109578 0.693 160 164 159
-0.175216 0.0788211 0.878 191 187 188
-0.191326 0.223283 0.604 144 153 146
-0.0699217 0.183859 0.645 168 166 154
0.754171 -0.292786 2.54 90 83 73
-0.189614 0.177561 0.645 167 170 171
0.986249 -0.430984 2.479 88 80 77
0.81877 -0.216022 2.561 86 79 73
-0.243869 0.0599761 0.816 188 191 192
0.629526 -0.815434 2.411 115 111 104
0.928895 0.292897 1.815 5 13 12
-0.304365 0.0119416 1.024 190 189 189
0.837658 -0.849989 2.253 104 105 94
-0.326615 0.0550287 0.935 194 195 191
0.545963 -0.225321 2.572 71 68 63
0.110823 -0.443848 1.923 172 168 169
0.82945 -0.23811 2.53 83 81 71
-0.030772 0.141271 0.389 166 166 170
-0.288105 0.0934119 0.674 80 67 56
1.01897 0.0458985 1.991 17 12 8
0.1495 -0.398824 1.859 163 155 154
0.707317 0.302539 2.085 5 6 2
0.539875 0.137071 2.329 57 29 26
-0.192593 0.217836 0.608 155 158 157
0.0414336 -0.401225 1.899 165 157 156
0.968311 0.238478 2.32 8 6 0
-0.233951 0.221948 0.59 152 163 161
-0.498508 -0.337019 1.659 154 155 151
-0.390118 -0.0271325 1.053 104 102 94
0.723711 0.353233 2.064 2 6 1
-0.113999 -0.613078 2.449 50 26 14
-0.70339 -0.221718 1.452 94 102 89
-0.0673405 0.207318 0.612 190 190 190
-0.658755 -0.251329 1.547 125 126 113
0.300254 -0.697382 2.383 33 22 17
0.556706 -0.254504 2.489 73 69 60
0.517304 0.302363 2.347 24 33 26
-0.165021 -0.174344 1.359 102 140 136
-0.485472 -0.0115324 1.037 178 186 187
-0.283757 0.126912 0.649 186 196 199
-0.195172 0.097395 0.756 50 47 44
1.00244 -0.316147 2.374 80 81 72
-0.12648 0.149339 0.684 194 193 193
0.65494 -0.210117 2.54 73 69 60
0.20195 -0.165307 1.543 149 144 142
0.069958 -0.0239967 1.149 186 182 183
1.0752 -0.377821 2.236 12 4 1
-0.131426 0.180496 0.648 189 190 186
0.608935 0.572028 1.705 79 79 79
-0.235798 0.0688422 0.715 116 98 76
-0.138125 -0.0983028 1.237 147 143 144
-0.273749 0.212889 0.608 164 177 176
0.682306 -0.432722 2.489 95 91 82
0.40678 0.607501 1.629 88 90 81
0.67524 0.591166 1.65 85 90 78
0.0702044 0.20469 0.714 157 163 161
1.03537 0.0500898 2.53 58 58 58
-0.101933 0.109218 0.807 185 181 182
0.982214 -0.439052 2.479 89 90 81
0.0576793 -0.156876 1.342 104 147 143
-0.183556 -0.747591 2.42 57 23 11
0.356211 -0.326012 2.158 80 72 69
0.0826164 0.178266 0.776 161 161 163
0.755086 -0.817377 2.338 111 109 99
0.392786 0.561834 1.769 84 86 77
0.913947 -0.38103 2.469 87 87 81
0.728225 0.572182 1.673 77 84 88
0.758584 0.56291 1.686 116 129 126
1.066 -0.728653 2.449 98 94 83
-0.256918 0.125078 0.656 183 194 194
0.170705 0.0380677 1.16 146 145 147
0.548086 -0.108548 2.582 63 60 55
-0.161129 -0.261077 1.607 163 157 159
0.69895 0.448438 1.966 33 35 24
0.707044 0.44865 1.953 33 41 28
0.816048 -0.861201 2.244 111 109 99
0.778975 -0.0508014 2.638 37 32 28
1.07174 0.201452 2.244 4 7 6
-0.184135 0.147143 0.679 143 146 147
-0.445598 0.0171171 0.942 117 130 117
0.442478 -0.674356 2.44 90 83 73
0.717908 0.405593 2.057 61 20 14
0.492087 -0.616231 2.43 90 83 75
0.736326 0.474631 1.821 88 91 90
0.122959 -0.442463 1.917 174 171 168
0.591509 0.176076 2.294 68 37 35
-0.275517 0.126437 0.652 183 193 196
0.804553 0.49997 1.744 34 34 34
-0.186512 0.082734 0.845 178 173 171
1.07042 0.171579 2.189 18 16 8
0.676911 -0.344993 2.499 88 84 77
-0.360545 -0.311416 1.696 165 165 161
-0.597897 -0.0737586 1.198 128 136 125
-0.0156297 0.0985861 0.828 149 148 155
-0.547016 -0.550777 1.947 121 130 112
0.441295 0.0802197 2.572 39 41 25
0.61218 -0.629447 2.42 107 100 90
-0.525584 -0.110559 1.239 183 186 187
-1.2308 -0.73774 2.593 26 25 10
-0.443128 -0.332619 1.664 186 186 182
0.89026 0.394818 1.923 11 16 21
0.878788 0.457308 1.859 131 143 145
-0.0455015 0.0122564 1.051 193 189 190
-0.188261 -0.0435865 1.173 195 192 189
-0.349231 0.0324974 0.709 93 92 77
-0.704 -0.768506 2.449 118 111 103
-0.357959 0.0752642 0.699 98 88 76
0.484392 -0.762297 2.392 97 93 84
-0.16761 -0.0105569 1.112 196 192 193
0.0156312 0.0693427 0.923 197 196 198
0.795517 -0.239051 2.54 88 81 75
-0.168285 0.223036 0.606 167 173 171
0.0106538 0.0807983 0.884 198 192 196
-0.255919 0.0799284 0.7 83 68 56
0.677765 0.476021 1.815 98 106 95
0.708056 0.588059 1.664 68 76 65
-0.841098 -0.837764 2.489 53 28 10
0.900777 0.389205 2.024 9 15 15
0.465289 0.278798 2.374 12 12 8
1.08071 -0.538889 2.181 25 5 6
-0.885666 -0.80131 2.489 52 27 9
-0.0693202 0.119527 0.78 188 187 189
-0.0810566 -0.0453403 1.169 162 157 155
0.117249 0.0431241 1.053 170 166 169
-0.150498 -0.215921 1.477 144 154 157
-0.53636 -0.809997 2.43 56 22 10
-0.0548811 0.125691 0.756 186 185 189
-0.20525 0.11406 0.714 144 137 148
0.696245 -0.768352 2.411 113 107 94
0.247779 -0.39255 1.917 144 138 140
0.236926 -0.393193 1.905 151 145 147
0.0513863 0.117937 0.822 179 174 172
0.0382073 0.13212 0.772 177 173 174
0.567909 -0.712894 2.383 113 106 98
-0.0940844 0.210956 0.611 192 196 191
-0.0742618 -0.059309 1.182 161 149 147
-0.53785 -0.0375561 1.057 139 149 137
0.0351152 -0.682536 2.294 118 88 56
-0.500858 -0.0133602 1.048 173 180 184
0.037925 0.161661 0.719 173 172 172
0.841617 0.194148 2.244 10 13 12
0.625046 0.582808 1.696 60 60 60
-0.832995 -0.833714 2.489 54 29 11
0.792786 -0.845648 2.261 106 106 100
0.469297 0.618431 1.616 86 87 81
0.552654 -0.444873 2.489 95 90 86
1.07234 0.129102 2.392 16 9 3
-0.304528 0.119758 0.662 129 132 131
0.598925 0.508571 1.774 26 35 28
-0.19786 -0.331197 1.853 154 149 145
0.888952 0.430418 1.887 6 9 8
0.850401 -0.598809 2.392 94 92 84
-0.121451 -0.15906 1.342 100 138 136
-0.0922996 -0.209343 1.432 3 106 109
-1.11969 -0.935497 2.469 31 35 30
-0.115852 0.151112 0.687 192 192 192
-0.219197 0.0838508 0.714 110 90 70
0.767389 -0.566386 2.489 99 95 86
-1.20408 -0.648055 2.572 36 34 24
0.557639 -0.86201 2.356 116 112 103
-0.275533 0.0289128 0.927 195 195 191
-0.351997 0.0631107 0.703 137 130 113
0.134001 -0.354607 1.774 164 155 150
0.227202 -0.104359 1.463 128 124 125
1.09911 0.0562218 2.278 6 14 13
0.838316 -0.60913 2.402 97 98 87
0.934155 -0.818021 2.329 104 102 94
0.767675 -0.303984 2.53 93 86 78
-0.498833 -0.72065 2.383 164 160 163
-0.195725 -0.105925 1.232 64 91 84
-0.251031 0.20946 0.601 165 176 176
-0.466543 -0.461123 1.842 133 134 121
0.672804 0.113168 2.469 65 30 25
0.184389 -0.0120284 1.267 138 137 139
-0.149485 0.204322 0.618 170 176 174
-0.256656 0.0539416 0.718 99 72 64
0.106975 -0.21636 1.48 61 99 95
-0.574294 -0.657792 2.312 162 160 152
-0.0836225 0.0993005 0.834 191 187 190
-0.374767 -0.242516 1.539 191 191 187
0.868501 0.443173 1.876 127 140 137
0.0281864 -0.183634 1.396 0 64 71
-0.0439028 -0.0313116 1.143 192 188 191
0.868388 0.460865 1.837 123 134 132
-0.138124 0.0761477 0.897 185 167 158
-0.141705 0.183004 0.642 194 193 195
0.0303696 0.0125013 1.072 188 184 185
0.715192 0.607142 1.607 83 93 81
0.00540397 -0.749844 2.365 73 50 29
-0.432041 -0.0692915 1.156 185 192 184
0.649525 -0.405144 2.519 94 90 83
-0.272215 0.201305 0.618 141 155 146
-0.272955 -0.366083 1.959 154 150 141
0.672861 -0.232693 2.561 75 71 64
1.02053 -0.805025 2.22 98 96 86
0.78398 0.0220769 2.626 16 15 15
-0.0218814 -0.730304 2.402 52 26 11
-0.177991 -0.163544 1.308 83 135 131
-1.02785 -0.747461 2.54 47 27 17
0.832907 -0.261549 2.479 85 81 74
-1.0923 -0.898521 2.489 31 23 9
-0.199406 -0.0637972 1.194 161 151 149
0.446734 0.559452 1.789 81 83 72
0.16455 -0.893822 2.329 49 26 5
-0.21571 0.0931461 0.714 109 90 77
-0.339086 -0.250116 1.571 172 168 171
-0.0803578 0.215777 0.605 150 149 149
0.102693 0.0365798 1.062 180 179 181
-0.642111 -0.119483 1.339 185 191 189
0.92927 0.0436422 2.638 30 25 21
0.429219 0.112731 2.55 83 53 19
0.566025 0.384963 2.128 22 18 11
0.951472 0.368238 2.092 3 7 0
0.908176 -0.658494 2.411 96 97 88
-0.49476 -0.77122 2.42 153 149 138
0.0770872 0.163518 0.784 165 164 166
-0.121428 0.109162 0.797 77 68 71
0.887351 -0.335457 2.519 84 85 76
0.69117 0.469409 1.859 73 74 68
-0.168877 0.178888 0.646 192 193 187
-0.15267 -0.746726 2.43 56 23 8
0.00436659 -0.40687 1.911 162 157 153
0.859967 -0.166724 2.572 79 77 67
-0.196257 0.197799 0.626 165 171 169
-0.475064 -0.806663 2.42 53 25 8
0.171657 -0.0806203 1.345 153 148 146
-0.281562 0.0655962 0.693 79 67 51
0.879733 -0.659729 2.43 101 99 89
0.0824158 -0.0793414 1.194 76 72 73
-0.505177 -0.0097689 1.029 125 140 126
-0.107535 -0.0823737 1.21 120 112 109
0.011077 0.141997 0.391 77 38 47
0.0405866 -0.107054 1.222 103 159 158
1.10287 -0.505119 2.204 17 8 3
-0.0368804 0.101761 0.821 159 158 158
0.553521 -0.390444 2.53 81 77 70
-0.995059 -0.817512 2.489 44 23 18
-0.0517295 0.156672 0.682 193 193 195
0.517304 0.225976 2.347 31 30 34
-0.464488 -0.235957 1.513 127 124 110
1.026 -0.3746 2.402 78 79 68
0.0012598 -0.386311 1.917 145 135 133
-1.10002 -0.927184 2.479 44 25 12
0.708327 -0.877814 2.347 116 108 105
-0.262492 0.17335 0.626 72 68 69
0.0295255 0.152404 0.714 188 187 189
-0.652176 -0.81633 2.449 58 25 8
-0.102157 0.219852 0.6 172 175 174
0.308457 0.529185 1.815 82 80 72
0.766092 0.00500617 2.638 35 31 20
1.09992 0.068082 2.303 7 11 4
-0.887 -0.895694 2.459 51 23 6
-0.190011 -0.706851 2.402 54 21 6
0.0716301 0.0518738 0.991 191 187 190
-1.17392 -0.628613 2.561 108 116 101
0.448126 0.258498 2.365 13 12 12
1.04747 0.0142848 2.107 28 14 6
0.291956 0.493273 1.941 94 85 88
0.905387 -0.60819 2.383 95 96 83
1.06444 0.183193 2.244 7 13 11
-0.128319 0.183289 0.643 192 192 192
-0.227562 -0.0179553 1.122 186 185 185
0.0689257 0.193685 0.725 161 161 165
-0.479398 -0.507895 1.905 169 167 159
0.207367 -0.488731 1.978 172 167 163
0.104751 0.0412139 1.048 177 176 178
-0.146235 0.189836 0.63 186 189 188
-0.549276 -0.113302 1.247 169 175 173
0.445967 0.278798 2.374 11 14 13
-0.176267 0.134421 0.705 137 130 124
0.214933 -0.0671925 1.384 125 125 121
0.52683 0.53766 1.794 65 74 56
0.831808 0.516681 1.724 50 66 55
1.08735 -0.657143 2.173 31 10 5
-0.18281 0.0546517 0.955 192 188 189
0.43489 0.571015 1.753 85 86 77
-0.344745 -0.0825779 1.213 204 203 203
0.482569 -0.724528 2.383 94 92 84
-0.170658 0.0430919 1.012 193 189 192
0.132439 0.0459448 1.079 155 151 154
-0.310173 -0.14041 1.291 140 137 132
-0.311457 -0.829963 2.374 50 24 9
-0.448405 -0.844743 2.383 57 24 7
-0.378879 0.0248037 1.005 195 198 197
-0.252549 0.203649 0.607 179 190 188
1.05731 -0.128823 2.411 45 48 49
0.0121694 0.112769 0.795 194 188 192
-0.305879 0.0659748 0.697 91 74 49
-0.076827 -0.0141251 1.108 192 188 191
0.0760645 0.109878 0.875 179 178 178
-0.149598 -0.331197 1.853 163 155 152
-0.148543 0.218552 0.61 169 175 173
-1.35379 -0.823774 2.695 106 78 77
0.101179 0.00209128 1.102 179 178 180
-0.228958 0.149009 0.618 99 103 115
-0.331935 0.0315647 0.714 97 98 89
0.803676 -0.653305 2.392 100 97 92
0.556797 -0.792846 2.402 113 111 101
-0.657854 -0.235003 1.539 132 140 127
0.599048 0.263156 2.338 9 10 4
-0.156422 0.162358 0.66 163 143 105
-1.12265 -0.818627 2.53 22 17 15
-0.319971 -0.492376 2.244 163 155 152
-0.210982 -0.895639 2.374 51 27 11
-0.291027 -0.853757 2.365 54 23 10
-0.210528 0.158325 0.623 70 66 67
0.020803 -0.765238 2.365 49 23 10
-0.319653 -0.232499 1.539 156 156 150
0.596638 0.462424 1.905 65 68 71
0.143191 0.0824098 1.03 156 150 156
-0.271319 -0.056025 1.194 141 133 130
0.899395 -0.00356333 2.626 24 24 20
0.0653563 0.181546 0.738 162 162 162
-0.153492 0.128878 0.739 192 187 185
0.658661 0.252711 2.347 6 7 3
1.03013 -0.234472 2.449 76 74 62
1.05731 -0.148441 2.411 53 53 49
0.663191 -0.158353 2.572 69 67 57
0.806076 0.529434 1.729 96 110 101
0.498147 -0.695125 2.402 95 87 84
1.0909 -0.771344 2.166 40 20 23
-0.343731 -0.0538555 1.189 190 190 190
0.515821 -0.604367 2.43 93 86 76
0.210994 -0.284868 1.719 144 143 143
0.757065 0.180834 2.356 22 23 17
-0.39698 -0.0336963 1.044 78 83 73
-0.207109 0.115217 0.693 167 170 173
0.687 0.597769 1.646 81 86 76
0.491748 -0.27288 2.509 76 72 65
-0.33468 -0.663854 2.402 146 139 133
-0.18515 0.0871083 0.809 102 102 104
-0.222287 -0.42257 2.114 163 157 161
0.55504 0.300044 2.329 19 21 12
0.318518 0.444462 2.051 80 76 65
0.121379 0.126951 0.916 163 159 162
-0.106549 0.113615 0.783 150 144 146
0.635176 -0.451154 2.479 101 92 87
-0.667875 -0.282588 1.539 140 143 127
0.0737803 0.179004 0.763 161 160 164
-0.425124 -0.094733 1.217 149 154 140
-0.167126 0.205992 0.62 178 184 182
-0.198914 0.0746657 0.863 193 184 191
0.891869 -0.653076 2.42 98 96 88
0.743616 0.568092 1.677 100 113 112
0.786847 0.280286 2.071 16 15 15
-0.645477 -0.365832 1.655 174 177 176
-0.257513 -0.617064 2.449 40 20 12
-0.177926 0.135358 0.698 132 122 122
-0.143655 0.227442 0.602 165 168 171
-0.0297382 0.0767422 0.887 198 192 194
0.389472 0.32639 2.383 68 63 59
-0.404187 0.0450564 0.983 165 166 155
0.814989 0.223367 2.173 20 21 15
-0.263651 -0.02031 1.152 195 194 194
0.641878 0.592187 1.668 81 83 74
0.751837 0.597708 1.624 90 91 87
-0.149658 -0.303896 1.748 161 154 148
0.0221023 0.0315951 1.013 193 187 189
-0.290753 0.121383 0.665 157 165 166
0.0576266 0.0337687 1.029 187 186 186
-0.32911 -0.392565 2.03 158 150 147
-0.352183 -0.06791 1.198 190 190 190
-0.190383 0.053042 0.954 193 193 189
0.764026 -0.624766 2.402 100 97 92
-0.632006 -0.363138 1.655 171 175 170
1.09458 -0.205435 2.261 23 33 36
0.448993 -0.831128 2.411 93 92 77
0.554875 -0.304326 2.499 80 73 65
-0.0208687 0.105898 0.822 191 190 192
-0.136041 0.224876 0.603 172 177 167
0.345459 0.502725 1.905 84 80 71
0.010992 0.145959 0.388 78 37 18
-0.0433677 0.116357 0.793 190 189 191
0.722373 -0.242227 2.53 74 71 68
0.503954 -0.580641 2.43 89 82 72
1.01844 -0.453352 2.469 83 85 74
0.0836012 0.144866 0.823 162 161 163
0.386902 0.59145 1.705 86 88 75
0.994444 -0.244516 2.43 81 78 64
-0.0269885 0.0425384 0.999 197 193 194
0.496089 -0.791893 2.411 99 97 89
-0.214032 -0.869151 2.365 51 23 6
0.0646619 0.217527 0.692 161 167 167
0.15863 0.0659249 1.09 149 146 143
-0.118556 0.138044 0.724 193 192 192
0.0263409 -0.212061 1.419 0 94 98
0.748344 -0.865457 2.294 111 109 101
-0.548515 -0.423501 1.714 134 141 133
-0.290323 0.145992 0.618 179 193 195
0.889898 0.392911 1.929 12 18 18
-0.288426 0.133685 0.636 187 199 203
1.09338 0.102961 2.329 22 13 4
0.057746 0.0262105 1.062 186 185 185
-0.378848 0.0410317 0.717 123 119 110
0.520559 0.336599 2.294 63 63 57
0.976223 0.316547 2.044 26 22 13
0.901414 0.435956 1.784 17 18 14
0.81876 0.18801 2.303 4 7 8
-0.265504 0.213807 0.605 163 178 177
-0.25474 0.195522 0.622 81 81 81
0.496204 -0.914955 2.374 106 103 100
-0.337569 0.0942283 0.672 99 84 85
-0.375722 -0.884546 2.365 54 23 10
0.697524 0.556323 1.691 110 118 107
0.132601 0.126136 0.932 147 146 146
1.07531 -0.0479321 2.489 42 46 39
-0.147001 -0.687307 2.402 54 23 10
-0.0627175 0.0951099 0.845 193 192 194
1.09761 -0.65758 2.338 89 87 79
-0.0132828 -0.590172 2.269 154 117 87
0.0231852 -0.115517 1.249 5 129 120
0.0770872 0.162242 0.784 163 162 164
0.499983 -0.282856 2.489 75 71 64
-0.160416 -0.131926 1.27 12 115 107
-0.0216473 -0.263917 1.547 7 90 111
0.178003 -0.516264 2.01 174 167 159
-0.178028 0.107993 0.736 144 145 141
0.325701 -0.415129 1.935 161 156 154
-0.96295 -0.935497 2.469 41 23 14
0.84262 -0.783135 2.338 108 109 98
-0.156779 -0.220394 1.491 168 167 167
-0.137374 0.193013 0.627 189 189 189
1.06809 -0.167373 2.244 12 8 1
0.641542 0.194062 2.286 35 11 15
0.105491 0.177288 0.806 153 153 155
-0.886588 -0.887283 2.469 51 26 6
-0.0810785 0.199294 0.618 181 182 178
0.540355 0.442945 2.044 74 70 75
-0.351327 -0.055462 1.182 197 197 197
0.682971 -0.847934 2.392 110 111 102
0.99432 -0.44712 2.479 84 85 72
0.551768 0.451373 2.037 54 62 61
0.518683 0.478485 1.859 15 15 19
-0.62427 -0.788433 2.449 76 58 49
0.201567 -0.466663 1.953 175 172 169
-0.198138 0.15547 0.632 133 128 136
1.04658 -0.216298 2.469 57 59 50
0.891294 -0.570627 2.356 92 93 80
-0.0308981 -0.417916 1.978 158 149 144
-0.0185036 0.184144 0.646 110 110 104
0.119133 -0.198089 1.452 158 158 152
-0.665632 -0.899034 2.383 56 23 6
-0.447229 0.0142004 0.952 119 127 114
-0.68067 -0.51845 1.887 181 182 178
0.807706 0.299492 2.064 19 13 15
0.611224 0.466844 1.837 17 17 19
-0.200466 0.201983 0.617 168 178 166
-0.334012 0.0534157 0.711 113 101 85
0.877437 -0.83829 2.261 98 106 95
-0.0979292 -0.0845519 1.213 128 123 119
1.07788 -0.247692 2.312 12 2 0
-0.716896 -0.281879 1.47 130 140 124
0.690759 -0.789545 2.392 112 108 101
-0.0882761 0.141906 0.708 190 189 191
0.834615 0.522292 1.724 60 69 60
0.161292 -0.30356 1.668 165 157 156
0.78603 0.345189 2.017 3 6 5
-0.764051 -0.661679 2.261 140 142 133
-0.934285 -0.821562 2.489 49 25 13
0.856248 -0.831375 2.303 108 106 94
-1.43666 -0.875357 2.719 100 82 88
-0.624518 -0.0684768 1.208 139 147 132
0.0290975 0.175354 0.677 167 166 166
-0.165602 0.113906 0.785 111 100 95
-0.717726 -0.152917 1.406 104 121 105
-0.297888 0.202987 0.617 158 169 169
-0.122082 0.13462 0.731 191 190 192
0.0544795 0.224933 0.664 160 164 159
-0.258743 0.118847 0.669 180 190 193
-0.269968 -0.534509 2.383 144 140 131
-0.594551 -0.107125 1.27 178 181 180
-0.165695 0.214934 0.611 169 175 175
0.777921 -0.775526 2.338 108 106 96
0.561899 -0.714065 2.374 113 106 100
-0.0140317 0.196199 0.634 180 180 180
0.163042 -0.0649288 1.294 153 148 146
1.10501 -0.619778 2.166 19 10 5
-0.0792926 0.17445 0.653 126 110 107
-0.30597 -0.138309 1.291 121 117 110
0.65853 0.495529 1.779 18 21 22
-0.0312015 -0.101667 1.229 169 169 165
0.091163 -0.374194 1.842 156 147 142
-0.140635 0.0258156 1.046 197 196 196
0.536149 0.584466 1.677 75 81 64
-0.613277 -0.119027 1.31 179 190 188
-0.187223 0.170721 0.655 169 169 171
0.597037 0.609417 1.62 86 90 83
-0.130985 0.0289686 1.037 199 195 196
-0.283712 0.0731723 0.69 140 132 118
-0.246602 0.0619623 0.759 158 144 127
-0.398222 -0.383698 1.859 76 76 72
0.530419 0.380354 2.181 63 61 53
-0.223712 0.140076 0.623 190 198 199
0.65231 0.443215 2.03 105 114 107
0.622442 -0.325959 2.509 80 73 63
0.803184 0.244824 2.114 9 12 13
-0.270178 0.100803 0.687 73 68 46
-0.630097 -0.340561 1.65 177 176 178
0.0554064 0.0732873 0.935 191 190 190
-0.334229 -0.0417843 1.176 143 128 127
-0.0443324 0.00548212 1.064 193 189 190
-0.513215 -0.327222 1.637 161 158 153
0.123797 -0.858717 2.347 53 22 9
-0.204082 0.160868 0.625 85 82 77
-0.172296 0.174985 0.655 167 167 161
0.602843 -0.837678 2.43 115 111 104
-0.313943 0.18485 0.627 57 60 59
-0.389891 -0.0508726 1.165 163 163 157
-1.07113 -0.943713 2.459 31 17 9
0.553421 0.459433 1.972 79 84 74
-0.371256 -0.819357 2.411 50 24 9
-0.415981 -0.513444 2.051 161 151 151
0.616778 -0.758404 2.392 113 106 100
-0.217646 -0.376071 1.978 161 153 150
-0.475232 -0.406919 1.763 144 146 137
-0.705193 -0.346258 1.555 135 137 128
1.10989 -0.585963 2.356 81 81 75
0.330971 -0.407564 1.929 164 157 151
-0.017115 0.148286 0.381 72 40 20
-0.00999506 -0.803725 2.365 52 24 7
-0.0317854 -0.115794 1.252 169 166 163
-0.0029254 0.13818 0.391 87 47 34
1.03661 -0.0811393 2.092 32 26 13
-0.202459 0.0597846 0.938 200 196 197
-0.202483 -0.796027 2.365 56 25 12
-0.47544 -0.910111 2.402 58 25 8
-0.289057 0.129722 0.642 186 198 200
0.0149339 0.144274 0.392 81 56 68
0.827423 -0.247393 2.499 85 83 75
0.19079 -0.5574 2.078 159 152 144
-0.30151 0.11476 0.677 76 77 73
0.649369 -0.778818 2.383 112 108 101
0.70017 -0.678112 2.411 107 103 92
0.141331 0.0748196 1.041 152 152 156
0.552895 0.193173 2.32 27 26 26
0.079163 0.158742 0.792 162 161 163
-0.662829 -0.233958 1.516 129 134 120
-0.0991454 0.0252233 1.022 193 189 190
-0.16969 -0.117361 1.247 101 149 141
-0.750402 -0.26239 1.429 135 142 136
0.954705 0.0352026 2.649 53 52 35
0.00974644 0.0656796 0.935 199 195 198
0.0490062 0.204299 0.678 166 169 170
0.931123 0.405726 1.831 10 11 0
0.370659 0.383904 2.181 57 57 61
0.504096 -0.13324 2.572 68 61 55
0.0282856 -0.885452 2.347 54 24 6
-0.199993 0.102861 0.751 53 50 45
0.544634 -0.747795 2.383 113 109 102
1.09992 -0.220494 2.303 12 5 0
0.685368 0.0757091 2.561 66 30 22
-0.1209 0.185725 0.637 188 188 190
0.31308 0.596608 1.696 82 80 70
-0.351428 -0.697382 2.383 129 122 114
-0.187161 0.0940196 0.779 51 51 53
-0.44148 0.0400117 0.977 154 161 165
-0.442748 -0.053987 1.112 168 170 159
-0.672312 -0.330972 1.591 141 145 138
0.033036 -0.196809 1.409 0 85 114
0.0782799 -0.403038 1.893 159 150 153
0.527323 -0.228124 2.604 72 68 61
-0.0431317 0.190908 0.637 192 195 194
-0.0872746 0.102876 0.83 185 181 184
-0.399814 0.035783 0.992 171 175 170
-0.0172899 0.191807 0.64 187 190 189
-1.32755 -0.981894 2.66 34 41 35
0.311899 0.519157 1.853 82 82 76
-0.454346 -0.562032 2.121 153 150 136
0.276596 0.517813 1.859 98 99 93
0.619489 -0.901402 2.329 116 112 105
0.620805 0.412288 2.057 99 94 92
0.976572 -0.856025 2.269 103 101 93
-0.196801 0.0515435 0.955 196 196 192
-0.19804 0.199571 0.622 167 173 171
0.837421 0.519486 1.724 51 64 51
0.258791 -0.453951 1.953 167 163 164
-0.163985 -0.861454 2.365 50 25 7
-1.20727 -0.84116 2.561 26 18 15
-0.175066 0.218194 0.609 173 173 173
0.529534 0.470649 1.876 19 18 22
0.470835 0.453506 2.017 50 61 59
0.0738416 0.240029 0.673 148 154 152
-0.102683 0.14039 0.712 188 187 189
0.750556 0.255893 2.092 9 12 11
-0.0259994 0.200213 0.624 192 195 194
-0.844478 -0.79233 2.499 54 32 22
-0.329778 0.180035 0.628 65 65 69
-0.40416 -0.0794743 1.196 189 189 185
-0.218034 0.0815269 0.714 93 73 51
-0.0147023 -0.0596602 1.189 157 149 146
-0.0821913 -0.809768 2.338 54 25 13
-0.805339 -0.944447 2.43 49 21 18
-1.15308 -0.795317 2.561 21 18 15
0.342016 0.535082 1.805 80 81 72
-0.0663982 0.0894874 0.857 192 188 193
0.663747 0.145211 2.338 66 31 26
0.93072 0.384183 1.842 12 7 3
0.565881 0.60485 1.629 82 84 75
0.316476 0.612349 1.642 83 84 75
-0.639686 -0.273702 1.668 56 60 53
1.0897 -0.743281 2.136 22 11 6
-0.314982 0.138616 0.621 183 197 201
-1.35818 -0.832545 2.695 107 98 91
0.0775788 0.159425 0.789 163 162 164
0.708912 0.456841 1.882 116 127 123
0.409431 0.60485 1.629 85 89 82
-0.0600673 0.174183 0.652 168 157 150
-0.907013 -0.931708 2.459 54 25 11
-0.680934 -0.330207 1.575 141 149 148
0.463159 -0.338208 2.509 76 74 66
-0.959049 -0.899695 2.459 40 19 14
-0.308869 0.218465 0.607 162 179 180
0.570492 0.36932 2.158 7 12 2
1.10148 -0.524609 2.166 27 9 0
0.0101218 -0.204121 1.412 1 91 94
-0.0894617 0.133883 0.727 191 190 192
1.06336 -0.0754617 2.338 8 5 0
-0.11707 -0.746726 2.43 56 22 12
1.09169 -0.685189 2.278 91 89 77
0.664885 -0.767185 2.383 111 107 96
0.570657 -0.627106 2.411 105 101 92
-0.856339 -0.710201 2.374 155 156 150
0.364664 0.625448 1.607 81 81 75
0.0865771 -0.799057 2.374 50 24 9
0.993859 0.0798766 2.561 84 82 70
-0.196979 0.0584445 0.941 200 200 196
0.0447512 0.162867 0.735 176 175 175
-0.431156 -0.309717 1.629 161 162 156
1.04161 -0.430932 2.411 83 83 79
0.357478 -0.866835 2.278 25 18 10
-0.192495 0.209994 0.614 181 185 178
1.08064 -0.520192 2.286 74 79 69
-0.106431 -0.00146414 1.079 191 187 188
-0.247784 0.0583163 0.744 134 115 100
-0.629427 -0.437447 1.714 129 142 129
-0.644784 -0.918 2.392 54 26 7
0.642506 0.483535 1.799 13 17 12
0.819785 -0.802158 2.338 104 105 99
0.0517885 0.168388 0.733 172 172 174
-0.105636 -0.610825 2.44 50 26 12
-1.13109 -0.53534 2.181 121 133 123
-0.267585 0.00865924 1.03 189 188 188
-0.0676378 0.0797929 0.873 198 192 194
0.698512 -0.40842 2.489 93 89 82
-0.214848 0.0967671 0.715 96 80 73
-0.152194 0.153848 0.665 197 193 194
-0.350216 0.0499446 0.711 81 72 55
-0.590808 -0.280948 1.616 80 89 69
-0.333582 0.10783 0.675 121 121 121
0.948882 -0.168119 2.53 77 75 67
0.672554 0.591166 1.65 85 90 78
-0.302395 0.15806 0.618 63 74 85
0.933145 0.026581 2.649 32 23 16
-0.0275347 0.192678 0.636 191 194 195
0.607757 -0.381594 2.499 87 80 74
0.857158 0.375918 2.078 4 7 6
0.876618 0.167433 2.278 14 18 13
0.54732 0.602199 1.629 79 81 70
0.0679259 0.0278598 1.059 184 183 185
-0.177921 0.215285 0.612 171 177 175
0.452529 0.470833 1.966 24 24 26
0.538064 -0.207811 2.615 72 68 61
-0.108688 0.130927 0.737 191 190 192
-0.122157 0.143395 0.704 186 185 185
-0.0770501 0.205648 0.61 185 181 182
1.07284 -0.177938 2.151 38 49 58
-0.372224 -0.851826 2.392 49 24 6
-0.57482 -0.181379 1.432 155 165 149
0.816778 0.208011 2.236 5 11 13
1.08478 -0.678112 2.411 98 94 87
-0.978956 -0.951389 2.479 39 20 14
-0.102692 0.0836697 0.869 193 189 190
1.03397 -0.0970668 2.143 41 56 69
-1.33354 -0.712386 2.672 84 63 58
1.00622 0.264743 2.286 14 14 8
-0.0598134 -0.789164 2.356 59 25 13
-0.227332 0.100118 0.714 102 103 94
-0.366339 -0.0634231 1.187 195 195 195
0.022422 -0.566481 2.151 176 142 93
0.445981 0.424686 2.085 48 44 37
-0.213086 0.0999773 0.713 116 111 109
0.0202135 0.130785 0.757 195 191 194
-0.304367 0.0574723 0.704 118 107 84
-0.224433 -0.364962 1.953 159 154 152
0.910089 0.233235 2.269 5 6 2
-0.386414 -0.0260949 1.081 167 171 166
-0.104381 -0.7095 2.411 58 29 17
0.615893 -0.475128 2.499 97 93 84
-0.38384 -0.336291 1.739 140 140 136
0.635816 -0.731839 2.42 106 106 100
-0.0584561 0.149694 0.696 193 192 194
-0.720807 -0.18589 1.449 81 83 74
0.774151 -0.451516 2.459 92 90 80
0.58916 -0.878662 2.329 115 113 105
0.97429 -0.395494 2.459 81 82 78
-0.771569 -0.905674 2.411 56 28 11
-1.02725 -0.903354 2.469 46 23 18
0.673661 0.164876 2.294 64 32 26
0.0482112 0.216181 0.667 166 169 168
-0.206472 0.160353 0.623 77 74 69
-0.726256 -0.201808 1.396 100 102 91
0.00152207 0.140005 0.389 81 45 22
0.854904 -0.13796 2.582 76 72 65
-0.648189 -0.800389 2.449 58 29 15
0.234911 -0.46977 1.966 170 166 167
-0.0408684 0.00548212 1.064 192 188 189
0.970725 0.311815 1.972 94 105 103
0.305536 0.494798 1.947 79 75 68
-0.215418 -0.0200103 1.135 191 185 189
0.102356 0.180323 0.802 157 157 159
-0.468116 -0.680568 2.365 167 164 161
-0.340477 0.0533405 0.71 87 83 72
-0.275769 0.0750901 0.687 111 94 69
0.518151 0.602199 1.629 81 83 72
0.465289 -0.741108 2.374 97 90 84
0.874752 -0.328687 2.53 82 87 77
0.00041599 0.208251 0.633 183 186 185
0.529914 -0.0508014 2.638 23 24 20
0.74898 0.419761 1.997 10 10 10
-0.251152 0.117193 0.672 187 195 196
1.05194 0.190867 2.338 19 12 4
1.00239 -0.471325 2.479 85 86 75
-0.915368 -0.652473 2.347 147 143 148
-0.697001 -0.874286 2.411 56 26 10
-0.0966758 0.155753 0.678 188 187 189
-0.4207 -0.808481 2.402 54 26 9
-0.294441 0.150043 0.614 69 81 115
-0.411368 -0.177551 1.384 186 186 182
-0.366011 0.111345 0.697 179 193 197
1.06618 -0.407881 2.303 74 74 70
-0.108305 -0.713423 2.411 54 25 13
0.640053 0.15741 2.294 77 42 39
-0.536233 -0.0245741 1.018 145 158 153
0.627502 0.405593 2.057 100 93 87
-0.50407 -0.00630132 1.01 125 138 123
0.28274 -0.590973 2.244 150 145 141
0.0462628 0.081245 0.905 198 189 192
-0.546488 -0.363588 1.682 171 174 175
0.4974 0.499575 1.87 98 106 105
-0.190894 -0.0162731 1.132 195 191 192
0.050822 -0.111667 1.229 152 163 161
-0.359935 -0.0594595 1.185 199 199 199
-0.34367 -0.743917 2.383 151 137 131
-0.82842 -0.587483 2.151 168 177 170
0.788816 0.584376 1.646 81 93 83
-0.00295962 -0.0256414 1.139 190 186 189
0.60273 0.389965 2.099 55 20 15
0.0232885 0.151677 0.393 113 77 77
0.212942 -0.0339092 1.316 101 95 97
-0.340481 0.114162 0.68 144 151 155
-0.102688 0.157027 0.674 190 189 189
0.729696 -0.707801 2.392 106 102 95
1.09761 -0.653775 2.338 91 87 80
-0.0163579 -0.0434379 1.169 184 181 178
-0.0049968 -0.38439 1.923 152 143 138
1.06124 -0.0856649 2.411 37 38 29
0.916383 0.202207 2.294 36 13 10
0.551688 0.237434 2.347 19 16 13
-0.128406 -0.558561 2.42 47 26 13
0.00155421 -0.792179 2.365 53 25 6
-0.0190557 0.0828995 0.861 193 187 191
-0.700001 -0.378758 1.607 158 162 157
-0.132336 0.0596866 0.961 197 196 198
-0.0882125 0.114631 0.79 193 189 192
-0.234867 0.187726 0.623 78 81 80
0.940895 -0.649779 2.365 93 95 84
-0.437249 -0.0649056 1.145 183 190 184
0.724457 0.460334 1.859 113 121 120
-0.105197 0.124296 0.755 183 182 184
0.289248 -0.425072 1.923 166 161 159
0.708145 0.515268 1.71 104 117 114
0.822676 -0.620857 2.402 96 97 88
0.633853 -0.778818 2.383 112 107 103
0.796151 -0.0851446 2.638 62 63 54
0.00725686 0.100914 0.825 190 189 189
0.23769 -0.883843 2.303 45 25 17
0.690466 0.449009 1.997 75 84 75
1.04773 -0.148116 2.54 77 78 74
-0.257591 0.164672 0.624 70 77 69
0.626671 -0.885014 2.356 118 114 107
0.848537 -0.649138 2.42 101 97 90
0.42341 -0.896516 2.356 101 102 93
0.096255 0.0770491 0.963 179 175 178
0.723711 0.309568 2.064 1 8 2
0.953396 0.353065 2.166 2 9 3
-0.270246 0.130767 0.642 188 196 197
1.05601 -0.0117596 2.55 52 52 46
0.576726 -0.838169 2.42 114 110 103
0.469651 0.213695 2.338 46 42 43
0.193465 -0.0993293 1.425 147 142 140
1.01592 0.271697 2.057 38 47 40
0.309535 -0.757541 2.365 33 22 15
-0.665569 -0.299712 1.563 113 115 99
0.598823 -0.217524 2.53 77 70 62
-0.235032 0.0650477 0.813 196 196 198
0.0495991 0.106468 0.837 182 177 175
-0.404423 -0.248243 1.528 175 172 169
0.750036 -0.243185 2.54 76 74 66
-0.0579701 -0.152167 1.339 12 111 111
-1.18734 -0.781991 2.572 32 21 16
-0.24247 -0.0933622 1.225 176 171 169
0.436137 0.132178 2.449 38 26 26
-0.0667585 -0.3456 1.899 160 149 153
0.513337 0.193922 2.329 37 32 28
0.0494399 0.200542 0.684 168 168 172
0.766227 0.247442 2.107 8 11 10
0.946977 -0.260334 2.43 79 80 76
-0.656162 -0.860169 2.449 61 28 11
0.0516466 -0.265282 1.555 17 89 103
-1.5595 -1.11776 3.055 37 38 34
0.937164 0.368193 1.837 13 9 2
0.729966 0.570821 1.677 84 91 95
-0.0335404 -0.0141251 1.108 193 189 190
-0.358583 0.0899229 0.698 90 87 73
-0.0961405 0.150649 0.69 189 189 191
1.09476 0.0855389 2.269 4 11 5
-0.177658 0.232932 0.601 158 158 160
-0.84515 -0.805361 2.489 49 25 9
-0.218898 0.189237 0.618 96 95 97
0.639754 0.283783 2.32 6 7 3
0.668692 -0.161844 2.561 69 67 57
-1.32322 -0.977566 2.66 35 42 36
-0.349577 0.106393 0.687 151 166 161
-0.351472 -0.0596602 1.189 199 199 199
0.0933215 0.0109776 1.094 183 182 182
-0.10055 0.21091 0.608 187 188 184
-0.142338 0.0241134 1.046 199 195 196
1.01956 0.275395 2.085 39 41 28
-0.0590168 -0.0933622 1.225 172 169 166
-0.290274 0.00375065 1.064 195 195 191
-0.0330936 -0.849908 2.365 51 22 10
-0.857305 -0.79726 2.489 52 29 8
-0.318029 0.165953 0.625 63 65 71
-0.0823275 0.217746 0.605 186 190 185
0.627937 -0.822416 2.42 116 112 105
0.826656 -0.875654 2.253 111 108 92
-0.512481 -0.0182825 1.037 124 134 118
-0.421423 -0.214313 1.466 148 149 138
0.0979646 -0.0715693 1.194 65 62 59
-0.588392 -0.868139 2.449 52 22 4
0.807084 -0.105235 2.604 64 62 52
0.0933683 -0.0440324 1.185 124 114 112
-0.221805 0.195762 0.604 169 175 175
1.05728 -0.437141 2.402 75 80 70
0.746532 -0.835801 2.347 113 111 99
0.574646 -0.443086 2.479 100 92 89
0.102628 -0.151145 1.33 173 169 162
0.045231 0.066382 0.945 192 188 191
0.185634 0.0180189 1.208 129 128 128
0.558045 0.495327 1.81 14 21 13
0.204462 -0.160285 1.543 148 145 142
-0.13473 0.163184 0.659 158 139 94
-0.244386 0.163657 0.624 73 76 79
0.672419 0.37555 2.114 6 10 3
0.104293 -0.866838 2.338 53 24 10
-0.0785548 0.203999 0.614 186 187 183
-0.267523 -0.138996 1.278 65 124 117
0.900326 -0.6428 2.411 98 99 90
0.471316 0.422708 2.092 31 32 28
0.039277 0.0125596 1.077 189 185 186
-0.722859 -0.198658 1.439 80 95 90
-0.310276 -0.861454 2.365 54 25 11
0.441978 0.525067 1.842 85 83 71
-0.228434 0.125269 0.657 192 200 201
-0.259198 0.0328973 0.912 190 189 189
1.07066 -0.162844 2.092 49 47 35
-0.129338 -0.784481 2.365 54 23 10
-0.450275 -0.131802 1.289 149 150 144
0.515821 -0.584595 2.43 90 86 77
-0.425447 -0.225994 1.48 146 147 136
-0.0568792 0.0347887 1.01 196 195 195
-0.0765189 0.0871029 0.861 196 192 193
0.0909522 0.217253 0.741 144 147 148
-0.706782 -0.16343 1.459 134 141 133
0.511662 -0.690885 2.374 111 105 92
0.615324 0.598344 1.655 82 90 79
-0.190102 0.126814 0.701 127 121 125
-0.406107 -0.0794743 1.196 190 190 186
0.622341 0.352803 2.143 8 9 5
-0.292491 0.0551027 0.703 117 108 87
-0.0657975 0.108975 0.815 193 189 192
-0.322622 0.177991 0.628 62 74 66
0.949459 -0.495461 2.499 88 89 78
-0.243042 0.155043 0.618 75 79 93
-0.408631 0.0355666 0.986 171 178 172
0.603302 0.602492 1.637 83 91 80
0.748386 -0.738122 2.402 108 104 97
1.06119 -0.386326 2.402 80 81 68
-0.0726916 0.176035 0.651 116 102 96
1.08868 -0.531556 2.303 76 77 68
-0.222961 0.0738568 0.742 146 129 115
-0.373012 0.0305305 0.717 125 123 115
-0.290456 -0.746727 2.392 49 23 12
-1.21814 -0.750399 2.593 31 22 17
0.759438 -0.279282 2.53 89 81 78
-0.20003 0.0757688 0.844 155 150 158
0.31103 0.448492 2.024 80 77 74
0.612149 0.535998 1.714 121 129 118
-0.0134195 0.11922 0.778 192 188 189
0.807504 0.570472 1.668 96 95 97
-0.315114 -0.0358285 1.169 176 172 165
0.741288 -0.762544 2.43 111 104 98
-0.00892758 0.198476 0.638 189 195 195
-0.161912 0.131283 0.739 165 151 145
0.542993 0.0569922 2.66 13 13 7
0.146132 0.0170792 1.145 153 152 154
-0.398411 -0.0511831 1.13 119 116 113
-0.0582673 0.0693864 0.904 202 194 193
0.621532 -0.420571 2.489 97 89 86
0.454091 0.322692 2.356 65 66 53
0.387474 0.417291 2.099 77 75 63
-0.154492 -0.619583 2.459 49 25 11
0.445482 -0.0913853 2.572 63 58 54
1.05433 0.154865 2.107 9 20 20
-0.0448128 -0.679295 2.374 49 23 8
-0.206228 -0.123449 1.247 131 154 150
-0.00513255 0.15759 0.686 193 192 194
-0.182947 -0.0955114 1.227 31 61 66
-0.615799 -0.163568 1.419 176 183 177
-0.598726 -0.485702 1.789 180 180 182
0.668121 0.591691 1.659 78 86 75
-0.264744 -0.043921 1.182 187 187 183
-0.47072 -0.0830881 1.192 132 134 123
0.451249 0.426642 2.078 43 38 34
-0.413493 -0.848621 2.383 52 22 4
-0.451219 -0.165209 1.375 186 187 178
-0.174474 -0.135738 1.267 40 116 115
1.03825 -0.261405 2.44 77 79 68
-0.520844 -0.218991 1.498 111 112 108
0.843322 -0.774941 2.383 104 105 94
1.00207 -0.0120086 2.604 68 66 56
0.610227 0.426314 2.044 105 108 107
-0.537623 -0.709016 2.383 172 165 157
-0.307267 -0.104342 1.237 94 93 95
0.623224 0.511109 1.753 95 97 88
-0.207549 0.103589 0.722 94 88 90
1.05732 0.0872933 2.42 11 3 0
-0.191303 0.116384 0.714 161 155 157
0.0485576 -0.535301 2.071 169 154 142
0.248091 0.569986 1.724 110 109 109
-0.160534 -0.0599111 1.194 157 149 146
0.632519 0.312412 2.228 13 13 15
1.08493 -0.179269 2.303 11 3 0
-0.423118 0.02565 0.975 98 96 86
-0.212192 -0.0142525 1.118 188 184 185
-0.851966 -0.686496 2.32 156 157 148
0.322373 -0.43806 1.953 164 158 160
-0.223307 0.0945722 0.716 101 88 75
0.394987 0.407858 2.121 55 60 46
0.541012 0.428079 2.085 37 37 33
-0.051957 0.155131 0.685 195 194 196
-0.372735 0.00522966 1.015 169 171 162
-0.110521 0.212119 0.603 176 176 180
0.0356698 0.215818 0.656 165 168 167
0.0320584 -0.384555 1.893 149 141 140
-0.259 0.0915342 0.693 116 110 95
-1.27792 -0.780593 2.638 78 69 60
-0.711001 -0.139264 1.384 127 142 128
0.51552 0.59509 1.646 80 82 69
-0.647832 -0.401278 1.668 129 134 124
0.525979 -0.447514 2.459 94 89 85
0.964485 0.220453 2.329 22 11 4
-0.0207195 0.20935 0.618 183 184 180
0.507709 0.324031 2.338 59 63 56
0.386719 0.58008 1.729 86 84 74
0.867513 0.0511193 2.582 18 14 15
0.51041 0.442945 2.044 69 73 68
-0.187084 -0.76139 2.365 52 22 6
-0.20996 -0.505277 2.32 139 134 132
0.732235 0.0795336 2.55 62 30 24
1.104 -0.314832 2.228 8 4 0
0.443261 -0.359814 2.489 77 73 66
0.062409 0.213022 0.692 162 165 168
-0.250369 0.120663 0.667 183 191 192
0.765242 -0.573888 2.469 98 94 83
0.026755 -0.613554 2.22 186 149 88
-0.852474 -0.710201 2.374 155 156 150
0.0611358 -0.585883 2.158 177 141 91
-0.0506194 0.123614 0.766 192 188 191
-0.680618 -0.150768 1.429 135 145 131
-0.725679 -0.910111 2.402 53 23 5
1.08677 -0.208262 2.469 69 67 55
0.680148 0.152232 2.329 67 35 29
-0.123287 0.0710142 0.906 196 186 186
0.930743 0.391449 1.848 9 7 0
0.78921 0.0262398 2.615 20 20 16
0.0807135 0.0343265 1.046 187 186 186
-0.200968 -0.139641 1.265 113 149 147
-0.578931 -0.336237 1.642 179 182 181
-0.172697 0.0848035 0.825 74 69 81
-0.0369465 -0.0104619 1.102 195 191 194
-0.201989 0.133287 0.665 168 167 174
-0.0108409 0.153781 0.694 194 193 195
-0.195853 0.211302 0.612 174 182 179
-0.827187 -0.342187 1.595 178 189 185
-0.00780248 0.206566 0.631 186 192 190
0.386129 -0.596674 2.294 100 95 93
-0.370614 -0.538792 2.286 162 153 144
-0.269601 0.133067 0.638 187 197 200
-0.117941 -0.195361 1.432 22 118 110
0.637376 -0.827204 2.411 112 108 99
-0.301468 -0.00858995 1.092 184 180 181
-0.271952 0.196535 0.622 81 91 75
-0.368734 0.0464735 0.711 95 88 67
-0.707698 -0.165464 1.456 140 149 140
0.586355 -0.591795 2.411 102 98 91
-0.130514 0.175782 0.654 114 103 98
0.90367 -0.0548437 2.626 60 59 59
0.996323 0.2871 2.024 44 41 27
0.754171 -0.243185 2.54 78 76 68
0.563299 -0.00804261 2.695 17 13 6
-0.107364 0.205662 0.613 185 185 185
-0.053668 0.121126 0.774 193 189 190
0.150113 -0.367363 1.794 163 155 152
0.182576 -0.173646 1.528 153 150 147
-0.628618 -0.615626 2.092 164 161 158
-0.35032 -0.804572 2.402 123 106 90
0.771003 -0.473592 2.449 95 91 84
1.08147 -0.323604 2.43 72 74 65
0.438751 0.242178 2.356 11 11 11
-0.0498721 0.154466 0.687 194 194 196
-0.254304 0.079352 0.705 94 77 61
-0.182175 0.0895946 0.796 64 58 60
0.0106692 0.213416 0.63 181 184 185
0.0792298 0.0247128 1.072 184 183 185
-0.147164 0.0291641 1.044 198 194 197
0.943022 -0.232653 2.43 80 78 66
0.271669 -0.148579 1.696 106 100 102
0.0319891 -0.0757081 1.198 71 96 91
0.539698 -0.883535 2.312 118 114 103
-0.660149 -0.828286 2.449 56 26 8
-0.32195 0.152289 0.615 59 76 117
-0.210187 0.138492 0.625 191 197 199
-0.366622 -0.873512 2.356 53 22 9
-0.155991 -0.0577253 1.189 153 146 140
0.655715 -0.789545 2.392 112 108 101
0.0871581 -0.315843 1.705 164 161 156
-0.0875874 0.156393 0.676 190 190 192
-0.163505 0.135624 0.73 159 150 141
-0.364668 0.0465137 0.98 194 198 193
0.797166 -0.145797 2.572 68 66 58
0.958844 -0.378966 2.43 76 84 71
-0.0644944 0.20192 0.623 192 192 192
-0.191726 0.108287 0.738 54 50 51
-0.486431 -0.016803 1.05 162 171 164
-0.114957 0.119402 0.771 101 106 113
-0.10351 -0.154001 1.336 86 133 132
0.338505 0.622832 1.607 80 85 75
-0.645239 -0.451017 1.734 134 144 132
0.688849 0.268681 2.32 8 8 8
1.05778 -0.786778 2.261 93 95 86
1.03993 -0.121584 2.085 44 41 27
0.44241 0.59145 1.705 81 81 81
-0.590024 -0.532389 1.882 153 157 150
-0.150821 0.164257 0.659 183 169 134
0.662073 -0.527546 2.459 98 94 85
-0.308838 0.0809759 0.662 121 115 102
1.07028 -0.520378 2.32 84 82 70
-0.207022 -0.051615 1.182 149 144 140
0.432287 0.490325 1.905 79 77 69
-1.33906 -0.667382 2.582 98 104 104
0.364457 0.594849 1.691 85 86 75
0.34914 -0.43818 1.997 156 151 149
-0.7308 -0.231341 1.396 133 145 135
-1.18355 -0.743014 2.582 34 22 22
-0.0967408 0.0680655 0.906 197 191 193
1.10365 -0.266737 2.22 6 7 0
-0.273989 0.140402 0.629 188 199 199
-0.124004 -0.685959 2.411 53 24 12
-0.481452 -0.0131562 1.032 177 185 184
-0.221023 0.184981 0.624 89 90 81
0.676348 0.463114 1.947 98 106 105
0.513371 0.571639 1.729 85 86 73
-0.431937 0.0336521 0.977 127 130 129
-0.0590916 0.129057 0.747 190 190 186
0.417138 0.513414 1.865 82 80 72
-0.653269 -0.281473 1.682 55 59 52
-0.42744 0.0256236 0.974 98 94 87
1.0316 -0.0457152 2.593 67 68 57
-0.721305 -0.298637 1.494 134 152 129
-0.036099 0.20192 0.623 188 191 192
0.114687 0.160238 0.855 155 155 157
-0.110525 0.183289 0.643 191 190 190
0.974021 -0.457025 2.489 85 86 75
-0.182966 0.0969437 0.772 49 52 51
-1.33953 -0.982018 2.684 34 41 35
0.118152 0.106928 0.95 160 157 154
-0.0278378 0.187474 0.643 181 182 178
-0.182175 0.224876 0.603 146 152 150
0.896395 0.444997 1.821 12 11 11
-0.173757 0.0873318 0.799 68 63 71
-0.307553 0.022615 0.981 194 194 196
-0.22401 0.199032 0.602 137 148 148
0.937046 -0.784481 2.365 104 102 92
0.0390693 -0.456065 1.935 174 166 163
-0.476541 -0.0811483 1.192 136 142 142
1.06584 -0.401963 2.151 19 10 17
-0.151012 0.0436029 1.024 197 196 196
0.510037 0.599828 1.637 84 85 76
0.859235 0.476727 1.763 11 20 11
0.767936 -0.593495 2.402 102 98 89
-0.16183 0.223283 0.604 162 168 166
0.835445 -0.22019 2.561 83 79 72
-0.283896 -0.381783 1.991 159 151 148
1.01442 -0.225669 2.44 76 73 68
0.336934 0.619524 1.612 83 86 70
0.289706 -0.76619 2.392 71 67 56
-0.72766 -0.214513 1.39 114 123 114
0.574582 -0.627106 2.411 106 102 93
0.393772 0.483946 1.929 87 84 81
-0.187451 0.143828 0.679 157 157 161
0.774285 0.480607 1.799 131 133 120
0.752079 -0.86919 2.294 112 110 100
-0.360125 0.0521851 0.71 70 63 55
0.0947982 0.133805 0.864 164 159 157
-0.0718296 0.0588171 0.947 195 191 194
-0.404918 -0.423841 1.876 154 155 151
0.296817 0.522172 1.853 76 77 71
-0.223953 0.103738 0.707 182 189 183
-0.508013 -0.154001 1.336 179 181 172
-0.187607 0.0664824 0.925 194 193 193
-0.515957 -0.038622 1.087 116 118 107
-0.091445 0.193013 0.627 186 187 183
0.6775 0.549689 1.696 99 102 101
-0.328232 0.194033 0.627 49 54 59
0.567616 0.3906 2.121 62 24 17
-0.0443253 -0.0372467 1.154 192 188 191
0.00672348 0.184909 0.645 111 99 99
0.492878 0.516141 1.853 83 84 78
-0.485922 -0.381312 1.7 89 91 78
-0.254511 0.0940438 0.712 106 94 78
-0.278196 -0.35106 1.929 158 153 149
-0.529173 -0.254503 1.551 140 147 139
-0.224319 0.0560879 0.88 197 196 196
-0.292594 0.178158 0.625 80 80 80
-0.17968 0.111737 0.714 191 187 188
-0.0725489 0.141549 0.712 190 189 193
-0.93103 -0.927707 2.459 51 27 13
-0.309916 0.096058 0.662 91 88 72
0.0533684 0.030863 1.044 191 187 188
-0.40669 0.0182619 1.005 125 121 112
0.800818 0.417027 1.882 126 141 138
-0.0443054 0.0912667 0.835 185 179 185
0.649217 -0.169448 2.55 71 67 60
0.671341 -0.63699 2.449 109 102 96
-0.179913 0.231361 0.602 150 153 154
0.525773 0.504054 1.831 21 24 25
0.42988 0.315945 2.392 66 67 56
-0.339594 -0.132006 1.291 163 162 162
-0.0329197 0.0221113 1.032 196 192 193
-0.167685 -0.0475255 1.176 171 168 165
-0.174017 0.142898 0.696 116 105 98
-0.687931 -0.622757 2.128 132 140 129
1.07835 -0.364279 2.22 12 2 2
0.674122 -0.239992 2.55 75 73 61
0.012904 -0.890032 2.329 56 26 8
0.563839 0.161775 2.303 68 40 39
1.09104 -0.684417 2.365 88 90 81
0.795233 0.0428977 2.593 56 61 49
0.00777347 0.146084 0.385 67 31 8
0.287526 -0.679295 2.374 35 21 17
0.711508 0.264905 2.32 11 11 7
0.990285 -0.197003 2.479 79 77 67
0.0383242 0.209039 0.665 165 168 169
-0.125807 0.225108 0.601 135 138 137
0.628594 0.101114 2.469 62 30 24
-0.198321 0.122665 0.71 150 133 149
0.909196 0.0938327 2.489 29 25 26
0.750036 -0.301053 2.54 92 85 79
-0.159139 -0.58996 2.469 52 26 15
0.0128429 0.0957999 0.839 168 161 170
-0.599423 -0.456833 1.724 143 147 140
-0.00587746 0.0345821 1.004 196 192 195
1.10422 0.0156747 2.312 12 12 6
1.05889 -0.49553 2.479 83 85 76
1.02459 0.25539 2.269 23 14 7
-0.0439991 0.207001 0.62 187 187 187
-0.265356 0.110067 0.689 126 127 118
-1.04026 -0.730928 2.54 47 27 19
-0.394214 0.00522966 1.015 115 114 99
-0.134421 0.215221 0.609 145 154 147
1.01031 -0.21142 2.459 75 75 69
0.393438 0.620217 1.607 89 87 79
0.108931 -0.76616 2.356 83 50 35
-0.193382 0.0807813 0.839 165 158 167
-0.470854 -0.0367853 1.085 146 155 146
-0.114759 0.0874064 0.864 143 134 129
-0.440721 0.0218542 0.948 108 110 99
0.82004 0.215011 2.196 13 14 10
-0.47544 -0.890567 2.402 56 26 10
0.599048 0.236523 2.338 26 17 20
0.350543 -0.693314 2.356 29 18 13
1.06613 0.159716 2.173 11 16 6
0.787647 -0.542083 2.489 98 94 87
-0.395238 -0.0144474 1.005 163 162 162
-0.685877 -0.266495 1.491 127 136 129
-0.303199 0.192299 0.628 44 54 59
-1.19893 -0.795317 2.561 32 20 20
0.619357 -0.589586 2.402 102 97 93
-0.168863 0.182902 0.638 185 191 189
0.310153 0.543213 1.774 85 82 77
0.39573 -0.683158 2.374 63 59 50
-0.297969 0.00203625 1.073 188 188 188
-0.377965 -0.487553 2.158 121 117 108
0.986895 -0.722487 2.402 99 99 93
0.77623 0.540359 1.719 86 100 91
0.930231 0.384704 1.859 14 10 1
0.0656224 0.134339 0.816 177 173 174
-0.00984292 -0.670209 2.329 97 68 43
0.051634 0.129908 0.805 182 177 175
0.0101003 -0.201395 1.409 1 89 100
-0.236914 -0.232385 1.555 171 166 162
0.458366 -0.690239 2.44 94 87 79
0.764696 0.0430797 2.604 60 39 38
0.216663 -0.0453968 1.339 95 89 93
1.02246 -0.208262 2.469 73 73 67
-0.629312 -0.363138 1.655 172 176 171
0.169643 -0.854898 2.347 65 44 29
-0.117978 -0.0161294 1.122 188 187 189
0.10392 0.282826 0.804 160 166 166
-0.306867 -0.371722 1.972 159 155 148
0.0867843 -0.670361 2.278 168 137 83
-0.033938 0.143803 0.389 165 165 165
-0.327033 0.0606497 0.701 109 100 83
0.643281 0.0597764 2.593 58 27 27
1.1015 -0.26109 2.173 28 14 6
0.463174 -0.895156 2.383 96 98 89
0.371474 0.315945 2.392 70 65 63
0.0121338 0.0810725 0.887 198 192 196
-0.207496 0.149491 0.62 92 89 105
0.00241979 0.0106264 1.059 192 188 189
0.339639 -0.317098 2.099 94 86 85
-0.164099 0.205992 0.62 179 185 183
-0.20341 0.0814906 0.724 143 124 109
-0.695664 -0.743653 2.42 157 155 147
-0.291152 0.114552 0.689 69 71 62
-0.197511 0.191886 0.63 162 168 166
-0.321993 0.201983 0.617 146 163 164
-0.661162 -0.44 1.724 131 138 132
1.034 -0.438282 2.43 85 82 77
-1.20969 -0.750399 2.593 36 27 22
-0.219405 0.134296 0.634 193 199 201
-0.0984356 0.0187525 1.032 192 188 189
-0.00838365 0.160166 0.678 194 194 194
-0.361785 -0.416773 2.085 145 141 142
-0.121175 -0.850508 2.356 49 23 10
0.0840062 -0.0499857 1.189 150 143 137
0.672843 -0.430394 2.499 98 94 85
-0.137314 0.061378 0.963 197 196 198
-0.568436 -0.259754 1.583 132 142 130
-0.367779 0.0101849 1.015 188 188 188
0.921647 -0.738298 2.365 98 99 93
-0.24893 0.111983 0.687 167 178 176
0.486304 0.554761 1.774 80 81 70
-0.573324 -0.195761 1.47 146 154 141
0.899748 -0.657014 2.42 98 96 86
-0.328329 0.0661463 0.687 113 108 88
0.0457755 0.191601 0.696 172 172 174
0.0767609 0.205523 0.721 167 170 171
0.0376289 0.231643 0.635 163 169 169
0.391229 0.168686 2.347 54 53 55
-0.125725 0.190861 0.63 181 181 181
0.599404 0.584859 1.686 65 69 64
-0.0386865 -0.130677 1.278 167 171 164
-0.490479 -0.0455048 1.126 139 149 135
-0.540595 -0.567649 2.03 128 131 115
1.03563 -0.0655207 2.03 18 19 10
-0.187256 0.190861 0.63 162 165 166
0.0781615 -0.145602 1.319 174 172 162
-0.0750649 0.144336 0.703 191 187 188
0.105432 0.188237 0.786 129 128 128
-0.0225747 0.0301535 1.02 196 192 193
-0.265319 -0.274224 1.705 164 160 153
-0.686456 -0.301679 1.547 111 112 108
0.382435 0.405741 2.128 59 64 50
0.153531 -0.688896 2.278 102 83 79
0.0806307 -0.39026 1.876 153 144 149
-0.166325 0.143104 0.697 152 144 141
-0.385152 -0.395045 1.899 99 97 89
-1.68445 -1.17252 3.248 33 34 23
1.10327 -0.492554 2.212 15 11 2
0.792554 -0.463257 2.479 94 90 83
-0.809294 -0.900948 2.43 53 29 13
0.926278 0.3815 2.128 11 11 5
0.0383174 -0.221458 1.435 0 94 86
0.586216 0.616901 1.612 82 84 71
-0.151647 0.0912325 0.799 53 52 52
0.0525541 0.000296883 1.098 190 186 189
1.06792 -0.799911 2.236 93 95 86
0.453993 0.493425 1.905 100 99 106
0.8481 -0.0890306 2.626 65 62 57
0.0397231 -0.0716892 1.196 132 132 128
0.803676 -0.668875 2.392 101 97 90
-0.230996 0.107942 0.697 189 195 197
-0.286534 0.116286 0.686 112 118 116
0.947899 0.327164 1.876 35 31 22
0.0274558 -0.0435122 1.171 154 150 151
0.74831 -0.451998 2.44 93 90 85
-0.549521 -0.33519 1.65 178 182 177
