ply
format ascii 1.0
comment Created by Open3D
element vertex 1296
property double x
property double y
property double z
property uchar red
property uchar green
property uchar blue
end_header
0.665625 0.391083 1.633 255 255 255
0.742523 0.0806582 2.051 255 255 255
-0.156773 0.0978263 0.967 255 255 255
0.434612 0.507377 1.505 255 255 255
1.06312 -0.13163 2.196 255 255 255
0.579257 0.538245 1.456 255 255 255
-0.0240541 -0.642932 1.719 255 255 255
-0.354001 -0.167795 1.26 255 255 255
0.420252 -0.450957 1.524 255 255 255
-0.477916 0.267682 1.081 255 255 255
1.03709 -0.643962 2.695 255 255 255
-0.120195 0.0818354 0.964 255 255 255
-0.148395 0.058909 0.974 255 255 255
-0.123917 -0.00956004 1.007 255 255 255
0.0566948 0.0406683 0.691 255 255 255
0.766599 0.331607 1.71 255 255 255
-0.425077 -0.0119216 1.072 255 255 255
-0.0576379 -0.458581 1.567 255 255 255
-0.0610389 0.0773101 0.947 255 255 255
0.423349 0.534785 1.466 255 255 255
-0.18965 -0.122041 1.044 255 255 255
0.798286 -0.29361 2.411 255 255 255
0.920487 -0.229015 2.392 255 255 255
1.03467 -0.919115 2.479 255 255 255
0.427079 -0.225169 1.4 255 255 255
0.154215 -0.677937 1.774 255 255 255
-0.257797 0.272685 1.073 255 255 255
-0.207642 -0.56165 1.71 255 255 255
0.296008 -0.15033 1.286 255 255 255
-0.417747 -0.175741 1.273 255 255 255
-0.366816 0.333351 1.055 255 255 255
-0.537716 0.352535 1.11 255 255 255
1.1976 -0.885864 2.499 255 255 255
-0.51612 -0.209739 1.291 255 255 255
-0.411303 0.198471 1.059 255 255 255
0.226088 -0.42307 1.487 255 255 255
-0.406008 -0.529114 1.603 255 255 255
-0.145224 0.13182 0.974 255 255 255
0.00803093 0.162194 0.913 255 255 255
0.253792 -0.303031 1.351 255 255 255
0.550352 0.402232 1.646 255 255 255
-0.0841361 -0.398318 1.494 255 255 255
-0.820964 -0.388557 1.583 255 255 255
-0.193559 0.0788894 0.986 255 255 255
0.186442 -0.306585 1.357 255 255 255
-0.352142 -0.0813899 1.141 255 255 255
-0.32402 -0.529681 1.637 255 255 255
-0.0730343 0.298106 0.984 255 255 255
-0.49613 0.290484 1.094 255 255 255
0.383165 0.512275 1.505 255 255 255
0.249042 -0.120776 1.22 255 255 255
0.939768 0.208004 1.848 255 255 255
-0.0532842 -0.0806437 1.036 255 255 255
0.00902719 0.328593 0.866 255 255 255
0.496458 0.365632 1.7 255 255 255
-0.124543 0.170348 0.986 255 255 255
-0.111885 -0.0127737 1.002 255 255 255
0.530577 0.541729 1.459 255 255 255
-0.338706 0.0934116 1.022 255 255 255
0.0386068 0.285578 0.835 255 255 255
-0.0431245 -0.049732 0.96 0 0 0
-0.127753 0.170348 0.986 255 255 255
0.78729 0.268202 1.769 255 255 255
0.15437 -0.107411 1.085 255 255 255
-0.486789 -0.561088 1.62 255 255 255
-0.0784724 0.205286 0.992 255 255 255
-0.291911 0.212721 1.07 255 255 255
-0.460887 -0.598329 1.65 255 255 255
0.332392 0.106661 1.281 255 255 255
0.0533022 -0.106619 1.077 255 255 255
-0.545033 0.0179499 1.085 255 255 255
0.613831 0.491512 1.494 255 255 255
0.233008 -0.00669437 1.073 255 255 255
0.422984 0.48361 1.571 255 255 255
0.0250465 -0.0150107 0.938 255 255 255
-0.245025 0.200179 1.041 255 255 255
-0.391269 0.374658 1.075 255 255 255
0.886611 -0.318164 2.449 255 255 255
-0.173813 0.40392 1.051 255 255 255
-0.181764 0.31099 1.11 255 255 255
0.0862005 0.155413 0.763 255 255 255
-0.135745 0.306292 1.022 255 255 255
0.0823235 -0.0136137 0.947 255 255 255
-0.218435 -0.104867 1.077 255 255 255
-0.0320961 0.333055 0.913 255 255 255
1.13968 -0.595999 2.638 255 255 255
0.128799 -0.0123913 0.972 255 255 255
-0.527366 0.258911 1.096 255 255 255
-0.151718 -0.619283 1.739 255 255 255
-0.498862 -0.0503678 1.112 255 255 255
-0.0411032 -0.370911 1.435 255 255 255
-0.58198 -0.209407 1.302 255 255 255
0.214033 0.130255 1.024 255 255 255
1.10404 -0.723196 2.499 255 255 255
-0.363024 -0.422476 1.575 255 255 255
0.971647 0.116306 1.923 255 255 255
-0.285559 0.202487 1.053 255 255 255
0.112541 0.291042 0.839 255 255 255
1.17397 -0.681539 2.572 255 255 255
0.421718 0.0220314 1.477 0 0 0
-0.0993689 -0.158729 1.098 255 255 255
-0.306526 -0.550951 1.629 255 255 255
-0.488969 -0.192616 1.275 255 255 255
-0.135887 0.0896791 0.964 255 255 255
-0.301184 -0.239499 1.316 255 255 255
-0.146812 -0.639556 1.748 255 255 255
-0.56618 0.433557 1.244 255 255 255
0.0327386 0.097024 0.684 255 255 255
0.701356 -0.504903 1.991 255 255 255
-0.249959 0.408431 1.1 255 255 255
0.361154 -0.154319 1.302 255 255 255
0.665183 0.547255 1.412 255 255 255
0.0819762 0.0112069 0.961 255 255 255
0.063506 0.318974 0.823 255 255 255
0.903672 -0.105716 2.253 255 255 255
0.887482 0.144019 1.917 255 255 255
-0.0163345 0.308472 0.947 255 255 255
-0.482662 0.0386688 1.072 255 255 255
-0.455056 -0.496752 1.583 255 255 255
0.680612 0.370989 1.65 255 255 255
0.102845 0.0112652 0.966 255 255 255
0.198217 -0.204997 1.225 255 255 255
-0.173576 0.412554 1.06 255 255 255
-0.0938056 0.328346 0.951 255 255 255
0.922181 0.215029 1.831 255 255 255
0.99185 -0.176222 2.173 255 255 255
-0.537884 0.115803 1.092 255 255 255
-0.806927 -0.463482 1.677 255 255 255
0.196838 -0.659306 1.794 0 0 0
0.869737 -0.264512 2.469 255 255 255
0.821927 0.275899 1.763 255 255 255
0.82652 0.151669 1.935 255 255 255
-0.044982 0.272499 1.039 255 255 255
-0.0505866 0.331412 0.925 255 255 255
0.342603 -0.298523 1.381 255 255 255
-0.590239 0.303937 1.124 255 255 255
0.16003 0.30284 0.989 255 255 255
0.543706 0.545354 1.456 255 255 255
0.582042 0.53131 1.463 255 255 255
-0.232211 -0.137969 1.118 255 255 255
-0.142198 0.167139 0.986 255 255 255
-0.341156 -0.022493 1.077 255 255 255
-0.415675 -0.248618 1.354 255 255 255
-0.330355 -0.528627 1.642 255 255 255
0.379641 0.348935 1.673 255 255 255
0.292951 -0.302518 1.339 255 255 255
0.648465 0.376845 1.664 255 255 255
-0.522637 0.489791 1.302 255 255 255
0.321864 0.500211 1.528 255 255 255
1.21311 -0.598658 2.54 255 255 255
0.163684 0.160163 0.954 255 255 255
-0.339177 -0.488525 1.633 255 255 255
-0.208179 0.290878 1.116 255 255 255
-0.279571 -0.590084 1.642 255 255 255
0.00222557 0.309342 0.974 255 255 255
-0.289307 -0.475517 1.607 255 255 255
0.0919866 0.14841 0.851 255 255 255
0.0555665 -0.151832 1.087 255 255 255
0.0852967 0.170984 0.755 255 255 255
0.502154 0.375447 1.682 255 255 255
0.155686 -0.634632 1.758 255 255 255
0.476544 0.468085 1.579 255 255 255
-0.510037 0.469383 1.281 255 255 255
0.712965 -0.0763846 2.253 255 255 255
0.0583287 0.00961292 0.958 255 255 255
-0.360443 -0.573563 1.633 0 0 0
0.270146 0.173435 1.182 255 255 255
-0.221682 -0.241189 1.302 255 255 255
0.584827 0.524283 1.47 255 255 255
1.17511 -0.585832 2.593 255 255 255
0.526204 0.317125 1.753 255 255 255
1.10327 -0.915081 2.479 255 255 255
0.215891 0.0256922 1.041 255 255 255
-0.210083 -0.313747 1.409 255 255 255
-0.390636 -0.424622 1.583 255 255 255
0.634773 0.0141831 2.092 255 255 255
0.0970148 -0.159515 1.116 255 255 255
-0.271096 0.0234679 1.018 255 255 255
-0.200508 0.0002739 1.013 255 255 255
0.154416 0.0915397 0.984 255 255 255
1.20245 -0.423505 2.459 255 255 255
-0.449902 -0.452959 1.583 0 0 0
-0.17785 -0.384106 1.505 255 255 255
-0.543529 -0.0544725 1.122 255 255 255
0.214815 0.244403 1.087 255 255 255
-0.187573 -0.0560003 1.081 255 255 255
-0.25632 0.140256 1.012 255 255 255
-0.130863 -0.0342426 1.01 0 0 0
0.00278082 -0.223463 1.217 255 255 255
-0.144585 -0.337522 1.442 255 255 255
0.298352 -0.459208 1.535 255 255 255
-0.567289 -0.448938 1.587 255 255 255
-0.535567 -0.551813 1.616 255 255 255
0.739574 0.510863 1.459 255 255 255
-0.497864 0.262815 1.09 255 255 255
-0.421552 -0.230182 1.324 255 255 255
-0.340363 0.117266 1.027 255 255 255
-0.0213353 0.00967312 0.964 255 255 255
-0.192864 0.327862 1.043 255 255 255
0.0129272 0.0340877 0.945 255 255 255
1.2514 -0.738339 2.509 255 255 255
0.376945 0.0465342 1.351 255 255 255
0.505744 0.492828 1.498 255 255 255
-0.213386 0.242634 1.087 255 255 255
-0.14669 -0.35196 1.463 255 255 255
-0.355593 -0.0369209 1.089 255 255 255
0.146602 0.170773 0.944 255 255 255
0.70954 0.381 1.624 255 255 255
0.276378 -0.169151 1.302 255 255 255
0.120223 0.283498 0.845 255 255 255
0.162036 -0.137123 1.126 0 0 0
-0.0401241 0.376369 0.963 255 255 255
-0.348953 -0.500583 1.629 255 255 255
-0.485445 -0.0370905 1.094 255 255 255
0.264946 0.170641 1.176 255 255 255
-0.184619 -0.62979 1.729 255 255 255
-0.363103 -0.0576062 1.112 255 255 255
-0.404137 0.357912 1.072 255 255 255
-0.549188 0.392753 1.165 255 255 255
-0.0502358 -0.360059 1.429 255 255 255
0.445131 0.514789 1.491 255 255 255
-0.543615 -0.0158131 1.1 255 255 255
0.0238786 0.184743 0.756 255 255 255
-0.254857 0.238393 1.068 255 255 255
0.566791 0.449796 1.587 255 255 255
0.947145 -0.0272302 2.136 255 255 255
0.039859 -0.621994 1.7 255 255 255
0.233386 -0.469199 1.535 255 255 255
0.0144966 0.316441 0.856 255 255 255
0.861526 -0.0861038 2.22 255 255 255
0.563636 0.472479 1.543 255 255 255
-0.475085 0.153664 1.059 255 255 255
0.581914 0.363697 1.691 255 255 255
-0.387327 -0.217805 1.289 255 255 255
0.358138 0.469628 1.567 255 255 255
0.0586196 0.27473 0.811 255 255 255
0.512979 0.536071 1.463 255 255 255
-0.312918 0.289625 1.147 255 255 255
-0.279571 -0.582068 1.642 255 255 255
-0.432148 0.205523 1.051 255 255 255
0.0741158 -0.508245 1.603 255 255 255
0.366704 0.567846 1.459 255 255 255
0.074965 0.175954 0.75 255 255 255
-0.49025 0.458544 1.257 255 255 255
1.25446 -0.656526 2.54 255 255 255
-0.527791 -0.309465 1.4 255 255 255
-0.248149 0.0831809 0.999 255 255 255
1.23847 -0.903697 2.459 255 255 255
-0.310473 -0.240539 1.31 255 255 255
-0.274991 0.0948448 1.002 255 255 255
0.317247 -0.543307 1.646 255 255 255
-0.130085 -0.0748851 1.004 255 255 255
0.786805 0.0314287 2.107 255 255 255
-0.366481 0.195945 1.064 255 255 255
-0.247143 0.210453 1.05 255 255 255
0.115943 0.264281 0.854 255 255 255
-0.0427605 -0.128322 1.068 255 255 255
1.24047 -0.511666 2.479 255 255 255
0.031581 0.227911 0.795 255 255 255
-0.27883 -0.0169631 1.06 0 0 0
0.359945 -0.198813 1.345 255 255 255
0.0526115 -0.347964 1.381 0 0 0
-0.0668399 0.258474 1.037 255 255 255
0.111545 -0.562571 1.696 255 255 255
-0.423386 -0.297697 1.409 255 255 255
-0.57566 0.278476 1.11 255 255 255
1.07243 -0.773339 2.53 255 255 255
0.405457 -0.0524673 1.412 255 255 255
-0.203149 -0.642063 1.673 255 255 255
-0.210375 -0.0097689 1.029 255 255 255
0.848754 -0.0274215 2.151 255 255 255
-0.366988 0.0568228 1.022 255 255 255
-0.496494 0.256785 1.087 255 255 255
0.273545 -0.237899 1.319 255 255 255
-0.18857 -0.0392762 1.057 255 255 255
0.276695 -0.60339 1.71 255 255 255
-0.276315 0.323709 1.098 255 255 255
0.833459 0.248636 1.794 255 255 255
-1.52181 -1.08861 2.898 255 255 255
-0.630271 -0.172851 1.267 255 255 255
0.0515617 0.1947 0.747 255 255 255
-0.264383 -0.114611 1.139 255 255 255
-0.575138 0.321751 1.116 255 255 255
-0.008383 -0.388779 1.432 255 255 255
-0.39532 -0.599428 1.668 255 255 255
0.478161 0.350371 1.734 255 255 255
-0.505248 -0.566361 1.62 255 255 255
1.12108 -0.897053 2.519 255 255 255
0.268903 0.171947 1.185 255 255 255
0.0827371 0.0595938 0.702 0 0 0
-0.0593717 0.0740711 0.945 255 255 255
0.691847 0.328741 1.739 255 255 255
-0.336471 -0.632694 1.714 255 255 255
0.82831 -0.339422 2.43 255 255 255
0.536227 -0.685923 1.826 255 255 255
0.335195 -0.647239 1.769 255 255 255
-0.0259462 -0.0595963 1.022 255 255 255
-0.407123 -0.498007 1.587 255 255 255
-0.1409 0.140175 0.977 255 255 255
-0.467968 -0.295191 1.419 255 255 255
0.101901 0.0224075 0.972 255 255 255
-0.563751 -0.0663024 1.137 255 255 255
0.0638214 0.278346 0.81 255 255 255
-0.33551 0.406651 1.135 255 255 255
-0.254074 -0.501666 1.65 255 255 255
0.145149 -0.0618589 1.032 255 255 255
-0.405002 -0.0318656 1.098 255 255 255
0.0790731 0.0387012 0.945 255 255 255
0.750316 0.429922 1.571 255 255 255
0.163471 -0.229339 1.249 255 255 255
0.22379 -0.142604 1.171 255 255 255
0.430749 -0.324207 1.435 255 255 255
-0.637524 -0.262565 1.381 255 255 255
-0.316267 -0.0424313 1.094 255 255 255
1.1264 -0.915702 2.459 255 255 255
0.7339 0.248593 1.815 255 255 255
0.194919 -0.487972 1.547 255 255 255
1.08527 -0.168586 2.212 255 255 255
-0.494877 0.0753032 1.072 255 255 255
0.939141 -0.330149 2.42 255 255 255
0.267887 -0.13931 1.262 255 255 255
0.601719 0.549975 1.425 255 255 255
-0.48672 -0.238043 1.308 255 255 255
-0.473512 0.282276 1.083 255 255 255
0.132059 -0.0489864 1.009 0 0 0
-0.222919 -0.0682175 1.108 255 255 255
-0.158908 0.224326 1.043 255 255 255
0.21875 -0.126953 1.185 255 255 255
-0.507896 -0.261526 1.33 255 255 255
-0.418981 -0.463263 1.583 255 255 255
-0.724109 -0.429357 1.591 255 255 255
0.785256 0.280838 1.758 255 255 255
0.936062 -0.267941 2.392 255 255 255
0.844886 0.270161 1.763 255 255 255
0.159909 0.123102 0.932 255 255 255
0.481392 -0.589435 1.686 255 255 255
-0.189672 0.31211 1.114 255 255 255
-0.543217 0.130019 1.092 255 255 255
0.168367 0.0351332 1.02 255 255 255
-0.0244014 0.287736 1.027 255 255 255
-0.570759 0.470946 1.291 255 255 255
-0.557106 -0.228432 1.339 255 255 255
-0.575814 0.352745 1.128 255 255 255
-0.53931 -0.0859239 1.152 255 255 255
1.21045 -0.443513 2.459 255 255 255
0.217148 -0.0102626 1.081 255 255 255
-0.248168 0.268807 1.1 255 255 255
-0.432297 0.265204 1.064 255 255 255
0.206773 0.185703 1.055 255 255 255
-0.932665 -0.735021 2.064 255 255 255
-0.610743 0.461462 1.265 255 255 255
0.286412 -0.25458 1.339 255 255 255
0.64234 0.463741 1.539 255 255 255
-0.282776 0.334422 1.075 255 255 255
-0.376969 0.10339 1.022 255 255 255
0.922741 0.172473 1.887 255 255 255
0.428122 -0.38131 1.466 255 255 255
0.0574414 -0.148567 1.089 255 255 255
0.670183 -0.00641917 2.151 255 255 255
0.558993 0.500297 1.484 255 255 255
0.572777 -0.659295 1.81 255 255 255
0.446004 -0.29701 1.439 255 255 255
0.0905001 -0.514997 1.616 255 255 255
0.196121 -0.0766834 1.154 255 255 255
0.0576415 0.169172 0.747 255 255 255
-0.162132 -0.339862 1.452 255 255 255
0.301645 0.44413 1.466 255 255 255
1.17187 -0.834398 2.479 255 255 255
0.0321801 0.112318 0.696 255 255 255
-0.332603 0.154066 1.05 255 255 255
-0.0994364 -0.10314 1.025 255 255 255
0.674264 0.167933 1.941 255 255 255
-0.180984 -0.274512 1.33 255 255 255
0.654395 0.179451 1.929 255 255 255
1.01036 -0.745381 2.519 255 255 255
0.020521 0.0592654 0.685 255 255 255
-0.258026 0.196769 1.032 255 255 255
0.451199 -0.0746129 1.487 0 0 0
-0.0567849 0.298489 0.98 255 255 255
-0.453623 -0.485094 1.587 255 255 255
0.198657 0.092857 0.981 255 255 255
-0.428833 -0.00663822 1.064 255 255 255
0.0288226 0.113613 0.697 255 255 255
-0.43293 -0.423258 1.559 255 255 255
-0.518635 0.347037 1.104 255 255 255
0.873898 -0.803533 2.32 255 255 255
0.779464 0.099015 2.017 255 255 255
0.0177729 -0.584979 1.705 255 255 255
-0.221516 0.124193 0.989 255 255 255
-0.026784 -0.104441 1.055 255 255 255
-0.462981 0.286501 1.079 255 255 255
-0.280259 -0.282982 1.393 255 255 255
-0.545765 0.227488 1.108 255 255 255
0.789218 0.438459 1.547 255 255 255
0.437212 -0.484081 1.567 255 255 255
-0.374985 -0.243661 1.327 255 255 255
-0.135081 -0.0394449 1.017 255 255 255
0.830553 0.294782 1.739 255 255 255
-0.00444333 -0.661828 1.71 255 255 255
0.462359 0.494042 1.532 255 255 255
0.244347 -0.0676436 1.16 255 255 255
-0.0962485 -0.145986 1.083 255 255 255
0.515806 0.39794 1.673 255 255 255
0.817674 0.0382863 2.107 255 255 255
1.23098 -0.587269 2.509 255 255 255
-0.251778 -0.0995837 1.116 255 255 255
0.268007 -0.0140486 1.102 255 255 255
-0.527371 0.0585599 1.085 255 255 255
0.219748 -0.112976 1.18 255 255 255
-0.516499 -0.143433 1.227 255 255 255
0.923384 -0.318335 2.42 255 255 255
-0.518351 -0.0759525 1.143 255 255 255
-0.0568429 -0.0635911 0.981 255 255 255
-0.860998 -0.443935 1.655 255 255 255
-0.0266063 -0.0764615 1.048 255 255 255
0.77714 0.198292 1.899 255 255 255
-0.610779 0.478683 1.278 255 255 255
0.222427 0.172688 1.081 255 255 255
-0.142084 0.275227 1.083 255 255 255
-0.127508 0.28299 1.079 255 255 255
0.2355 0.198612 1.118 255 255 255
-0.469516 0.0573185 1.062 255 255 255
0.0512135 0.089553 0.678 255 255 255
0.130238 -0.187048 1.187 255 255 255
1.20308 -0.712587 2.519 255 255 255
-0.546772 0.151344 1.092 255 255 255
-0.342446 0.302267 1.098 255 255 255
-0.0819491 -0.00620773 0.995 255 255 255
-0.00431922 0.266377 1.022 255 255 255
0.0973819 0.258844 0.815 255 255 255
-0.53335 0.0641511 1.09 255 255 255
-0.288141 -0.109173 1.16 255 255 255
0.361575 0.00464953 1.319 255 255 255
-0.341989 0.135284 1.037 255 255 255
0.442992 -0.525516 1.616 255 255 255
0.261724 -0.166008 1.262 255 255 255
0.122037 -0.149522 1.096 255 255 255
0.0285796 -0.00595194 0.954 255 255 255
0.688456 0.0488954 2.121 255 255 255
-0.164508 -0.106476 1.025 0 0 0
-0.136175 -0.121149 1.051 255 255 255
-0.135872 0.256064 1.062 255 255 255
1.09035 -0.0764268 2.151 255 255 255
-0.0716234 -0.603769 1.719 255 255 255
-0.0942387 -0.0769073 0.988 255 255 255
-0.394769 0.250452 1.075 255 255 255
-0.075167 0.205079 0.991 255 255 255
-0.524852 0.479467 1.297 255 255 255
0.708222 -0.286335 2.204 0 0 0
0.157939 -0.00799998 1.017 255 255 255
-0.263776 0.345368 1.055 255 255 255
0.251501 -0.271623 1.316 255 255 255
-0.433627 -0.5356 1.599 255 255 255
0.113012 -0.0986143 1.03 255 255 255
0.026401 0.0464247 0.693 255 255 255
0.0288527 -0.380988 1.429 255 255 255
0.689699 0.525109 1.459 255 255 255
-0.227719 0.0796094 0.995 255 255 255
1.06622 -0.0381871 2.166 255 255 255
-0.0547569 0.140198 0.945 255 255 255
-0.0490541 -0.156085 1.092 255 255 255
0.906205 0.109704 1.917 255 255 255
0.608935 0.358384 1.705 255 255 255
0.233208 -0.248689 1.286 255 255 255
-0.631653 -0.264238 1.378 255 255 255
-0.348322 0.301166 1.094 255 255 255
0.85477 0.276396 1.748 255 255 255
0.0959551 0.00494628 0.96 255 255 255
-1.42934 -0.976016 2.818 255 255 255
-0.154494 0.305284 1.096 255 255 255
-0.337496 0.329756 1.06 255 255 255
0.133399 0.161664 0.927 255 255 255
0.377819 0.534106 1.484 255 255 255
-0.13825 -0.194993 1.154 255 255 255
-0.484071 -0.719526 1.899 255 255 255
0.24583 0.00202676 1.068 255 255 255
-0.288822 0.00701021 1.034 255 255 255
0.770418 0.332435 1.7 255 255 255
0.633481 0.0176464 2.099 255 255 255
0.126261 0.178835 0.93 255 255 255
0.422992 0.416969 1.62 255 255 255
-0.407022 -0.546125 1.607 255 255 255
-0.573322 0.189176 1.116 255 255 255
-0.181269 0.0469408 0.989 255 255 255
-0.00128512 -0.296975 1.324 255 255 255
-0.0545241 0.222545 0.997 255 255 255
0.821707 0.337928 1.686 255 255 255
0.907186 0.179183 1.893 255 255 255
-0.0226669 0.186555 0.954 255 255 255
0.702508 0.219022 1.865 255 255 255
-0.21803 0.229459 1.075 255 255 255
-0.521375 0.29547 1.106 255 255 255
-0.491013 0.236457 1.075 255 255 255
0.04536 0.185693 0.745 255 255 255
0.163338 -0.676953 1.779 255 255 255
0.121261 0.0319965 0.975 255 255 255
0.345796 0.522385 1.513 255 255 255
0.373597 -0.197926 1.339 255 255 255
-0.695004 -0.531707 1.677 255 255 255
-0.493445 0.325494 1.092 255 255 255
0.0429922 0.143452 0.746 255 255 255
-0.403518 -0.0172031 1.075 255 255 255
0.311643 0.461409 1.491 255 255 255
-0.0498237 0.0980498 0.939 255 255 255
-0.391832 0.18021 1.053 255 255 255
-0.693753 -0.399409 1.575 255 255 255
1.14732 -0.692308 2.55 255 255 255
0.191693 0.0886588 0.97 255 255 255
0.109264 -0.366 1.416 255 255 255
-0.29273 0.366976 1.073 255 255 255
0.966284 -0.891692 2.459 255 255 255
0.415722 -0.381078 1.456 255 255 255
-0.0766252 0.000267411 0.989 255 255 255
-0.298567 -0.361842 1.484 255 255 255
-0.309048 -0.0498243 1.1 255 255 255
0.688176 0.459221 1.524 255 255 255
0.301104 -0.101052 1.198 255 255 255
0.0565618 -0.286614 1.316 255 255 255
-0.312133 0.320163 1.092 255 255 255
-0.319585 0.15444 1.041 255 255 255
-0.552951 -0.161644 1.26 255 255 255
0.429825 -0.265596 1.409 255 255 255
-0.250083 0.270438 1.085 255 255 255
-0.182326 -0.0180181 1.022 255 255 255
-0.305848 -0.192314 1.273 255 255 255
1.0452 -0.112985 2.181 255 255 255
0.747606 0.35439 1.686 255 255 255
0.244497 -0.366008 1.425 255 255 255
0.677903 0.538986 1.439 255 255 255
1.18694 -0.675786 2.582 255 255 255
-0.602833 -0.138003 1.232 255 255 255
-0.263047 0.109301 1 255 255 255
0.494225 0.436071 1.603 255 255 255
-0.0552784 0.053042 0.954 255 255 255
0.22897 -0.0138573 1.087 255 255 255
-0.102999 -0.601654 1.729 255 255 255
-0.0793135 0.0410054 0.963 255 255 255
-0.505951 0.11246 1.077 255 255 255
0.998028 -0.732803 2.561 255 255 255
-0.00795565 -0.324729 1.359 255 255 255
-0.694736 -0.347352 1.484 255 255 255
-0.0825068 -0.110043 1.043 255 255 255
-0.336592 -0.614837 1.673 255 255 255
-0.33815 -0.388504 1.532 255 255 255
-0.243914 0.30865 1.089 255 255 255
0.0572926 -0.485317 1.571 255 255 255
0.888037 -0.0237543 2.136 255 255 255
0.216236 -0.272516 1.31 255 255 255
1.16115 -0.55307 2.638 255 255 255
-0.317079 0.0418546 1.022 255 255 255
0.821402 0.0415567 2.099 255 255 255
-0.0861125 -0.618536 1.729 255 255 255
-0.146795 -0.131551 1.066 255 255 255
-0.386209 -0.0614456 1.116 255 255 255
-0.18871 -0.371574 1.494 255 255 255
0.408848 -0.298074 1.4 255 255 255
0.12325 -0.285121 1.319 255 255 255
0.302541 -0.127201 1.244 255 255 255
-0.0316828 0.0633064 0.945 255 255 255
0.291095 0.17681 1.205 255 255 255
0.0659189 0.0142451 0.955 255 255 255
-0.316324 -0.399257 1.535 0 0 0
-0.421112 0.297542 1.062 255 255 255
-0.29132 -0.366672 1.484 255 255 255
-0.218322 0.424007 1.094 255 255 255
-0.615571 -0.182242 1.275 255 255 255
-0.475682 0.0247128 1.072 255 255 255
-0.383624 0.0751172 1.022 255 255 255
0.215201 -0.253858 1.291 255 255 255
-0.584924 -0.561097 1.659 255 255 255
-0.359371 0.091928 1.024 255 255 255
0.194931 0.394151 1.147 255 255 255
-0.513244 0.323681 1.104 255 255 255
0.954 0.195264 1.87 255 255 255
0.119364 0.118976 0.912 255 255 255
0.43281 -0.566855 1.668 255 255 255
-0.577432 0.250893 1.124 255 255 255
0.076458 -0.629905 1.714 255 255 255
-0.649874 -0.371053 1.532 255 255 255
-0.153728 0.317174 1.009 255 255 255
0.487641 0.323751 1.758 255 255 255
-0.132749 0.119485 0.964 255 255 255
-0.39879 -0.456392 1.595 255 255 255
-0.490099 -0.00320212 1.073 255 255 255
0.338137 -0.260854 1.372 255 255 255
0.214339 0.0207882 1.05 255 255 255
0.135845 0.187671 0.944 255 255 255
0.250506 0.138821 1.12 255 255 255
-0.177509 0.048403 0.986 255 255 255
0.177482 0.0855018 0.97 255 255 255
1.13748 -0.815068 2.519 255 255 255
1.27591 -0.681177 2.509 255 255 255
-0.366545 0.281072 1.106 255 255 255
0.316357 -0.610095 1.729 255 255 255
0.0409986 0.149899 0.754 255 255 255
0.425779 0.173899 1.591 0 0 0
-0.412628 -0.177393 1.27 255 255 255
0.0944341 -0.481662 1.551 255 255 255
-0.44581 -0.3097 1.422 255 255 255
0.539634 -0.497771 1.646 255 255 255
0.0767995 -0.392925 1.456 255 255 255
-0.427194 -0.18634 1.289 255 255 255
-0.0143709 0.301106 1.027 255 255 255
0.982985 -0.366782 2.402 255 255 255
-0.423304 -0.32586 1.432 255 255 255
-0.0659409 0.0977553 0.951 255 255 255
0.723524 -0.0351424 2.196 255 255 255
-0.603131 -0.0704955 1.145 255 255 255
0.523977 0.39794 1.673 255 255 255
-0.299083 0.290849 1.13 255 255 255
0.277527 0.509633 1.416 255 255 255
0.360909 -0.419801 1.484 255 255 255
0.49388 0.558883 1.442 255 255 255
0.00779204 -0.12353 1.087 255 255 255
0.034761 0.0577262 0.68 255 255 255
0.25143 0.119303 1.108 255 255 255
0.588824 0.267785 1.805 255 255 255
-0.119701 0.298599 1.072 255 255 255
-0.175211 -0.091022 1.039 255 255 255
0.546933 0.414333 1.62 255 255 255
0.466458 0.47594 1.571 255 255 255
-0.131138 0.218787 1.025 255 255 255
-0.425633 -0.498066 1.579 255 255 255
0.730018 0.448318 1.555 255 255 255
-0.064122 0.308472 0.947 255 255 255
0.454295 0.491326 1.547 255 255 255
0.764214 0.229927 1.831 255 255 255
0.457693 -0.510854 1.603 255 255 255
-0.469914 0.169174 1.059 255 255 255
-0.257967 0.0365045 1.012 255 255 255
0.114583 -0.164901 1.128 255 255 255
-0.455955 0.319863 1.079 255 255 255
-0.0238898 0.164105 0.941 255 255 255
-0.759482 -0.727931 1.972 255 255 255
-0.345555 -0.122785 1.182 255 255 255
0.0490062 0.0685897 0.678 255 255 255
-0.273959 -0.235752 1.319 255 255 255
0.801391 0.217026 1.848 255 255 255
1.22837 -0.785989 2.479 255 255 255
1.11698 -0.897053 2.519 255 255 255
0.541557 0.538452 1.463 255 255 255
0.454949 -0.608161 1.7 255 255 255
0.36375 -0.212891 1.351 255 255 255
-0.260902 -0.0893229 1.124 255 255 255
0.0658834 0.0509356 0.693 255 255 255
0.471305 0.55567 1.452 255 255 255
-0.476398 -0.760301 2.024 255 255 255
0.64489 0.0108921 2.114 255 255 255
0.540958 0.454962 1.587 255 255 255
-0.330168 -0.0315464 1.087 255 255 255
-0.142231 -0.012863 1.009 255 255 255
-0.00084348 0.318418 0.869 255 255 255
-0.658083 -0.28132 1.396 255 255 255
-0.435424 -0.368748 1.473 255 255 255
-0.0944419 -0.539895 1.677 255 255 255
0.768931 0.415174 1.583 255 255 255
1.23305 -0.69923 2.53 255 255 255
-0.224736 -0.365975 1.491 255 255 255
0.824355 -0.295924 2.43 255 255 255
0.506907 0.555378 1.439 255 255 255
-0.040041 -0.194312 1.139 255 255 255
-0.144095 0.326651 0.988 255 255 255
0.0822807 0.278346 0.81 255 255 255
0.7329 0.332478 1.729 255 255 255
-0.182547 0.228413 1.062 255 255 255
-0.272412 -0.259635 1.354 255 255 255
0.328336 0.485017 1.535 255 255 255
1.07634 -0.0275107 2.158 255 255 255
-0.0126898 -0.353255 1.393 255 255 255
0.800402 0.403847 1.579 255 255 255
0.0822615 0.309599 0.823 255 255 255
0.357972 -0.143716 1.283 255 255 255
0.724781 -0.0279059 2.189 255 255 255
0.722205 -0.152437 2.294 255 255 255
-0.70428 -0.476725 1.629 255 255 255
-0.554577 0.187142 1.104 255 255 255
0.409124 -0.726796 1.87 255 255 255
-0.339639 0.207637 1.089 255 255 255
-0.52343 -0.492593 1.603 255 255 255
-0.271159 0.356344 1.057 255 255 255
0.0204877 -0.0257232 0.939 255 255 255
0.652474 0.345521 1.71 255 255 255
0.683706 0.159927 1.959 255 255 255
-0.39879 -0.479753 1.595 255 255 255
-0.184593 0.0721037 0.981 255 255 255
-0.682577 -0.39483 1.567 255 255 255
-0.580161 0.0253122 1.098 255 255 255
-0.121333 0.171953 0.986 255 255 255
-0.124514 0.328671 0.961 255 255 255
-0.194693 -0.361842 1.484 255 255 255
-0.346525 -0.10235 1.147 255 255 255
0.107652 -0.23994 1.262 255 255 255
-0.0981457 -0.04183 0.995 255 255 255
-0.105581 0.257321 1.053 255 255 255
-0.488434 -0.470782 1.591 255 255 255
0.0987499 0.171779 0.764 0 0 0
-0.380103 -0.331169 1.445 255 255 255
-0.205169 0.41545 1.081 255 255 255
-0.169988 -0.0711016 1.07 255 255 255
-0.313513 -0.436742 1.571 255 255 255
0.110115 0.305847 0.831 255 255 255
-0.615257 -0.189649 1.283 255 255 255
0.301421 0.178277 1.215 0 0 0
0.660451 0.485807 1.484 255 255 255
0.47974 -0.337573 1.516 255 255 255
0.205078 -0.125667 1.173 255 255 255
-0.627628 -0.177393 1.27 255 255 255
1.07676 -0.708907 2.55 255 255 255
-0.174519 -0.101472 1.025 255 255 255
0.756974 -0.402692 2.253 0 0 0
-0.202704 0.330062 1.05 255 255 255
-0.278736 -0.250783 1.342 255 255 255
0.220975 0.0273863 1.041 255 255 255
0.694227 0.345521 1.71 255 255 255
-0.0793663 -0.579429 1.705 255 255 255
-0.114368 -0.125043 1.055 255 255 255
0.0690984 -0.0618051 0.978 255 255 255
0.127373 -0.131551 1.066 255 255 255
-0.158655 0.190742 1.009 255 255 255
0.156178 0.293793 0.975 255 255 255
0.645264 0.22231 1.893 255 255 255
0.614554 0.507542 1.484 255 255 255
-0.428751 -0.122088 1.194 255 255 255
-0.510048 -0.422837 1.539 255 255 255
0.651267 0.38405 1.637 255 255 255
0.226574 -0.371686 1.429 255 255 255
-0.0690369 0.141088 0.951 255 255 255
-0.547989 -0.0122108 1.098 0 0 0
-0.497769 -0.749459 1.978 255 255 255
-0.286763 -0.35916 1.473 255 255 255
-0.329494 -0.0242907 1.079 255 255 255
-0.364884 0.374611 1.085 255 255 255
0.125635 0.0160805 0.972 255 255 255
0.273946 -0.298828 1.342 255 255 255
-0.348799 -0.47555 1.616 255 255 255
0.970328 -0.800389 2.449 255 255 255
-0.437144 -0.738513 1.966 255 255 255
0.963552 -0.109034 2.173 255 255 255
-0.246135 0.214482 1.053 255 255 255
-0.587591 -0.239805 1.354 255 255 255
-0.377471 -0.0805787 1.156 255 255 255
0.431399 -0.521592 1.612 255 255 255
0.831646 0.130431 1.947 255 255 255
-0.134854 0.0244582 0.991 255 255 255
-0.509458 0.0265807 1.077 255 255 255
0.927769 0.0395373 1.997 255 255 255
-0.26927 0.0722322 1.005 255 255 255
0.0487676 0.0250975 0.954 255 255 255
-0.506425 -0.540895 1.607 255 255 255
0.506096 0.456391 1.583 255 255 255
0.335721 -0.101915 1.232 255 255 255
-0.253445 -0.247419 1.324 255 255 255
-0.665994 -0.457211 1.607 255 255 255
-0.137339 -0.0552481 1.034 255 255 255
-0.360867 -0.361343 1.502 255 255 255
-0.237476 0.307724 1.092 255 255 255
0.295926 0.163796 1.225 255 255 255
-0.440282 0.183114 1.05 255 255 255
0.307136 -0.115008 1.222 255 255 255
0.908781 -0.450727 2.499 255 255 255
0.579169 0.510991 1.48 255 255 255
0.370814 -0.466702 1.535 255 255 255
0.348407 -0.639306 1.763 255 255 255
1.08493 -0.150043 2.204 255 255 255
-0.600754 -0.549497 1.673 0 0 0
0.0748286 0.285369 0.815 255 255 255
0.777921 -0.197212 2.338 255 255 255
-0.224165 -0.194454 1.234 255 255 255
-0.190745 0.01172 1.005 255 255 255
0.637424 -0.425529 1.87 255 255 255
-0.195604 -0.22058 1.257 255 255 255
-0.478591 -0.173942 1.275 255 255 255
0.939141 -0.357716 2.42 255 255 255
-0.414256 0.132952 1.032 255 255 255
0.915505 -0.389221 2.42 255 255 255
-0.112219 -0.307254 1.39 255 255 255
-1.09409 -0.885131 2.43 255 255 255
0.097672 -0.171113 1.145 255 255 255
0.375058 -0.33512 1.393 255 255 255
-0.594955 -0.0546667 1.126 255 255 255
0.126532 -0.355791 1.403 255 255 255
-0.156644 0.335617 0.986 255 255 255
0.236895 0.212785 1.116 255 255 255
0.192728 0.410234 1.145 255 255 255
0.71354 0.474494 1.494 255 255 255
-0.287594 0.292169 1.114 255 255 255
0.164421 0.0239059 1.037 255 255 255
0.846021 0.0706452 2.051 255 255 255
-0.186663 0.0438546 0.992 255 255 255
0.325547 -0.415417 1.477 255 255 255
0.464867 0.461543 1.583 255 255 255
-0.663307 0.458885 1.275 255 255 255
-0.405559 -0.468193 1.591 255 255 255
0.115424 -0.0233188 0.966 255 255 255
-0.153442 0.200726 1.018 255 255 255
0.739199 0.337128 1.724 255 255 255
0.640314 -0.00284822 2.099 255 255 255
-0.263925 0.408859 1.106 255 255 255
-0.0391455 -0.391036 1.449 255 255 255
0.368422 0.393924 1.612 255 255 255
-0.130565 0.0306594 0.983 255 255 255
-0.268749 0.205261 1.041 255 255 255
0.0173514 0.0553666 0.692 255 255 255
-0.532862 -0.32819 1.432 255 255 255
0.078857 0.263851 0.802 255 255 255
0.0440653 0.103039 0.687 255 255 255
0.68234 0.540732 1.419 255 255 255
-0.123055 -0.600572 1.734 255 255 255
-0.00999658 0.159331 0.931 255 255 255
0.43074 -0.238588 1.412 255 255 255
-0.0753581 -0.250804 1.265 255 255 255
-0.136467 0.359896 0.991 255 255 255
-0.346208 0.158234 1.055 255 255 255
1.16579 -0.376933 2.392 255 255 255
-0.37298 0.0288848 1.034 255 255 255
-0.0613844 -0.152251 1.09 255 255 255
0.651669 0.267573 1.784 255 255 255
0.365816 0.497507 1.535 255 255 255
0.465712 0.561229 1.442 255 255 255
-0.188225 0.119262 0.975 255 255 255
-0.120595 0.0321606 0.98 255 255 255
0.403587 0.342601 1.682 255 255 255
0.34924 0.0343315 1.305 255 255 255
-0.306329 -0.399257 1.535 255 255 255
0.95283 -0.106275 2.189 255 255 255
-0.130223 -0.15537 1.087 255 255 255
-0.390443 -0.306215 1.406 255 255 255
-0.414177 -0.353308 1.449 255 255 255
0.227991 -0.150483 1.173 255 255 255
-0.501472 -0.445831 1.567 255 255 255
0.649856 0.461237 1.539 255 255 255
0.104793 -0.289663 1.33 255 255 255
0.0882447 0.153079 0.77 255 255 255
0.383375 0.47304 1.587 255 255 255
-1.22848 -0.905251 2.519 255 255 255
0.353613 0.530412 1.494 255 255 255
-0.154104 -0.671117 1.734 255 255 255
-0.187846 0.34932 1.007 255 255 255
-0.309013 -0.244894 1.322 255 255 255
0.422984 0.486166 1.571 255 255 255
-1.44512 -1.13765 3.055 255 255 255
-0.437763 -0.57833 1.624 0 0 0
-0.397509 -0.0427416 1.102 255 255 255
0.193634 -0.610793 1.739 255 255 255
0.956902 -0.294994 2.329 255 255 255
-0.0896854 -0.0400491 0.991 255 255 255
0.191141 -0.31146 1.359 255 255 255
-0.728052 -0.515201 1.659 255 255 255
0.023803 -0.46266 1.555 255 255 255
-0.289382 0.171246 1.03 255 255 255
0.340762 0.0863512 1.289 255 255 255
-0.270887 -0.447481 1.591 255 255 255
-0.0688586 -0.154873 1.096 255 255 255
-0.683879 -0.271648 1.393 255 255 255
1.07597 -0.716686 2.519 255 255 255
-0.699752 0.542158 1.393 255 255 255
-0.288 0.34766 1.062 255 255 255
0.0835051 -0.229519 1.239 255 255 255
0.943101 0.0269767 2.03 255 255 255
0.164855 0.401596 1.096 255 255 255
0.0682407 0.231431 0.785 255 255 255
-0.212201 0.422456 1.09 255 255 255
-1.52006 -1.11207 3.026 255 255 255
1.23547 -0.895318 2.469 255 255 255
0.421742 0.346267 1.7 255 255 255
0.642667 0.428054 1.583 255 255 255
0.465795 0.444277 1.595 255 255 255
0.885451 -0.101642 2.244 255 255 255
0.225281 -0.402781 1.466 255 255 255
0.0658715 -0.180115 1.143 255 255 255
-0.910565 -0.541314 1.734 255 255 255
0.0835746 0.143287 0.785 255 255 255
-0.0587071 -0.343555 1.409 255 255 255
-0.495901 -0.0677331 1.13 255 255 255
0.609657 0.427628 1.591 255 255 255
0.231294 0.428818 1.242 255 255 255
0.305235 -0.653793 1.779 255 255 255
0.174144 -0.0117326 1.055 255 255 255
-0.0516257 0.146194 0.944 255 255 255
-0.587363 0.188367 1.122 255 255 255
-0.0564152 -0.215016 1.171 255 255 255
-0.545925 0.250024 1.112 255 255 255
0.780314 -0.267941 2.392 255 255 255
0.179959 0.289407 1.039 255 255 255
-0.0553191 -0.523147 1.65 255 255 255
0.0526602 0.284798 0.821 255 255 255
-0.106517 0.216225 1.013 255 255 255
-0.575413 0.464124 1.278 255 255 255
0.540946 -0.327135 1.65 255 255 255
0.266677 -0.372466 1.432 255 255 255
0.541931 0.521973 1.477 255 255 255
-0.477328 0.0660838 1.064 255 255 255
0.00513748 -0.300917 1.313 255 255 255
-0.448456 -0.467016 1.587 255 255 255
0.215796 -0.144262 1.169 255 255 255
-0.657331 -0.29999 1.409 255 255 255
0.351555 -0.112433 1.26 255 255 255
-0.314112 -0.608222 1.655 255 255 255
0.181807 -0.114208 1.135 255 255 255
-0.564239 0.307222 1.116 255 255 255
0.0486479 0.251162 0.799 255 255 255
-0.296033 0.113344 1.007 255 255 255
-0.347363 0.427343 1.156 255 255 255
-0.573586 0.156884 1.106 255 255 255
-0.485942 -0.332774 1.452 255 255 255
0.0253741 0.313114 0.847 255 255 255
-0.510262 0.0545214 1.075 255 255 255
-0.507774 -0.516071 1.603 255 255 255
-0.523953 -0.0645655 1.139 255 255 255
-0.310872 -0.557188 1.624 255 255 255
-0.0690369 0.0884697 0.951 255 255 255
0.0175749 -0.559254 1.686 255 255 255
-0.187188 -0.0688198 1.089 255 255 255
0.14064 0.117662 0.925 255 255 255
-0.5352 -0.491208 1.607 255 255 255
-0.191792 0.105198 0.977 255 255 255
-0.0468663 0.306518 0.941 255 255 255
-0.426401 -0.222874 1.319 255 255 255
0.356045 0.530412 1.494 255 255 255
0.803764 -0.104314 2.303 255 255 255
-0.501512 0.0422757 1.075 255 255 255
1.09079 -0.437281 2.469 255 255 255
0.214182 0.0725197 1.009 255 255 255
0.352383 -0.316985 1.393 255 255 255
0.037366 0.167298 0.755 255 255 255
-0.490634 -0.79189 2.099 255 255 255
-0.231937 -0.0700205 1.108 255 255 255
0.183831 -0.393735 1.459 255 255 255
-0.139789 -0.373254 1.491 255 255 255
-0.0803248 0.293254 1.059 255 255 255
0.07897 0.0843642 0.699 255 255 255
-0.519134 -0.637963 1.691 255 255 255
-0.438559 0.367463 1.106 255 255 255
-0.741029 -0.562963 1.714 255 255 255
1.05239 -0.22097 2.196 255 255 255
-0.104624 0.19781 0.995 255 255 255
-0.309184 0.282159 1.147 255 255 255
-0.444421 -0.00663822 1.064 255 255 255
-0.518496 -0.141436 1.227 255 255 255
-0.294791 -0.208394 1.27 255 255 255
-0.581666 -0.161644 1.26 255 255 255
0.0144594 -0.0702377 1.057 255 255 255
0.185436 -0.448471 1.491 255 255 255
0.122456 -0.0944036 1.039 0 0 0
-0.15712 0.166038 0.989 255 255 255
0.216535 -0.10467 1.173 255 255 255
1.02269 -0.7955 2.509 255 255 255
0.00720299 0.0744028 0.691 0 0 0
0.608072 0.117944 2.004 255 255 255
0.200194 -0.011955 1.075 255 255 255
-0.0971585 0.154796 0.969 255 255 255
0.503306 0.434544 1.607 255 255 255
0.486597 0.343877 1.744 255 255 255
0.888629 0.217026 1.848 255 255 255
0.461567 0.390384 1.664 255 255 255
-0.00706287 -0.0366135 0.944 255 255 255
-0.537983 -0.189649 1.283 255 255 255
0.238624 -0.442886 1.505 255 255 255
-0.248317 0.303985 1.085 255 255 255
0.109389 -0.0738349 1.012 255 255 255
0.486981 -0.444692 1.563 255 255 255
0.784544 0.125688 1.972 255 255 255
0.29829 -0.197864 1.324 255 255 255
-0.303336 -0.385461 1.52 255 255 255
-0.0131814 -0.114204 1.066 255 255 255
0.142443 0.10505 0.947 255 255 255
0.469297 0.423829 1.616 255 255 255
0.000624971 0.207634 0.951 255 255 255
-0.230655 0.236891 1.085 255 255 255
1.19862 -0.524914 2.626 255 255 255
0.747151 0.468451 1.498 255 255 255
1.16313 -0.903354 2.469 255 255 255
0.0588575 0.157016 0.747 255 255 255
-0.440868 -0.559703 1.616 255 255 255
-0.514973 -0.284166 1.366 255 255 255
-0.391832 0.181924 1.053 255 255 255
0.0520306 0.216292 0.772 255 255 255
-0.717849 -0.384215 1.555 255 255 255
-0.851195 -0.586786 1.769 255 255 255
0.202367 -0.00666318 1.068 255 255 255
-0.584414 -0.590335 1.673 0 0 0
-0.0101362 0.189208 0.944 255 255 255
-0.499956 0.250553 1.083 255 255 255
0.380411 -0.329026 1.396 255 255 255
-0.308299 0.0630405 1.015 255 255 255
-0.599797 -0.434535 1.591 255 255 255
0.179902 0.057212 1.029 255 255 255
-0.290339 0.139979 1.01 255 255 255
0.652741 0.133379 1.991 255 255 255
-0.421149 -0.115772 1.189 255 255 255
0.45846 0.515828 1.487 255 255 255
0.10642 -0.187865 1.18 255 255 255
-0.360165 -0.314328 1.422 255 255 255
-1.35037 -1.13867 2.967 255 255 255
-1.3137 -1.14228 2.939 255 255 255
-0.280566 -0.127703 1.192 255 255 255
1.03946 -0.726794 2.54 255 255 255
-0.570303 -0.288534 1.387 255 255 255
-0.0382362 0.0453271 0.955 255 255 255
0.478568 0.430854 1.603 255 255 255
0.972396 -0.271895 2.294 255 255 255
-0.51702 -0.377093 1.487 255 255 255
0.555902 0.206908 1.893 255 255 255
-0.409966 0.283181 1.06 255 255 255
-1.29316 -1.09399 2.925 255 255 255
-0.108159 -0.310852 1.396 255 255 255
-0.475261 0.293932 1.087 255 255 255
0.289399 -0.191946 1.313 255 255 255
-0.199936 0.189131 1.027 255 255 255
-0.359371 0.070265 1.024 255 255 255
0.933064 0.067063 1.947 255 255 255
0.342447 -0.452247 1.52 255 255 255
-0.546808 -0.203909 1.294 255 255 255
-0.41125 -0.481295 1.583 0 0 0
-0.214012 0.298676 1.118 255 255 255
0.21499 0.216266 1.079 255 255 255
-1.03635 -0.949518 2.561 255 255 255
0.781909 0.398553 1.599 255 255 255
-0.00919164 -0.0522704 1.009 255 255 255
0.397146 0.409685 1.633 255 255 255
0.889999 0.280633 1.739 255 255 255
-0.644449 -0.28132 1.396 255 255 255
-0.311281 -0.0981009 1.141 255 255 255
1.20091 -0.886369 2.489 255 255 255
-0.336313 -0.394261 1.535 255 255 255
-0.486902 0.113046 1.066 255 255 255
0.414978 -0.277849 1.39 255 255 255
0.0410659 0.0396582 0.693 255 255 255
0.152604 -0.109177 1.085 0 0 0
0.730124 0.0550356 2.092 255 255 255
-0.29817 -0.431629 1.571 255 255 255
0.20637 -0.330068 1.372 255 255 255
0.758807 0.338962 1.705 255 255 255
0.701381 0.474494 1.494 255 255 255
0.56276 0.493943 1.494 255 255 255
-0.484058 0.247872 1.079 255 255 255
-0.20229 0.344544 1.022 255 255 255
-0.321355 -0.524353 1.637 255 255 255
-0.344323 0.214332 1.087 255 255 255
-0.615503 -0.263087 1.372 255 255 255
0.373092 -0.672853 1.799 255 255 255
-0.260897 0.157499 1.017 255 255 255
0.876665 0.190898 1.887 255 255 255
0.164954 -0.203324 1.215 255 255 255
-0.217286 -0.00474995 1.03 255 255 255
-0.294209 0.0480325 1.012 255 255 255
-0.565563 -0.437854 1.575 255 255 255
-0.208552 0.302315 1.118 255 255 255
0.17237 -0.505769 1.571 255 255 255
0.0709036 0.0410802 0.698 255 255 255
0.363922 0.487527 1.559 255 255 255
0.245777 -0.359848 1.419 255 255 255
0.258655 0.450241 1.342 255 255 255
-0.205966 -0.181253 1.187 255 255 255
0.177898 -0.0964674 1.122 255 255 255
0.0724645 -0.559254 1.686 0 0 0
-0.0346666 0.306523 1.034 255 255 255
-0.460267 0.404769 1.156 255 255 255
-0.462609 0.028044 1.066 255 255 255
1.18915 -0.365255 2.392 255 255 255
0.672697 0.33615 1.719 255 255 255
0.47911 0.512362 1.491 255 255 255
-0.14058 0.282798 1.085 255 255 255
0.386534 0.502698 1.528 255 255 255
0.28649 0.0980852 1.178 255 255 255
-0.672435 -0.218239 1.33 255 255 255
-0.421112 0.00720004 1.062 255 255 255
1.1733 -0.936421 2.44 255 255 255
0.0227978 0.172343 0.761 255 255 255
-0.423332 0.321277 1.072 255 255 255
-0.182968 0.319876 1.085 255 255 255
-0.096051 -0.0898573 1.007 255 255 255
0.0702992 -0.13347 1.096 255 255 255
-0.354563 -0.172169 1.262 0 0 0
-0.540835 0.484548 1.305 255 255 255
-0.263665 -0.00649473 1.041 255 255 255
-0.0473145 0.0590034 0.95 255 255 255
-0.684429 -0.559011 1.719 255 255 255
-0.0304635 0.043773 0.955 255 255 255
0.0697144 -0.18043 1.145 255 255 255
0.0409442 0.172982 0.753 255 255 255
-0.4788 0.308084 1.087 255 255 255
-0.116206 0.147064 0.97 255 255 255
0.312351 -0.317626 1.357 255 255 255
-0.269439 0.17919 1.018 255 255 255
-0.0280991 0.217377 0.981 255 255 255
0.0582679 -0.0262163 0.957 255 255 255
-0.124225 0.294069 1.081 255 255 255
0.00950669 0.153111 0.912 255 255 255
-0.0226854 0.292179 1.025 255 255 255
0.654923 0.457261 1.551 255 255 255
-0.0129959 -0.080101 1.051 255 255 255
0.591761 0.0201089 2.004 255 255 255
0.297217 0.502705 1.456 255 255 255
-0.574578 0.255924 1.122 255 255 255
-0.375701 -0.176431 1.278 255 255 255
-1.32477 -1.12369 2.953 255 255 255
0.52697 0.137349 1.911 0 0 0
0.594335 0.245544 1.859 255 255 255
-0.0815402 -0.201628 1.149 255 255 255
0.153181 0.127104 0.928 255 255 255
0.772288 0.459612 1.509 255 255 255
0.228725 -0.0832445 1.167 255 255 255
-0.361391 0.0436455 1.025 255 255 255
0.780791 -0.68509 2.128 255 255 255
-0.119945 0.302543 1.015 255 255 255
0.251424 -0.309931 1.362 255 255 255
-0.291987 -0.158052 1.232 255 255 255
0.310855 -0.0971531 1.198 255 255 255
0.637842 0.190813 1.917 255 255 255
0.299622 -0.0261592 1.162 255 255 255
0.319767 -0.230479 1.351 255 255 255
-0.43318 -0.551355 1.607 255 255 255
0.788564 0.205705 1.882 255 255 255
-0.0753082 0.0885628 0.952 255 255 255
0.516554 0.494049 1.487 255 255 255
0.974679 0.104112 1.929 255 255 255
0.939956 -0.302974 2.392 255 255 255
-0.537745 0.000292287 1.081 255 255 255
-0.732002 -0.523425 1.668 255 255 255
0.808891 0.309969 1.729 255 255 255
0.484514 0.483774 1.547 255 255 255
-0.0808865 -0.110148 1.044 255 255 255
0.606535 0.491512 1.494 255 255 255
0.134471 0.269403 0.924 0 0 0
-0.0268674 0.152897 0.938 255 255 255
-0.000916277 0.0417326 0.944 255 255 255
-0.5052 0.174087 1.068 255 255 255
0.787551 0.408986 1.579 255 255 255
-0.0306549 -0.0216342 0.961 255 255 255
0.653619 0.303725 1.758 255 255 255
-0.320823 0.447368 1.169 255 255 255
0.758222 0.483246 1.491 255 255 255
-0.2477 -0.0921538 1.114 255 255 255
0.091912 0.150305 0.802 255 255 255
-0.0753081 0.174257 0.972 255 255 255
-0.189577 -0.333521 1.445 255 255 255
1.17853 -0.600154 2.582 255 255 255
0.401425 -0.641482 1.769 255 255 255
-0.335306 0.350046 1.064 255 255 255
1.03214 -0.260696 2.294 255 255 255
-0.497986 -0.103956 1.165 255 255 255
1.07803 -0.649127 2.593 255 255 255
-0.327304 0.153186 1.044 255 255 255
-0.613061 -0.205643 1.305 255 255 255
0.662279 0.256036 1.805 255 255 255
0.353489 0.0725574 1.305 255 255 255
0.429825 -0.270182 1.409 255 255 255
-0.0793387 0.262419 1.046 255 255 255
1.01031 -0.419503 2.459 255 255 255
-0.290982 0.0284378 1.018 255 255 255
0.501072 0.538452 1.463 255 255 255
-0.156927 -0.106995 1.03 255 255 255
-0.200325 0.340206 1.029 255 255 255
-0.21782 0.330542 1.057 255 255 255
0.262148 0.0378887 1.1 255 255 255
-0.196563 0.106787 0.977 255 255 255
-0.337386 -0.435291 1.575 255 255 255
0.265771 -0.628177 1.748 255 255 255
0.367906 0.380454 1.633 255 255 255
-0.0590187 -0.219515 1.185 255 255 255
0.936419 -0.259177 2.383 255 255 255
0.930187 -0.0969418 2.22 255 255 255
0.691633 0.130139 1.991 255 255 255
-0.234561 -0.516754 1.664 255 255 255
-0.321612 -0.209707 1.278 255 255 255
-0.836752 -0.435856 1.655 255 255 255
0.0948394 -0.382107 1.442 255 255 255
0.660671 0.213069 1.893 255 255 255
-0.0504039 -0.0619315 0.98 255 255 255
0.660206 0.378125 1.646 255 255 255
-0.458269 -0.316538 1.432 255 255 255
0.166052 -0.153804 1.141 255 255 255
-0.39691 0.200761 1.062 255 255 255
0.0906288 0.29863 0.826 255 255 255
0.189261 -0.0957937 1.158 255 255 255
0.330762 -0.164545 1.316 255 255 255
0.109812 0.0239893 0.972 255 255 255
1.07848 -0.0235096 2.114 0 0 0
-0.0283933 -0.0920732 1.051 255 255 255
-0.0854061 0.0424841 0.961 255 255 255
0.342962 -0.388678 1.449 255 255 255
-0.302786 0.420319 1.137 255 255 255
0.994304 -0.851676 2.459 255 255 255
-0.321355 -0.49505 1.637 255 255 255
-0.572705 0.073288 1.094 255 255 255
-0.337762 -0.0576062 1.112 255 255 255
1.02035 -0.112985 2.181 255 255 255
-0.55867 -0.0963727 1.165 0 0 0
-0.239583 0.269444 1.11 255 255 255
-0.879174 -0.590103 1.779 255 255 255
-0.0927227 -0.145986 1.083 255 255 255
0.705771 0.280507 1.774 255 255 255
-0.34673 0.37422 1.089 255 255 255
0.810224 0.109642 1.972 255 255 255
1.02614 -0.413812 2.449 255 255 255
1.01697 -0.181081 2.189 255 255 255
0.156852 0.284616 1.01 255 255 255
1.06137 -0.25237 2.253 255 255 255
-0.215599 0.000276334 1.022 255 255 255
-0.00109876 -0.18575 1.132 255 255 255
1.07514 -0.0201359 2.121 0 0 0
-0.481617 0.0953394 1.062 255 255 255
0.957058 0.184267 1.882 255 255 255
0.95204 -0.139788 2.212 255 255 255
1.10148 -0.784662 2.54 255 255 255
1.13072 -0.696458 2.55 255 255 255
-0.0912471 -0.228723 1.203 255 255 255
-0.164949 -0.123911 1.06 255 255 255
-0.155763 0.311388 1.068 255 255 255
0.145541 0.2449 0.989 255 255 255
-0.392576 0.333351 1.055 255 255 255
0.216166 -0.0930579 1.171 255 255 255
-0.151735 0.276752 1.089 255 255 255
0.660708 0.323082 1.739 255 255 255
0.39134 0.493844 1.547 255 255 255
0.0146186 0.0235697 0.955 255 255 255
-0.472725 -0.235261 1.366 255 255 255
0.207583 0.294009 1.068 255 255 255
0.457246 0.388608 1.668 255 255 255
-0.560605 0.289061 1.116 255 255 255
0.0378448 0.111185 0.696 255 255 255
-0.604519 0.397415 1.162 255 255 255
0.430095 0.213558 1.637 255 255 255
-0.412468 0.273346 1.062 255 255 255
-0.471285 0.125189 1.066 255 255 255
-0.160573 -0.197466 1.18 255 255 255
-0.0927783 -0.416518 1.516 255 255 255
-0.00520673 -0.232232 1.232 255 255 255
0.0627055 -0.249138 1.267 255 255 255
0.298147 -0.212224 1.333 255 255 255
-0.0666342 0.161338 0.961 255 255 255
0.00670651 -0.646641 1.714 255 255 255
1.04446 -0.664593 2.604 255 255 255
-0.484338 0.0524284 1.068 255 255 255
-0.182929 0.359152 1.007 255 255 255
-0.227037 0.336671 1.044 255 255 255
-0.111355 0.312485 0.969 255 255 255
-0.897272 -0.507178 1.714 255 255 255
0.176661 0.132634 0.957 255 255 255
0.704381 -0.0242547 2.181 255 255 255
0.161775 -0.56311 1.673 255 255 255
-0.251401 0.101064 0.999 255 255 255
0.685585 -0.0564037 2.189 255 255 255
0.056231 -0.132167 1.1 255 255 255
0.173194 0.0273336 1.039 255 255 255
-0.0262001 0.30593 1.032 255 255 255
0.732032 -0.762571 2.004 255 255 255
0.182069 0.188163 1.004 255 255 255
0.983598 -0.200967 2.294 255 255 255
0.746972 0.321224 1.729 255 255 255
0.918854 -0.0342942 2.143 255 255 255
0.0634208 0.0354747 0.941 255 255 255
0.764056 0.202643 1.882 255 255 255
0.464548 -0.264069 1.491 255 255 255
-0.155423 -0.148704 1.09 255 255 255
-0.191249 -0.215926 1.242 255 255 255
0.323143 -0.413014 1.477 255 255 255
0.187684 -0.190413 1.196 255 255 255
-0.248149 0.110818 0.999 255 255 255
-0.0698428 0.3203 0.941 255 255 255
-0.272271 0.119542 1.004 255 255 255
1.1854 -0.723196 2.499 255 255 255
-0.510521 0.333855 1.102 255 255 255
-0.13118 0.119485 0.964 255 255 255
0.0698329 -0.396109 1.459 255 255 255
0.356531 -0.400395 1.466 255 255 255
-0.647131 -0.580275 1.724 255 255 255
-0.115008 0.106492 0.96 255 255 255
0.989862 -0.757679 2.519 255 255 255
0.544678 -0.457755 1.637 255 255 255
0.264278 -0.106616 1.217 255 255 255
-0.25815 -0.089005 1.12 255 255 255
-0.218738 0.0970289 0.991 255 255 255
-0.349711 0.0636616 1.025 255 255 255
-0.0976159 -0.238633 1.234 255 255 255
0.20623 0.291077 1.07 255 255 255
0.157765 0.29538 0.975 255 255 255
-0.084278 0.157461 0.966 255 255 255
-0.38074 0.301524 1.07 255 255 255
-0.306928 0.147349 1.027 255 255 255
-0.450462 0.0263092 1.066 255 255 255
-0.398269 0.266196 1.075 255 255 255
0.936714 -0.0272302 2.136 255 255 255
0.0161493 -0.0649544 1.055 255 255 255
0.156017 0.0915397 0.984 255 255 255
0.6514 -0.394431 1.911 255 255 255
-0.314631 -0.196765 1.275 255 255 255
0.465679 -0.180373 1.543 255 255 255
0.0229504 0.0507886 0.691 255 255 255
-0.491387 0.0107568 1.072 255 255 255
-0.0352469 -0.659716 1.719 255 255 255
-0.477413 -0.276471 1.406 255 255 255
-0.185837 0.348626 1.005 255 255 255
-0.558656 0.522451 1.348 255 255 255
-0.737915 -0.584331 1.753 255 255 255
