ply
format ascii 1.0
comment Created by Open3D
element vertex 1303
property double x
property double y
property double z
property uchar red
property uchar green
property uchar blue
end_header
0.16023 0.412533 1.439 255 255 255
0.799752 0.348903 1.686 255 255 255
-0.816409 -0.34483 1.947 255 255 255
-0.171738 0.197561 2.42 255 255 255
-0.607065 0.590941 2.212 255 255 255
-0.656294 0.38297 2.196 255 255 255
1.2252 -0.367998 2.982 255 255 255
1.15676 -0.238574 2.884 255 255 255
0.846576 -0.0477207 2.982 255 255 255
-0.0586964 -0.597594 2.312 255 255 255
-0.570955 -0.739986 1.953 255 255 255
-0.777388 -0.120481 2.01 255 255 255
0.200196 -0.491705 2.44 255 255 255
1.19318 -0.740527 2.939 255 255 255
0.064491 0.189042 2.572 255 255 255
0.620151 0.377408 2.967 255 255 255
-0.579756 0.538591 2.204 255 255 255
-0.714778 0.310505 2.189 255 255 255
-0.93857 0.243539 1.991 255 255 255
-0.333437 -0.0619383 2.261 255 255 255
0.188469 0.467432 1.201 255 255 255
0.856007 0.292107 3.086 255 255 255
-0.0449156 0.458361 2.604 255 255 255
-0.907974 -0.417114 1.887 255 255 255
1.3671 -0.883414 2.953 255 255 255
1.414 -1.03191 2.911 255 255 255
0.681741 0.33567 3.026 255 255 255
-0.857922 -0.567035 1.865 255 255 255
0.713363 -0.167394 2.953 255 255 255
0.177606 0.426566 1.357 255 255 255
-0.624659 -0.226719 2.024 255 255 255
-0.940013 0.74508 2.158 255 255 255
-0.854615 -0.377692 1.905 255 255 255
-0.470134 -0.395661 2.099 255 255 255
0.277081 0.551059 2.818 255 255 255
-0.110927 -0.317345 2.383 255 255 255
-0.404104 0.156861 2.286 255 255 255
-0.734389 -0.252183 1.991 255 255 255
-0.22644 -0.219565 2.374 255 255 255
-0.86598 -0.156236 1.966 255 255 255
-0.781059 0.430954 2.099 255 255 255
0.719438 -0.517581 2.844 255 255 255
0.636614 0.394702 1.289 255 255 255
-0.45712 -0.585854 2.071 255 255 255
0.0421518 -0.303109 2.489 255 255 255
0.447405 -0.134675 2.684 255 255 255
-0.900244 0.103538 1.978 255 255 255
0.80998 -0.936648 2.743 255 255 255
0.624716 -0.841316 2.695 255 255 255
0.424656 0.273463 2.793 255 255 255
-0.350331 -0.177056 2.228 255 255 255
-0.426725 -0.420517 2.121 255 255 255
-0.18075 -0.297956 2.383 255 255 255
0.915698 -0.214428 2.939 255 255 255
-0.613164 -0.147844 2.121 255 255 255
1.11761 0.193934 2.967 255 255 255
-0.577921 -0.387744 2.057 255 255 255
0.773258 -0.170567 2.925 255 255 255
0.142575 0.443938 1.262 255 255 255
-1.0301 0.480867 2.064 255 255 255
-0.106931 0.489398 1.473 255 255 255
-0.0492513 -0.437141 2.402 255 255 255
0.265523 -0.700334 2.42 255 255 255
0.00966066 -0.107815 2.469 255 255 255
0.377999 0.436414 2.818 255 255 255
-0.125518 0.431941 1.524 255 255 255
-0.921003 -0.423841 1.876 255 255 255
1.12464 -0.706616 2.898 255 255 255
0.797064 -0.341925 2.925 255 255 255
-0.00385608 0.439923 1.484 255 255 255
-0.362124 0.0418478 2.303 255 255 255
0.0539647 0.488796 1.305 255 255 255
1.36051 -0.235016 2.898 255 255 255
1.14176 -0.848976 2.967 255 255 255
-0.0885543 0.295826 2.519 255 255 255
1.18014 -0.508995 3.133 255 255 255
-0.239568 0.314659 1.463 255 255 255
-0.0215443 -0.549715 2.365 255 255 255
-0.00359624 0.48235 1.384 255 255 255
0.814735 0.0205154 3.026 255 255 255
-0.125983 0.609238 2.615 255 255 255
0.739754 -0.990326 2.731 255 255 255
0.202577 -0.384648 2.519 255 255 255
0.976231 0.558805 3.117 255 255 255
0.399157 0.409936 1.406 255 255 255
0.067765 -0.622164 2.392 255 255 255
0.485839 0.046405 2.805 255 255 255
0.924742 0.451804 3.149 255 255 255
-0.518918 -0.0246884 2.22 255 255 255
-0.990172 0.356462 2.044 255 255 255
-1.00662 0.658537 2.128 255 255 255
0.386289 0.425636 1.227 255 255 255
-0.541007 -0.148889 2.136 255 255 255
-0.241528 -0.474363 2.228 255 255 255
-1.0456 -0.0802195 1.985 255 255 255
0.496634 0.395045 1.378 255 255 255
0.647788 -0.113991 2.939 255 255 255
1.38083 -0.226596 2.911 255 255 255
0.238929 0.409568 1.283 255 255 255
1.12142 -0.907922 2.939 255 255 255
0.476067 -0.602795 2.649 255 255 255
0.126213 -0.45737 2.469 255 255 255
-0.639344 0.140597 2.151 255 255 255
-0.907332 -0.362192 1.905 255 255 255
-0.713489 0.415133 2.196 255 255 255
-0.0975404 -0.776662 2.253 255 255 255
-0.725775 -0.429842 1.959 255 255 255
1.25133 0.335559 2.638 255 255 255
0.949427 -0.470443 2.925 255 255 255
-0.917406 0.513157 2.114 255 255 255
-0.288624 -0.819807 2.173 255 255 255
0.627021 0.42461 1.278 255 255 255
-0.177113 -0.42719 2.286 255 255 255
-0.326601 -0.637966 2.121 255 255 255
-0.40333 -0.585752 2.107 255 255 255
-0.833238 0.646785 2.269 255 255 255
-0.836346 0.327385 2.092 255 255 255
1.50635 0.104711 3.04 255 255 255
1.26298 -0.00903041 3.026 255 255 255
-0.715568 -0.597187 1.923 255 255 255
0.460782 0.420908 1.339 255 255 255
-0.764139 0.0559827 2.128 255 255 255
0.823922 -0.157783 2.953 255 255 255
-0.487461 0.597085 2.071 255 255 255
0.617148 0.380921 1.682 255 255 255
0.363154 -0.125355 2.582 255 255 255
-0.565859 -0.624784 1.991 255 255 255
-0.790271 0.369707 2.181 255 255 255
-0.751357 -0.0790061 2.037 255 255 255
-0.423429 -0.0929928 2.212 255 255 255
-0.260747 -0.405551 2.269 255 255 255
0.311507 -0.463894 2.572 255 255 255
-0.932431 -0.393796 1.893 255 255 255
1.10325 0.217293 2.831 255 255 255
-0.525925 0.545612 2.189 255 255 255
-0.00609853 -0.602821 2.347 255 255 255
1.1183 -0.202053 3.117 255 255 255
-0.572581 0.190687 2.204 255 255 255
-0.337013 -0.438559 2.212 255 255 255
-0.802855 0.343661 2.196 255 255 255
0.047933 -0.60203 2.374 255 255 255
0.531287 0.611488 2.78 255 255 255
-0.936937 0.343157 2.044 255 255 255
-0.204996 0.344959 2.489 255 255 255
0.67911 0.377011 1.714 255 255 255
-0.932419 -0.628626 1.815 255 255 255
-0.184794 0.309897 1.463 255 255 255
-0.431152 -0.351644 2.143 255 255 255
1.29918 -1.09804 2.898 255 255 255
0.57025 -0.88815 2.626 255 255 255
0.931138 0.258285 3.102 255 255 255
0.739754 -0.99477 2.731 255 255 255
-0.160979 0.414652 1.463 255 255 255
1.20054 -0.0297434 3.133 255 255 255
0.0842662 0.439558 1.384 255 255 255
-0.601409 -0.675313 1.959 255 255 255
1.22205 -0.526968 3.149 255 255 255
0.714586 0.277858 3.04 255 255 255
1.07976 0.512735 2.996 255 255 255
-0.900244 0.0584742 1.978 255 255 255
-0.245105 -0.363648 2.261 255 255 255
1.46001 -0.348807 3.026 255 255 255
0.191471 0.138662 2.649 255 255 255
-1.24962 0.80978 2.402 255 255 255
-0.0874996 0.154589 2.489 255 255 255
1.22717 -0.562839 3.149 255 255 255
-0.928574 0.848401 2.189 255 255 255
-0.435392 0.254471 2.294 255 255 255
-0.819495 0.0300863 2.017 255 255 255
-0.0601906 -0.826055 2.228 255 255 255
0.915674 -1.00826 2.793 255 255 255
-0.583245 -0.716488 1.941 255 255 255
0.499695 -0.434797 2.731 255 255 255
1.30554 -0.586301 3.165 255 255 255
-1.0555 -0.025624 2.01 255 255 255
-0.0489467 0.536598 2.593 255 255 255
1.52404 -0.875707 3.026 255 255 255
1.01561 -0.920986 2.818 255 255 255
-0.407572 -0.288447 2.166 255 255 255
-0.60783 0.75112 2.228 255 255 255
-0.307438 -0.464356 2.181 255 255 255
-0.26221 -0.00711152 2.383 255 255 255
-0.0807043 0.210658 2.53 255 255 255
-0.534341 -0.189044 2.044 255 255 255
-0.409027 -0.244178 2.212 255 255 255
0.614616 0.396177 1.52 255 255 255
0.66085 -0.372399 2.831 255 255 255
0.63414 -0.676232 2.755 255 255 255
-0.884257 0.178937 2.03 255 255 255
0.183253 0.244094 2.719 255 255 255
0.939619 -0.491825 2.939 255 255 255
-0.401252 -0.787771 2.044 255 255 255
0.906974 -0.38766 2.911 255 255 255
-0.908144 0.19092 2.017 255 255 255
1.18706 0.15195 2.996 255 255 255
-0.485645 0.347964 2.32 255 255 255
0.13287 -0.179686 2.519 255 255 255
0.960567 -0.97143 2.818 255 255 255
-0.918159 -0.201628 1.941 255 255 255
-0.92865 -0.0431559 1.917 255 255 255
1.34787 -0.619111 2.953 255 255 255
1.47728 -0.881165 3.011 255 255 255
1.03551 -0.477198 2.967 255 255 255
0.955541 -0.855434 2.844 255 255 255
0.831357 -0.722528 2.831 255 255 255
0.454271 0.386627 1.372 255 255 255
0.486034 -0.0852038 2.78 255 255 255
0.177532 -0.30066 2.572 255 255 255
0.313104 0.421913 1.222 255 255 255
0.925928 -0.463454 2.911 255 255 255
0.539154 -0.658805 2.684 255 255 255
1.27752 0.254055 2.684 255 255 255
1.22401 0.0159827 3.102 255 255 255
1.50434 -0.885555 3.026 255 255 255
-0.59719 0.559861 2.189 255 255 255
-0.987178 0.119632 1.978 255 255 255
-0.44199 -0.311091 2.128 255 255 255
-0.115149 -0.672842 2.312 255 255 255
-0.361126 -0.348035 2.121 255 255 255
1.27096 -0.965107 2.953 255 255 255
1.09547 0.411918 2.871 255 255 255
-0.314063 -0.0972912 2.228 255 255 255
-0.493412 0.301944 2.286 255 255 255
1.13608 0.000860096 3.181 255 255 255
0.0384063 -0.281046 2.509 255 255 255
-0.82898 -0.710022 1.882 255 255 255
0.124731 -0.725975 2.44 255 255 255
0.0690619 0.451062 1.351 255 255 255
1.35175 0.0158229 3.071 255 255 255
-0.519945 -0.251391 2.121 255 255 255
-0.636697 -0.284027 2.01 255 255 255
-0.489743 0.137233 2.269 255 255 255
-0.614582 -0.130155 2.114 255 255 255
-0.609391 -0.532454 1.985 255 255 255
0.248837 -0.740888 2.411 255 255 255
-0.179795 0.587234 2.593 255 255 255
0.486704 -0.579326 2.66 255 255 255
1.05983 0.489604 2.731 255 255 255
0.936187 0.258285 3.102 255 255 255
-0.10269 0.659071 2.286 255 255 255
1.07001 -0.530617 2.996 255 255 255
-0.341724 -0.541978 2.151 255 255 255
0.0767216 0.12572 2.561 255 255 255
-0.960674 -0.315977 1.87 255 255 255
0.141421 0.456178 1.234 255 255 255
0.219041 0.611488 2.78 255 255 255
0.415753 0.391083 1.633 255 255 255
-0.31122 0.37199 2.402 255 255 255
-0.617501 -0.065466 2.136 255 255 255
1.21972 -1.0935 2.911 255 255 255
-0.90113 -0.290891 1.905 255 255 255
0.00331779 0.446977 1.452 255 255 255
0.367574 0.415525 1.357 255 255 255
0.279866 0.401795 1.477 255 255 255
-0.880374 0.303242 2.044 255 255 255
1.24756 0.215002 2.743 255 255 255
-0.89906 0.857801 2.204 255 255 255
-0.581226 0.515194 2.196 255 255 255
0.572971 0.468329 1.229 255 255 255
1.26403 -0.0671314 2.982 255 255 255
-0.767207 0.515206 2.166 255 255 255
-0.522658 0.120682 2.236 255 255 255
0.271484 -0.40183 2.55 255 255 255
-0.806527 0.376343 2.158 255 255 255
-0.206757 0.571652 2.561 255 255 255
-0.562964 -0.267762 2.114 255 255 255
0.341422 0.447282 1.189 255 255 255
0.970385 0.549573 3.181 255 255 255
1.07836 0.230365 2.939 255 255 255
-0.629815 -0.187749 2.03 255 255 255
-0.748689 -0.0530025 2.057 255 255 255
0.956592 -1.08099 2.793 255 255 255
-0.934687 -0.0589378 1.923 255 255 255
0.529375 -0.0817827 2.818 255 255 255
0.445856 0.432448 1.308 255 255 255
-0.605925 -0.682779 1.953 255 255 255
1.09695 0.398861 2.78 255 255 255
0.851846 0.595536 3.071 255 255 255
-0.0915424 0.598201 2.604 255 255 255
0.200919 -0.165298 2.55 255 255 255
-0.843729 0.397542 2.085 255 255 255
-0.154886 0.400706 1.473 255 255 255
-0.723287 0.836446 2.356 255 255 255
-0.463219 0.586828 2.024 255 255 255
1.41998 -0.253893 2.953 255 255 255
-0.89566 0.74096 2.136 255 255 255
-0.451539 -0.578178 2.092 255 255 255
-0.334626 0.400052 2.43 255 255 255
-0.0541804 0.475015 1.473 255 255 255
-0.154176 -0.0227087 2.392 255 255 255
1.24127 -1.08805 2.884 255 255 255
0.426084 -0.362891 2.66 255 255 255
0.644702 -0.0896479 2.925 255 255 255
1.07525 0.262153 2.818 255 255 255
1.18075 -0.246872 2.818 255 255 255
-0.903631 0.588359 2.189 255 255 255
1.03681 -0.179081 3.071 255 255 255
-0.792045 0.712371 2.278 255 255 255
-0.352756 0.386011 2.392 255 255 255
0.379619 -0.467212 2.638 255 255 255
1.18917 0.357277 2.672 255 255 255
-0.364495 -0.218189 2.204 255 255 255
1.31223 -0.018879 3.026 255 255 255
0.52469 0.46013 1.267 255 255 255
-0.799119 -0.248129 1.959 255 255 255
-0.626402 0.480627 2.269 255 255 255
0.65304 0.388272 1.655 255 255 255
0.262346 0.420291 1.265 255 255 255
-0.0403331 0.366251 2.582 255 255 255
0.578313 0.453944 1.267 255 255 255
-0.897123 -0.346838 1.923 255 255 255
1.52448 0.0418471 3.149 255 255 255
-0.627479 -0.700694 1.941 255 255 255
1.04559 -0.542695 2.982 255 255 255
0.236178 -0.851479 2.402 255 255 255
-0.268195 -0.580482 2.151 255 255 255
-0.261064 -0.174384 2.338 255 255 255
0.770404 0.0796069 3.026 255 255 255
1.35674 0.000830354 3.071 255 255 255
0.224877 0.402572 1.336 255 255 255
-0.247734 -0.118217 2.356 255 255 255
-1.14916 0.552017 2.244 255 255 255
0.199237 -0.306031 2.582 255 255 255
-0.446217 -0.422987 2.099 255 255 255
-0.961713 0.231588 1.972 255 255 255
0.367076 0.42142 1.47 255 255 255
0.0800772 -0.7095 2.411 255 255 255
0.54912 0.21772 2.898 255 255 255
0.968129 -0.412475 2.953 255 255 255
0.716522 0.360367 1.409 255 255 255
0.513849 0.380816 1.452 255 255 255
0.292416 0.431533 1.244 255 255 255
-0.658659 0.623892 2.253 255 255 255
-0.918936 0.808292 2.158 255 255 255
1.31742 -0.862973 2.982 255 255 255
-0.143627 -0.0111186 2.411 255 255 255
0.453465 0.424811 1.324 255 255 255
-0.935935 0.61942 2.173 255 255 255
0.377255 0.402294 1.583 255 255 255
-0.722483 -0.306337 1.985 255 255 255
1.54099 -0.26378 3.011 255 255 255
0.166419 -0.905674 2.411 255 255 255
0.244135 0.234206 2.707 255 255 255
-0.154886 0.393515 1.473 255 255 255
0.633039 0.454473 1.286 255 255 255
1.07976 -0.540368 2.996 255 255 255
0.169975 0.496302 2.719 255 255 255
0.00165542 0.140055 2.519 255 255 255
0.332592 0.414194 1.487 255 255 255
-0.627697 0.168554 2.196 255 255 255
0.442219 0.381384 2.818 255 255 255
0.329597 -0.692308 2.55 255 255 255
-0.557692 -0.703657 1.985 255 255 255
-1.17723 0.261652 2.228 255 255 255
-0.548881 -0.612083 2.024 255 255 255
-0.911489 -0.104031 1.947 255 255 255
-0.873518 0.835717 2.212 255 255 255
-0.360708 0.172343 2.294 255 255 255
-0.245008 0.546011 1.439 255 255 255
-0.935101 0.524839 2.092 255 255 255
-0.574682 -0.0836991 2.158 255 255 255
1.04563 0.420101 2.996 255 255 255
1.19948 -0.582481 3.117 255 255 255
-0.887306 0.14309 2.037 255 255 255
0.696518 0.389838 3.026 255 255 255
0.515613 0.0878924 2.818 255 255 255
1.22986 0.369902 2.638 255 255 255
-0.313823 -0.546572 2.128 255 255 255
0.25965 0.424121 1.252 0 0 0
-0.231482 0.354241 2.469 255 255 255
-0.553314 0.416622 2.303 255 255 255
1.03412 -0.925235 2.831 255 255 255
1.01149 -0.340473 2.996 255 255 255
0.773002 -0.60192 2.871 255 255 255
0.875089 -0.55302 2.884 255 255 255
0.533537 -0.974041 2.593 255 255 255
-0.576532 -0.567296 2.017 255 255 255
0.729541 0.343911 1.587 255 255 255
-0.12272 -0.799121 2.244 255 255 255
0.526933 -0.286815 2.805 255 255 255
0.00164885 0.049674 2.509 255 255 255
0.205465 0.358146 2.78 255 255 255
-0.692251 0.891291 2.329 255 255 255
0.929868 0.354439 3.149 255 255 255
0.395241 -0.723394 2.572 255 255 255
-0.133931 -0.186648 2.449 255 255 255
-0.534391 -0.223721 2.057 255 255 255
0.199398 -0.829231 2.383 255 255 255
-0.105835 -0.463275 2.356 255 255 255
1.10681 0.429836 2.805 255 255 255
-0.652946 -0.184446 2.03 255 255 255
-0.0831787 0.495534 1.477 255 255 255
-0.130547 -0.802326 2.253 255 255 255
-0.528725 -0.647101 2.01 255 255 255
-0.263863 -0.759692 2.173 255 255 255
-0.378593 0.143596 2.312 255 255 255
0.227773 -0.179281 2.572 255 255 255
-0.517705 0.788876 2.044 255 255 255
0.216332 0.463755 1.249 255 255 255
0.431631 0.373005 1.547 255 255 255
-0.140071 0.40885 1.494 255 255 255
-0.763534 0.547357 2.196 255 255 255
-0.636966 0.0807888 2.143 255 255 255
-0.615463 -0.638285 1.953 255 255 255
-0.724375 -0.681498 1.905 255 255 255
-0.746892 -0.0233428 2.099 255 255 255
-0.744362 0.0385407 2.121 255 255 255
-1.04737 0.397542 2.085 255 255 255
0.246645 0.403994 1.348 255 255 255
-0.646845 -0.102294 2.107 255 255 255
-0.613152 0.478932 2.261 255 255 255
-0.493783 0.520407 2.173 255 255 255
-0.522658 0.513662 2.236 255 255 255
-1.03869 -0.137876 1.978 255 255 255
-0.696269 0.202847 2.143 255 255 255
0.272972 0.0274038 2.731 255 255 255
-0.3563 -0.0861038 2.22 255 255 255
0.109968 0.467638 1.265 255 255 255
-0.92618 -0.564092 1.826 255 255 255
0.359616 -0.857397 2.499 255 255 255
-0.4993 -0.701411 1.997 0 0 0
-0.13776 0.279429 2.519 255 255 255
0.525673 -0.808747 2.66 255 255 255
-1.03822 0.77572 2.136 255 255 255
0.693554 -0.415037 2.871 255 255 255
-0.884123 -0.510951 1.882 255 255 255
-1.01596 -0.130176 1.959 255 255 255
-0.167708 0.55772 1.439 255 255 255
0.703248 -0.772848 2.78 255 255 255
0.541324 0.386597 1.502 255 255 255
-0.413796 0.560568 1.821 255 255 255
-0.792727 -0.083702 1.991 255 255 255
0.857108 -0.944759 2.78 255 255 255
-0.63392 -0.420663 1.991 255 255 255
0.625063 -0.208445 2.857 255 255 255
-0.27738 -0.546169 2.196 255 255 255
1.15394 -0.224976 2.831 255 255 255
-0.773747 0.473742 2.107 255 255 255
0.215844 0.399244 1.571 255 255 255
1.0018 -0.68464 2.925 255 255 255
0.818011 -0.584 2.898 255 255 255
-0.380582 -0.677143 2.114 255 255 255
-0.113999 0.0285595 2.449 255 255 255
-0.615006 0.178703 2.189 255 255 255
-0.082107 -0.0631031 2.449 255 255 255
-0.553916 -0.0595276 2.173 255 255 255
0.790338 0.34824 1.595 255 255 255
-0.710935 0.0556144 2.114 255 255 255
1.41361 0.0912293 3.086 255 255 255
-0.54765 -0.481755 2.044 255 255 255
-1.02408 0.705807 2.114 255 255 255
0.258079 -0.335443 2.582 255 255 255
-0.0365216 -0.676603 2.338 255 255 255
0.549781 0.445697 1.297 255 255 255
1.36455 -0.0971836 3.011 255 255 255
-0.740756 0.888837 2.303 255 255 255
0.364701 -0.61537 2.593 255 255 255
-0.805 -0.672198 1.905 255 255 255
0.277856 0.414676 1.299 255 255 255
1.23923 -0.232039 2.805 255 255 255
0.0245403 0.510222 1.322 255 255 255
-0.3082 0.318314 2.44 255 255 255
0.152642 0.436362 1.456 255 255 255
0.439299 0.472122 1.208 255 255 255
1.26021 -0.769515 2.996 255 255 255
0.204173 0.46618 1.213 255 255 255
-0.878349 0.184995 2.024 255 255 255
-1.00325 0.680616 2.143 255 255 255
-0.0844412 -0.351146 2.402 255 255 255
-0.59677 -0.366137 2.03 255 255 255
0.127967 0.451877 1.445 255 255 255
0.365552 0.259828 2.793 255 255 255
-0.315556 0.02737 2.347 255 255 255
-0.508002 0.520658 2.204 255 255 255
-0.171601 -0.341752 2.312 255 255 255
0.808793 0.604456 3.117 255 255 255
-0.506614 0.408594 2.365 255 255 255
1.38747 -0.936917 2.925 255 255 255
-0.243677 0.475392 1.445 255 255 255
0.328237 0.419765 1.416 255 255 255
0.620151 0.26153 2.967 255 255 255
-0.60219 -0.605985 1.972 255 255 255
-0.877923 0.597387 2.196 255 255 255
0.444416 -0.629102 2.615 255 255 255
0.304845 -0.259002 2.66 255 255 255
0.968575 -0.624517 2.911 255 255 255
-0.622316 -0.484 1.985 255 255 255
1.05538 0.449354 2.996 255 255 255
-0.968115 0.801268 2.158 255 255 255
0.606705 0.527362 2.996 255 255 255
0.319834 0.535174 2.831 255 255 255
-0.284365 0.460633 1.473 255 255 255
1.04596 -0.351978 3.011 255 255 255
-0.81567 0.301163 2.173 255 255 255
-0.144186 -0.367426 2.356 255 255 255
-0.711214 0.495741 2.189 255 255 255
-0.776372 -0.354594 1.966 255 255 255
1.00647 -0.879165 2.831 255 255 255
0.764582 -0.43626 2.857 255 255 255
0.674675 -0.353971 2.831 255 255 255
0.600832 0.333954 2.967 255 255 255
0.316571 0.409836 1.48 255 255 255
-0.260538 0.159487 2.44 255 255 255
-0.464901 -0.64279 2.017 255 255 255
0.461179 0.396051 1.366 255 255 255
-1.02752 0.616363 2.114 255 255 255
0.308314 -0.725476 2.479 255 255 255
-1.06706 0.245751 2.064 255 255 255
1.17332 0.248493 2.768 255 255 255
0.269088 -0.24931 2.649 255 255 255
-0.394316 0.00808645 2.294 255 255 255
-0.978756 0.69497 2.166 255 255 255
1.15043 0.437173 2.604 255 255 255
0.610492 0.37258 2.967 255 255 255
1.23835 -0.393126 3.026 255 255 255
0.539953 0.300667 2.925 255 255 255
-0.57826 0.140984 2.212 255 255 255
1.05418 0.243548 2.925 255 255 255
0.650358 0.382426 1.283 255 255 255
1.26882 -0.795658 3.04 255 255 255
0.629592 -0.99488 2.66 255 255 255
-0.980974 0.135315 1.972 255 255 255
0.606611 0.214988 2.925 255 255 255
0.881868 0.526489 3.198 255 255 255
1.07957 0.45696 2.982 255 255 255
-0.353957 -0.216939 2.228 255 255 255
1.52356 -0.51599 2.996 255 255 255
0.858104 0.328817 3.149 255 255 255
-0.753103 0.132665 2.136 255 255 255
-0.544214 0.137882 2.22 255 255 255
0.420362 -0.781991 2.572 255 255 255
-0.294589 0.284779 2.459 255 255 255
-0.263426 0.154879 2.43 255 255 255
-0.918639 -0.5033 1.865 255 255 255
-1.33099 0.820529 2.519 255 255 255
0.40077 0.410519 1.273 255 255 255
0.517013 -0.709187 2.66 255 255 255
1.27658 -1.06981 2.911 255 255 255
-0.684892 0.318645 2.196 255 255 255
0.203618 0.417691 2.755 255 255 255
0.122323 0.451169 1.265 255 255 255
-1.00982 -0.169516 1.935 255 255 255
0.467443 -0.90024 2.649 255 255 255
-0.373237 -0.506974 2.151 255 255 255
-0.704088 0.267759 2.189 255 255 255
-0.438776 -0.671203 2.064 255 255 255
-0.092498 -0.790574 2.22 255 255 255
-0.492192 0.0534576 2.166 255 255 255
0.234126 -0.360333 2.55 255 255 255
-0.420686 -0.41093 2.143 255 255 255
0.570166 0.439951 1.305 255 255 255
-0.515597 0.288621 2.269 255 255 255
-0.954075 0.723168 2.166 255 255 255
0.426481 0.457224 2.805 255 255 255
-0.182537 -0.47403 2.261 255 255 255
0.377868 0.527359 2.312 255 255 255
-0.913833 0.40165 2.037 255 255 255
0.650597 0.332342 2.996 255 255 255
-0.0431045 0.0372759 2.499 255 255 255
-0.877942 -0.24119 1.929 255 255 255
0.788058 0.340174 1.831 255 255 255
0.222602 0.31606 2.768 255 255 255
-0.529196 -0.533143 2.037 255 255 255
-0.883823 -0.219898 1.935 255 255 255
1.33824 -0.940157 2.996 255 255 255
-0.113213 0.596472 2.615 255 255 255
0.919137 0.485002 3.165 255 255 255
0.637849 0.384169 2.982 255 255 255
-0.719676 0.520658 2.204 255 255 255
0.714011 0.606596 3.102 255 255 255
-0.473103 -0.620933 2.01 255 255 255
0.727651 -0.999249 2.719 255 255 255
-1.08353 0.0407252 2.057 255 255 255
-0.0491544 0.649051 2.604 255 255 255
-0.0557508 0.246636 2.519 255 255 255
0.709947 -0.959426 2.719 255 255 255
-0.18827 0.139061 2.43 255 255 255
-0.884602 -0.299898 1.923 255 255 255
-0.0778573 0.498769 2.572 255 255 255
-0.834254 -0.675059 1.887 255 255 255
0.44443 0.368572 1.539 255 255 255
0.594007 -0.828159 2.695 255 255 255
-0.39647 -0.438314 2.107 255 255 255
0.468915 0.455806 1.278 255 255 255
-0.472826 -0.586181 2.037 255 255 255
-0.444766 -0.617201 2.03 255 255 255
1.33994 -0.578212 3.149 255 255 255
-0.143623 -0.631794 2.286 255 255 255
1.47672 -0.758794 3.071 255 255 255
0.996394 0.141378 3.198 255 255 255
-0.798778 -0.361598 1.935 255 255 255
-1.02365 0.54709 2.099 255 255 255
0.086122 0.169488 2.593 255 255 255
1.19357 -0.236604 2.805 255 255 255
1.4344 -0.945885 2.953 255 255 255
0.348778 0.442024 1.201 255 255 255
0.733196 0.370566 1.71 255 255 255
1.09695 0.380765 2.78 255 255 255
1.14753 -0.668866 2.982 255 255 255
1.23393 -0.226501 2.793 255 255 255
-0.389883 0.241418 2.312 255 255 255
-0.343942 -0.567861 2.143 255 255 255
-0.161958 0.357795 1.494 255 255 255
0.169708 -0.796755 2.402 255 255 255
0.0686777 0.189042 2.572 255 255 255
1.53202 -0.0395451 3.102 255 255 255
-0.542445 -0.106776 2.128 255 255 255
0.0929559 -0.666415 2.44 255 255 255
0.0838935 0.46116 1.342 255 255 255
-0.145355 -0.122431 2.44 255 255 255
0.557274 0.435393 1.33 255 255 255
-0.570607 -0.722805 1.941 255 255 255
0.435535 -0.180678 2.719 255 255 255
-0.621748 -0.384276 2.004 255 255 255
-0.985984 0.80567 2.151 255 255 255
-0.573557 0.452324 2.294 255 255 255
0.213651 -0.291688 2.604 255 255 255
-0.438034 0.207388 2.269 255 255 255
-0.654844 0.816168 2.278 255 255 255
0.0181939 0.506817 1.33 255 255 255
-0.702313 -0.515924 1.947 255 255 255
0.694792 0.624154 3.04 255 255 255
-0.96142 0.222636 1.978 255 255 255
-0.187743 0.420116 1.449 255 255 255
-1.07748 0.839487 2.166 255 255 255
-0.495786 0.543141 2.151 255 255 255
-0.85109 -0.63246 1.87 255 255 255
0.621427 -0.733766 2.719 255 255 255
-0.223585 0.366639 1.452 255 255 255
0.633851 0.46096 1.275 255 255 255
0.11665 0.145393 2.615 255 255 255
-1.00999 0.0165282 1.966 255 255 255
0.00954719 -0.245523 2.44 255 255 255
-1.37746 0.75818 2.615 255 255 255
0.0180572 -0.00751738 2.519 255 255 255
-0.0929843 0.539892 1.48 255 255 255
1.4684 -0.866535 3.117 255 255 255
-0.140213 0.452518 1.47 255 255 255
0.715792 0.349109 1.509 255 255 255
0.529986 0.428669 1.316 255 255 255
-0.91367 0.608108 2.196 255 255 255
0.587568 -0.548794 2.768 255 255 255
0.348831 0.418189 1.484 255 255 255
-1.07748 0.687921 2.166 255 255 255
-0.329945 -0.843655 2.189 255 255 255
0.198466 -0.158353 2.572 255 255 255
-0.947905 -0.386407 1.887 255 255 255
0.623286 0.316231 2.982 255 255 255
-0.827577 -0.156236 1.966 255 255 255
-0.359231 -0.373959 2.151 255 255 255
0.207076 0.462191 1.267 255 255 255
-0.181914 0.349413 1.459 255 255 255
-0.821997 -0.415684 1.923 255 255 255
-0.824 -0.0451145 2.004 255 255 255
-0.0269403 -0.0483172 2.509 255 255 255
0.428015 -0.720861 2.593 255 255 255
-0.494141 -0.353766 2.114 255 255 255
1.27142 -0.0187854 3.011 255 255 255
-0.539932 -0.699304 1.991 255 255 255
0.107407 -0.442594 2.499 255 255 255
0.902256 0.534519 3.215 255 255 255
0.975563 0.13545 3.181 255 255 255
-0.917798 0.453169 2.107 255 255 255
-0.938594 -0.307541 1.893 255 255 255
-0.612092 -0.22486 2.037 255 255 255
0.488495 -0.360823 2.743 255 255 255
0.182054 0.431786 1.71 255 255 255
-1.04647 0.245851 2.037 255 255 255
1.35962 0.140028 3.055 255 255 255
-0.380592 -0.158541 2.173 255 255 255
0.455558 0.445069 2.844 255 255 255
-0.247734 -0.0683747 2.356 255 255 255
0.389021 -0.959457 2.479 255 255 255
0.046389 -0.0887916 2.499 255 255 255
0.490897 -0.492648 2.707 255 255 255
1.38174 0.0907858 3.071 255 255 255
-0.254184 -0.648915 2.181 255 255 255
-0.207903 -0.034257 2.383 255 255 255
-0.753023 -0.42404 1.947 255 255 255
0.375257 -0.767003 2.55 255 255 255
-0.181413 0.448012 2.499 255 255 255
-0.816616 -0.00612074 2.051 255 255 255
-0.241425 -0.326854 2.261 255 255 255
1.29315 -0.955175 2.982 255 255 255
-0.750346 0.671555 2.253 255 255 255
-1.03029 0.34767 2.051 255 255 255
-0.482215 -0.500032 2.107 255 255 255
-1.00998 0.567584 2.099 255 255 255
-0.491167 -0.662484 2.017 255 255 255
0.693065 0.0204137 3.011 255 255 255
-0.579756 0.280353 2.204 255 255 255
1.22249 -1.09743 2.884 255 255 255
0.410607 0.420291 1.265 255 255 255
1.03037 0.567223 2.925 255 255 255
-0.968388 0.144501 1.966 255 255 255
0.559649 0.380377 1.567 255 255 255
0.46076 0.440963 1.308 255 255 255
1.22485 0.107363 3.117 255 255 255
-0.43649 0.19194 2.261 255 255 255
-0.536614 -0.045717 2.189 255 255 255
-0.100009 0.490727 1.477 255 255 255
1.47793 -0.584681 2.925 255 255 255
-0.891727 0.236873 2.017 255 255 255
-0.773317 -0.705414 1.911 255 255 255
0.287567 0.0721619 2.743 255 255 255
-0.543951 -0.133153 2.107 255 255 255
-0.868465 0.112534 2.024 255 255 255
0.343597 -0.480341 2.593 255 255 255
-0.859335 -0.673948 1.842 255 255 255
0.757624 -0.727135 2.831 255 255 255
0.710858 0.385247 1.677 255 255 255
0.230525 0.0052282 2.755 255 255 255
-0.856337 -0.688936 1.842 255 255 255
-0.345067 0.394468 2.42 255 255 255
0.195997 -0.35892 2.54 255 255 255
0.232845 0.445581 1.848 255 255 255
-0.516051 0.662243 2.064 255 255 255
-0.342837 -0.533206 2.158 255 255 255
0.599072 -0.244522 2.844 255 255 255
-0.571389 -0.170869 2.107 255 255 255
0.755627 0.242109 3.026 255 255 255
-0.88813 0.460912 2.143 255 255 255
0.981098 0.359271 1.917 255 255 255
-0.276613 -0.299655 2.278 255 255 255
1.26387 0.134393 3.04 255 255 255
-0.65355 -0.506503 1.972 255 255 255
1.29801 -0.693129 2.982 255 255 255
-0.881082 -0.275721 1.929 255 255 255
-0.900723 -0.16634 1.972 255 255 255
-0.202451 -0.662947 2.278 255 255 255
1.09723 0.455232 2.66 255 255 255
0.968129 -0.532612 2.953 255 255 255
1.10663 0.232557 2.793 255 255 255
-0.873719 0.256675 2.044 255 255 255
0.793966 0.351764 1.784 255 255 255
1.41874 -1.02718 2.911 255 255 255
-0.374111 -0.590338 2.136 255 255 255
-0.0490463 0.654599 2.392 255 255 255
-0.614775 -0.355174 2.024 255 255 255
-0.0983684 0.363273 2.561 255 255 255
1.41128 -1.08923 2.925 255 255 255
-0.112257 0.470047 1.48 255 255 255
0.159701 0.544549 2.695 255 255 255
0.261761 0.0932407 2.707 255 255 255
1.23121 -0.274387 2.818 255 255 255
0.578204 0.395091 1.535 255 255 255
1.08708 -0.290438 3.086 255 255 255
-1.00987 0.156059 1.991 255 255 255
0.528038 0.4085 1.378 255 255 255
0.790703 0.417655 3.086 255 255 255
0.987357 -0.436502 2.953 255 255 255
1.54374 -0.870782 3.026 255 255 255
-0.734641 0.209821 2.143 255 255 255
-0.354888 -0.32357 2.189 255 255 255
-0.521351 0.497361 2.278 255 255 255
-0.532053 -0.255683 2.128 255 255 255
0.116976 -0.196939 2.53 255 255 255
-0.884642 0.659692 2.143 255 255 255
0.441903 -0.288137 2.731 255 255 255
0.0922663 -0.287516 2.53 255 255 255
0.828245 0.367933 3.133 255 255 255
0.558215 0.387597 1.535 255 255 255
-0.915291 0.723168 2.166 255 255 255
-0.593627 0.698788 2.189 255 255 255
-0.170933 -0.411629 2.303 255 255 255
-0.866316 0.817719 2.212 255 255 255
0.151567 0.446102 1.286 255 255 255
1.31553 -0.660671 3.011 255 255 255
-0.480561 0.156312 2.278 255 255 255
0.414958 -0.50802 2.672 255 255 255
0.867581 -0.684193 2.844 255 255 255
-0.445964 -0.487933 2.114 255 255 255
0.0428461 0.0871441 2.53 255 255 255
-0.597435 -0.421407 2.01 255 255 255
0.950862 0.0414219 3.117 255 255 255
-1.16154 0.570917 2.261 255 255 255
1.02585 -0.515824 2.967 255 255 255
1.49689 0.125741 2.953 255 255 255
-0.6864 -0.661832 1.929 255 255 255
-0.257053 -0.398167 2.269 255 255 255
1.07848 0.36179 2.114 255 255 255
-0.445201 -0.731412 2.017 255 255 255
0.391436 0.397152 1.297 255 255 255
-0.567875 -0.377702 2.057 255 255 255
0.0484582 0.430138 1.459 255 255 255
0.0846638 -0.497598 2.43 255 255 255
1.49389 -0.35215 3.055 255 255 255
0.640843 0.298214 2.996 255 255 255
1.0553 -0.634897 2.982 255 255 255
0.303051 -0.827015 2.469 255 255 255
1.18617 -0.0401442 3.149 255 255 255
-0.165802 0.441639 2.509 255 255 255
-1.00657 -0.199083 1.947 255 255 255
-0.0616921 -0.117975 2.43 255 255 255
-0.930165 -0.420789 1.876 255 255 255
0.889838 -0.634624 2.871 255 255 255
0.70555 -0.401878 2.844 255 255 255
-0.672688 -0.195712 2.01 255 255 255
1.23032 -0.401865 3.055 255 255 255
0.480656 0.445901 1.31 255 255 255
0.495561 -0.857865 2.638 255 255 255
-0.523727 -0.721984 1.991 255 255 255
0.249766 -0.936622 2.42 255 255 255
0.125708 -0.222518 2.54 255 255 255
1.51381 -0.511115 2.996 255 255 255
-0.628778 -0.48077 1.985 255 255 255
1.22667 -0.726179 2.939 255 255 255
-0.24735 0.550695 1.439 255 255 255
0.207566 0.457086 1.27 255 255 255
-0.499364 -0.493175 2.107 255 255 255
0.205465 0.575296 2.78 255 255 255
0.406057 -0.84116 2.561 255 255 255
-0.935097 -0.534377 1.826 255 255 255
-0.580438 -0.286873 2.078 255 255 255
-0.69383 -0.555397 1.941 255 255 255
0.870544 0.303717 3.102 255 255 255
1.20275 -0.14747 2.939 255 255 255
0.577167 -0.636423 2.719 255 255 255
-0.864095 0.123201 2.037 255 255 255
-0.838806 -0.138364 1.985 255 255 255
-0.571602 0.0713113 2.173 255 255 255
0.504216 0.371544 2.884 255 255 255
1.27279 0.373712 2.519 255 255 255
-0.921675 -0.430461 1.865 255 255 255
0.966083 0.325475 3.117 255 255 255
0.136773 -0.0752528 2.593 255 255 255
0.944897 0.479852 3.165 255 255 255
1.51408 -0.837738 3.181 255 255 255
0.367123 0.30659 2.805 255 255 255
1.18159 -0.289474 2.831 255 255 255
-0.895224 -0.0217191 1.953 255 255 255
0.0749874 0.464488 1.339 255 255 255
-0.82613 0.204828 2.092 255 255 255
-0.670602 -0.0800533 2.064 255 255 255
0.0983656 -0.0707318 2.582 255 255 255
-0.690721 -0.145803 2.044 255 255 255
1.04033 -0.61239 2.967 255 255 255
-0.680128 -0.582461 1.947 255 255 255
-0.448918 -0.529257 2.128 255 255 255
0.792303 -0.184847 2.925 255 255 255
0.221556 0.404241 2.755 255 255 255
0.597506 0.378883 1.673 255 255 255
-0.809725 -0.0899102 1.985 255 255 255
0.654478 0.370382 1.439 255 255 255
1.17919 -0.450599 3.117 255 255 255
0.0209613 -0.553899 2.383 255 255 255
1.48218 -0.562673 3.011 255 255 255
0.931948 -0.00911695 3.055 255 255 255
-0.428134 -0.501553 2.128 255 255 255
1.02498 -0.971137 2.844 255 255 255
-0.335846 -0.649621 2.114 255 255 255
-0.843505 0.521974 2.136 255 255 255
1.09906 0.324738 2.844 255 255 255
-0.927336 -0.0691786 1.947 255 255 255
0.290383 0.399126 1.494 255 255 255
0.245492 0.400497 1.366 255 255 255
0.824015 0.421851 3.117 255 255 255
0.0805429 -0.0947533 2.55 255 255 255
0.128703 -0.729946 2.44 255 255 255
0.0639393 -0.0408074 2.55 255 255 255
0.181438 -0.886658 2.402 255 255 255
-0.91471 0.269696 2.017 255 255 255
-0.20885 0.503739 1.432 255 255 255
1.29315 -0.445642 2.982 255 255 255
0.61441 0.378184 1.682 255 255 255
0.0773507 0.168769 2.582 255 255 255
-0.658282 -0.166815 2.057 255 255 255
0.201001 0.421806 1.308 255 255 255
0.4673 0.604278 2.831 255 255 255
-0.716088 0.606737 2.204 255 255 255
0.702407 -1.02567 2.707 255 255 255
0.560328 0.394263 1.494 255 255 255
-0.866612 -0.355427 1.953 255 255 255
0.0925333 0.483206 1.252 255 255 255
0.497453 -0.197447 2.768 255 255 255
-0.487362 -0.420166 2.085 255 255 255
0.372785 0.400261 1.575 255 255 255
-0.913646 0.339831 2.044 255 255 255
-0.270988 0.097961 2.392 255 255 255
0.0541922 0.424397 2.684 255 255 255
-0.314734 -0.733378 2.158 255 255 255
0.259166 0.534452 2.294 255 255 255
-1.31514 0.430018 2.489 255 255 255
-0.828512 0.242392 2.064 255 255 255
-0.401161 -0.608124 2.078 255 255 255
-0.64713 -0.496876 1.972 255 255 255
1.14823 -1.07918 2.898 255 255 255
1.28345 -0.960027 2.982 255 255 255
-0.160539 0.461003 1.459 255 255 255
0.805716 -0.447742 2.871 255 255 255
-0.0154834 0.457978 1.442 255 255 255
0.359616 -0.86553 2.499 255 255 255
0.153656 -0.0752528 2.593 255 255 255
-0.458223 -0.156146 2.189 255 255 255
0.478384 -0.935137 2.638 255 255 255
-0.192123 -0.5435 2.244 255 255 255
-0.24658 0.310976 1.491 255 255 255
0.803312 0.35003 1.805 255 255 255
-0.391232 0.272456 2.32 255 255 255
-0.307092 -0.45132 2.204 255 255 255
-0.916635 -0.290891 1.905 255 255 255
-0.149072 0.431317 1.463 255 255 255
-0.130909 0.494192 1.473 255 255 255
1.27022 0.3454 2.615 255 255 255
-0.0591361 0.476305 1.477 255 255 255
-0.397747 -0.181438 2.151 255 255 255
-0.656329 -0.297111 2.01 255 255 255
-0.645582 -0.399182 1.997 255 255 255
-0.418755 -0.520976 2.151 255 255 255
0.176244 0.0943273 2.615 255 255 255
-0.885181 -0.149837 1.966 255 255 255
-0.0137921 -0.674145 2.356 255 255 255
0.757536 -1.01255 2.731 255 255 255
-0.452539 -0.135204 2.196 255 255 255
0.333665 0.427615 1.21 255 255 255
0.616134 0.214988 2.925 255 255 255
0.145805 -0.20929 2.53 255 255 255
-0.330779 0.344474 2.374 255 255 255
-0.441323 -0.452216 2.092 255 255 255
-0.950163 -0.0810955 1.929 255 255 255
1.11243 0.138303 3.248 255 255 255
-0.832628 0.0464979 2.017 255 255 255
-0.415981 -0.740404 2.051 255 255 255
0.253014 0.433134 1.22 255 255 255
-0.770845 -0.0943135 2.01 255 255 255
0.252882 -0.551013 2.53 255 255 255
-0.964177 -0.427426 1.865 255 255 255
-0.633126 -0.102294 2.107 255 255 255
1.12936 0.218921 2.793 255 255 255
-1.00688 0.643884 2.114 255 255 255
0.792377 0.478052 2.347 255 255 255
1.23177 -0.668838 3.071 255 255 255
-0.3422 0.598982 1.539 255 255 255
-0.346927 -0.285368 2.253 255 255 255
-0.830309 0.612539 2.212 255 255 255
-0.0126351 0.492424 1.387 255 255 255
0.22725 0.430839 1.242 255 255 255
-0.30964 -0.0630888 2.303 255 255 255
1.49918 -0.46236 2.996 255 255 255
-0.180067 -0.285241 2.374 255 255 255
-0.906203 -0.319668 1.929 255 255 255
0.205383 0.252943 2.719 255 255 255
-0.892637 0.124031 1.997 255 255 255
-0.63583 -0.376434 1.997 0 0 0
0.578668 0.371433 1.714 255 255 255
0.0961333 -0.712148 2.42 255 255 255
0.0458321 -0.332816 2.469 255 255 255
-0.385803 -0.71433 2.143 255 255 255
-0.201634 -0.768044 2.228 255 255 255
-0.00243532 -0.0524002 2.509 255 255 255
1.11505 0.36267 2.78 255 255 255
0.1009 -0.495676 2.44 255 255 255
0.111474 -0.901751 2.411 255 255 255
1.33973 0.0256835 3.055 255 255 255
-0.507726 -0.511776 2.085 255 255 255
0.128703 -0.714063 2.44 255 255 255
1.28947 -0.686632 2.996 255 255 255
0.601059 -0.787795 2.707 255 255 255
-0.727381 -0.330003 1.972 255 255 255
0.856468 0.544396 3.181 255 255 255
1.17388 0.245046 2.78 255 255 255
1.13442 -1.07455 2.911 255 255 255
-1.03096 0.726448 2.114 255 255 255
-0.66586 0.31622 2.204 255 255 255
0.0582133 0.484548 1.305 255 255 255
-0.948997 -0.324237 1.865 255 255 255
0.243424 0.426797 1.242 255 255 255
0.155314 0.268253 2.695 255 255 255
-0.750322 0.274502 2.158 255 255 255
0.49296 -0.414388 2.743 255 255 255
1.50893 -0.476987 2.996 255 255 255
1.3524 -1.12666 2.911 255 255 255
0.13659 0.548598 2.672 255 255 255
0.934994 0.180207 3.149 255 255 255
0.815739 -0.413013 2.857 255 255 255
-0.492324 -0.334228 2.121 255 255 255
-0.752856 -0.236694 1.997 255 255 255
-0.106239 -0.380375 2.365 255 255 255
-0.541452 0.33293 2.269 255 255 255
-0.38922 0.156861 2.286 255 255 255
0.585183 -0.24915 2.844 255 255 255
0.476067 -0.676078 2.649 255 255 255
-0.924885 0.507817 2.092 255 255 255
1.26189 0.377389 2.572 255 255 255
1.48034 -1.03665 2.911 255 255 255
-0.631495 -0.176857 2.057 255 255 255
-0.689835 0.267759 2.189 255 255 255
0.208808 -0.695125 2.402 255 255 255
0.211971 0.416055 1.31 255 255 255
-0.825881 -0.122213 1.985 255 255 255
1.50131 -0.823223 3.165 255 255 255
-0.993304 0.443215 2.03 255 255 255
0.214254 0.465339 1.237 0 0 0
-0.759715 -0.0231093 2.078 255 255 255
0.308857 -0.0957556 2.695 255 255 255
-0.466611 -0.518894 2.114 255 255 255
-0.126723 0.597928 2.017 255 255 255
0.212587 0.529773 2.755 255 255 255
-0.740221 -0.30754 1.972 255 255 255
0.245217 0.248519 2.719 255 255 255
-0.587389 -0.055811 2.166 255 255 255
0.179458 -0.342387 2.54 255 255 255
-0.940519 -0.226196 1.935 255 255 255
1.20368 0.220426 2.755 255 255 255
-0.638171 0.347417 2.22 255 255 255
-0.588978 0.385578 2.253 255 255 255
-0.95836 0.0748324 1.985 255 255 255
1.25211 -0.18105 2.793 255 255 255
1.28947 -0.886527 2.996 255 255 255
1.15079 -0.234671 2.953 255 255 255
0.533962 0.13375 2.818 255 255 255
0.208102 0.440107 2.755 255 255 255
-0.776502 0.499273 2.143 255 255 255
-0.234807 -0.813642 2.166 255 255 255
0.234975 -0.770453 2.43 255 255 255
0.0233979 0.459561 2.66 255 255 255
0.154427 0.465027 1.21 255 255 255
-0.506025 0.708675 2.092 255 255 255
1.23266 0.313794 2.672 255 255 255
-0.926403 -0.153503 1.972 255 255 255
0.428457 0.450172 2.818 255 255 255
-0.711567 -0.165193 2.037 255 255 255
0.232751 0.408181 1.319 255 255 255
1.07704 -0.24524 3.086 255 255 255
-0.244651 0.135663 2.44 255 255 255
0.671708 0.158624 2.939 255 255 255
-0.479634 -0.222192 2.173 255 255 255
0.00613288 0.638417 2.684 255 255 255
-0.7657 -0.382851 1.947 255 255 255
-0.0732561 -0.231696 2.42 255 255 255
1.15924 -0.24915 2.844 255 255 255
-0.640455 0.0807888 2.143 255 255 255
-0.862715 0.688131 2.212 255 255 255
-0.635561 -0.591344 1.966 255 255 255
-0.565896 0.152332 2.22 255 255 255
-0.989293 0.771287 2.143 255 255 255
-0.903686 -0.258408 1.917 255 255 255
-0.342003 -0.0141561 2.269 255 255 255
0.332441 -0.652241 2.572 255 255 255
0.633061 -0.73256 2.731 255 255 255
0.383204 -0.109473 2.604 255 255 255
-0.536986 0.535275 2.22 255 255 255
1.49918 -0.262466 2.996 255 255 255
-0.922586 0.437203 2.064 255 255 255
-1.03048 0.550505 2.099 255 255 255
0.640737 -0.438903 2.844 255 255 255
-0.658552 0.812461 2.278 255 255 255
1.07704 -0.27035 3.086 255 255 255
-0.278578 0.304787 2.459 255 255 255
0.619895 0.440519 1.339 255 255 255
-0.175024 0.000651899 2.411 255 255 255
-0.950307 0.421539 2.037 255 255 255
0.822777 0.342218 1.842 255 255 255
0.435042 0.309432 2.831 255 255 255
0.0887459 0.313794 2.672 255 255 255
0.0473357 0.12518 2.55 255 255 255
-0.556301 -0.279924 2.128 255 255 255
1.17859 0.0424983 3.198 255 255 255
-0.179617 -0.0859846 2.42 255 255 255
0.00538341 -0.681813 2.356 255 255 255
0.242088 0.47288 1.215 255 255 255
0.41866 0.382886 1.655 255 255 255
0.513528 0.463286 1.27 255 255 255
-0.297762 0.491723 1.48 255 255 255
0.929674 -0.518196 2.953 255 255 255
0.762868 0.274258 3.055 255 255 255
-0.780298 0.382496 2.173 255 255 255
-0.115149 -0.680366 2.312 255 255 255
0.663884 -0.24915 2.844 255 255 255
-1.04865 0.7931 2.136 255 255 255
-0.670612 0.0525197 2.128 255 255 255
-0.302403 -0.839206 2.196 255 255 255
1.15292 -0.66713 2.996 255 255 255
-0.660353 0.560643 2.151 255 255 255
0.891778 -0.267038 2.939 255 255 255
-0.979137 0.597694 2.121 255 255 255
0.42011 0.496174 2.793 255 255 255
-0.869449 0.867641 2.22 255 255 255
-0.583099 -0.498368 2.017 0 0 0
-0.620102 0.340191 2.22 255 255 255
-0.693164 0.536354 2.166 255 255 255
0.795281 -0.562406 2.884 255 255 255
-0.914692 -0.646348 1.815 255 255 255
1.03681 -0.194073 3.071 255 255 255
-0.954409 0.62133 2.143 255 255 255
0.860467 -0.51326 2.898 255 255 255
0.625832 0.402477 1.396 255 255 255
-0.369621 0.206748 2.303 255 255 255
0.382167 -0.106124 2.626 255 255 255
0.25183 -0.797447 2.44 255 255 255
1.55357 -0.28752 3.055 255 255 255
-0.0340032 -0.335468 2.43 255 255 255
0.438763 0.396529 1.345 255 255 255
-0.72916 0.028 2.107 255 255 255
-0.637716 -0.542939 1.953 255 255 255
1.43637 -0.877945 2.967 255 255 255
1.34164 -0.951848 2.898 255 255 255
-0.578999 -0.291233 2.085 255 255 255
1.05694 -0.235197 3.086 255 255 255
-0.740221 -0.323585 1.972 255 255 255
-0.597605 0.473067 2.286 255 255 255
-1.00023 -0.0691786 1.947 255 255 255
-0.0487391 0.38726 2.582 255 255 255
0.829956 -1.03976 2.78 255 255 255
-0.699834 0.853391 2.329 255 255 255
-0.541665 -0.386236 2.085 255 255 255
-0.782902 0.214105 2.151 255 255 255
-0.200927 0.554564 2.54 255 255 255
1.03712 0.35591 3.117 255 255 255
0.319469 0.402064 1.505 255 255 255
1.12978 -0.12726 3.149 255 255 255
-0.196266 -0.0536466 2.383 255 255 255
0.448867 0.410786 2.831 255 255 255
0.112437 0.425507 2.719 255 255 255
0.132837 0.51957 2.071 255 255 255
-0.788557 0.547357 2.196 255 255 255
-0.883915 -0.555532 1.837 255 255 255
-0.643241 -0.212067 2.01 255 255 255
0.615321 0.367752 2.967 255 255 255
-0.589967 -0.281582 2.064 255 255 255
-0.42467 -0.505016 2.128 255 255 255
-0.92163 0.6217 2.181 255 255 255
-0.775093 0.684978 2.261 255 255 255
0.407876 0.40955 1.445 255 255 255
-0.406398 0.0302724 2.278 255 255 255
-0.296206 -0.713497 2.151 255 255 255
0.534968 0.255448 2.898 255 255 255
1.02714 0.383229 3.133 255 255 255
0.00164227 -0.0684581 2.499 255 255 255
1.31605 -0.365724 2.925 255 255 255
-0.584617 -0.304059 2.057 255 255 255
-0.19102 0.325 1.456 255 255 255
0.384111 -0.0437039 2.731 255 255 255
-0.215753 0.343228 1.463 255 255 255
-0.415254 -0.408963 2.151 255 255 255
0.458514 0.447487 1.278 255 255 255
-0.160581 0.688724 2.43 255 255 255
1.29253 -0.00903041 3.026 255 255 255
-0.752856 -0.223695 1.997 255 255 255
-0.563055 0.731726 2.181 255 255 255
-0.173591 0.471992 1.449 255 255 255
-0.209264 0.552278 1.419 255 255 255
0.814735 0.030364 3.026 255 255 255
0.383913 -0.505848 2.638 255 255 255
-0.0527408 -0.507364 2.383 255 255 255
1.27837 0.250711 2.695 255 255 255
0.855933 0.346905 1.774 255 255 255
-0.694872 0.620595 2.228 255 255 255
-0.608185 -0.335412 2.024 0 0 0
0.230774 0.395601 1.412 255 255 255
0.125397 0.440378 1.319 255 255 255
0.456433 0.447487 1.278 255 255 255
0.464817 0.213663 2.844 255 255 255
-0.321317 -0.122671 2.228 255 255 255
-0.0229627 0.447734 1.47 255 255 255
-0.869274 -0.32464 1.959 255 255 255
0.0719578 -0.156383 2.54 255 255 255
0.97396 -0.802818 2.871 255 255 255
-0.794302 0.742126 2.212 255 255 255
0.909247 -0.698078 2.844 255 255 255
-0.663217 0.89818 2.347 255 255 255
-0.202976 -0.820145 2.128 255 255 255
0.443036 -0.514669 2.684 255 255 255
0.0753805 0.472891 1.308 255 255 255
-0.33468 0.317266 2.402 255 255 255
0.0911273 -0.914107 2.392 255 255 255
-0.236682 -0.790505 2.151 255 255 255
-0.463643 0.208942 2.286 255 255 255
0.677646 0.389113 1.551 255 255 255
0.578557 -0.0643174 2.857 255 255 255
1.17079 -0.0862643 3.149 255 255 255
0.15593 0.446322 1.305 255 255 255
-0.6375 -0.44874 1.972 255 255 255
-0.896456 -0.697809 1.826 255 255 255
0.939619 -0.582697 2.939 255 255 255
-0.928109 -0.687565 1.784 255 255 255
-0.162641 -0.00716822 2.402 255 255 255
-0.123964 0.114085 2.489 255 255 255
-0.780601 -0.617885 1.929 255 255 255
-0.844358 -0.186984 1.953 255 255 255
-0.274174 -0.679457 2.143 255 255 255
-0.320791 0.476802 1.509 255 255 255
1.22604 0.0620282 3.133 255 255 255
0.900832 -0.340392 2.953 255 255 255
0.19145 0.4649 1.22 255 255 255
-0.237452 -0.786054 2.158 255 255 255
0.506696 0.413687 1.351 255 255 255
0.178222 -0.13796 2.582 255 255 255
-0.0297107 0.467276 1.449 255 255 255
-0.11763 0.542446 1.487 255 255 255
-0.253517 0.00849888 2.411 255 255 255
0.0263727 -0.0363702 2.53 255 255 255
-0.183996 0.270958 2.479 255 255 255
-0.97851 -0.177853 1.923 255 255 255
0.319501 -0.351304 2.638 255 255 255
0.111098 0.457885 1.278 255 255 255
-0.680775 0.821377 2.303 255 255 255
-0.572247 0.634667 2.189 255 255 255
-0.149536 -0.414667 2.32 255 255 255
0.306763 0.0321279 2.755 255 255 255
1.39978 -0.970329 2.911 255 255 255
1.4276 -1.10401 2.939 255 255 255
-0.365872 0.0156137 2.303 255 255 255
1.01572 -1.04532 2.857 255 255 255
0.992648 -1.02659 2.831 255 255 255
-0.471926 -0.359452 2.107 255 255 255
0.0331047 -0.889364 2.42 255 255 255
-0.111346 -0.104453 2.392 255 255 255
-0.187301 -0.399565 2.32 255 255 255
1.18486 0.126434 3.215 255 255 255
-1.08975 0.367649 2.128 255 255 255
0.0749432 0.539641 2.151 255 255 255
-0.869274 -0.353331 1.959 255 255 255
-0.535803 -0.159839 2.143 255 255 255
0.325327 -0.402671 2.582 255 255 255
1.474 -0.411808 3.055 255 255 255
-0.502758 0.386388 2.347 255 255 255
1.47347 -0.546975 3.117 255 255 255
0.504024 -0.613955 2.66 255 255 255
-0.47419 0.346859 2.338 255 255 255
-0.347128 0.420369 2.303 255 255 255
0.67346 0.285008 3.011 255 255 255
-0.401815 -0.278771 2.173 255 255 255
0.188975 -0.601122 2.449 255 255 255
0.282824 -0.586258 2.54 255 255 255
-0.954064 0.608121 2.158 255 255 255
-0.301149 0.54453 1.473 255 255 255
0.43965 0.180437 2.831 255 255 255
0.36048 -0.636468 2.593 255 255 255
1.32529 -0.110248 2.967 255 255 255
-0.340798 -0.0582589 2.261 255 255 255
0.845673 -0.0381937 2.996 255 255 255
-0.0700512 0.528159 2.593 255 255 255
-0.0485503 0.322978 2.572 255 255 255
-0.865332 -0.578027 1.842 255 255 255
-0.587923 -0.63358 1.978 255 255 255
-0.459729 -0.377847 2.114 255 255 255
0.076392 -0.165298 2.55 255 255 255
0.350327 0.414007 1.234 255 255 255
-0.598594 -0.07963 2.143 255 255 255
-0.831642 -0.339536 1.953 255 255 255
-0.543066 0.808292 2.158 255 255 255
-0.211231 -0.421024 2.253 255 255 255
0.185679 0.592539 2.755 255 255 255
1.39889 -0.611393 2.939 255 255 255
-0.590278 0.347521 2.244 255 255 255
-0.261064 -0.170579 2.338 255 255 255
-0.873312 0.430954 2.099 255 255 255
-1.04126 0.748574 2.128 255 255 255
-0.514301 -0.210331 2.057 255 255 255
-0.434945 0.077603 2.253 255 255 255
-0.186965 0.508987 2.519 255 255 255
-0.547204 -0.521401 2.03 255 255 255
1.05387 -0.880324 2.911 255 255 255
-1.07035 0.130723 2.051 255 255 255
-0.752949 -0.0298724 2.078 255 255 255
-0.179384 -0.257219 2.365 255 255 255
-0.439082 -0.415689 2.114 255 255 255
-0.473145 0.152605 2.278 255 255 255
0.213515 -0.470167 2.411 255 255 255
-0.925962 0.576515 2.158 255 255 255
-0.695904 -0.12168 2.03 255 255 255
-0.566448 -0.375628 2.064 255 255 255
-0.00651948 -0.0524002 2.509 255 255 255
-0.704405 -0.717252 1.893 255 255 255
1.28493 -0.586301 3.165 255 255 255
1.47835 -0.0503931 3.149 255 255 255
-0.266281 0.382653 2.42 255 255 255
0.424121 -0.225918 2.731 255 255 255
0.746868 0.320672 3.071 255 255 255
0.818505 0.134393 3.04 255 255 255
-0.428222 -0.655466 2.078 255 255 255
-0.766037 0.216796 2.143 255 255 255
-0.818857 0.611141 2.22 255 255 255
-0.663217 0.917276 2.347 255 255 255
1.1687 0.351581 2.695 255 255 255
0.738946 -0.219801 2.884 255 255 255
-0.668418 -0.49195 1.978 255 255 255
0.816412 -0.0381937 2.996 255 255 255
1.53609 -0.881165 3.011 255 255 255
-0.997062 -0.0913574 1.947 255 255 255
0.230607 -0.211174 2.604 255 255 255
0.385387 0.516565 2.805 255 255 255
1.48979 -0.573132 2.939 255 255 255
-0.514514 -0.399808 2.085 255 255 255
-0.491167 -0.649354 2.017 255 255 255
0.0581237 -0.326096 2.479 255 255 255
-0.614054 0.834703 2.278 255 255 255
0.00585183 0.24658 2.561 255 255 255
0.466416 -0.966153 2.572 255 255 255
-0.840335 0.390756 2.085 255 255 255
-0.68134 -0.197696 1.997 255 255 255
-0.181745 0.534144 2.561 255 255 255
0.587117 -0.220369 2.831 255 255 255
-0.167132 0.625211 2.593 255 255 255
1.02037 -1.04532 2.857 255 255 255
-0.683071 -0.139627 2.051 255 255 255
0.246842 -0.770453 2.43 255 255 255
-0.610522 -0.424678 2.01 255 255 255
-0.214534 0.316791 2.459 255 255 255
1.19642 -0.0247708 3.149 255 255 255
-0.746819 0.156408 2.128 255 255 255
0.141592 0.115118 2.604 255 255 255
