ply
format ascii 1.0
comment Created by Open3D
element vertex 1352
property double x
property double y
property double z
property uchar red
property uchar green
property uchar blue
end_header
-0.369843 0.000436943 1.616 133 133 129
0.35148 -0.645929 2.499 121 114 108
1.00234 0.496812 2.499 61 56 36
1.10811 -0.0306213 2.402 86 88 79
-0.308817 -0.0355043 1.7 177 176 176
0.897629 -0.47634 2.383 114 112 102
0.137005 -0.168682 2.312 178 140 86
-0.221675 -0.00575666 1.929 155 150 146
-0.820899 -0.0621732 1.603 136 144 131
-0.816061 -0.080353 1.774 138 140 131
-0.390556 0.186961 0.989 106 114 99
-0.560946 -0.0294072 1.668 78 76 66
-1.45029 -0.935891 3.198 21 30 21
-0.118054 0.235997 0.999 187 188 184
-0.572567 0.0627409 1.532 152 156 151
0.860355 0.0676026 2.42 93 91 83
0.894698 -0.661325 2.365 119 116 111
0.916307 0.664123 2.204 4 7 6
0.431574 0.768991 2.166 94 106 108
0.761066 -0.58855 2.43 122 118 107
-0.216374 0.211091 0.724 97 91 76
-0.207908 0.194431 0.978 180 180 180
0.280664 -0.497504 2.449 59 24 7
0.847606 -0.34876 2.44 111 109 101
1.0837 0.370745 2.499 74 72 64
-0.0421704 0.120832 1.322 154 165 161
0.577521 -0.324936 2.44 91 87 78
-0.122968 -0.0997793 2.469 152 145 139
-1.26316 -0.966421 3.266 37 41 34
-0.18846 0.231848 0.73 92 80 62
-0.287796 0.167814 0.741 96 94 86
-0.0255847 0.194075 1.156 189 188 188
-0.311588 0.198826 0.718 106 96 84
-0.335757 -0.150294 1.972 164 156 155
0.0205873 0.282509 0.771 184 190 190
-0.185716 0.184844 1.169 190 189 189
0.198229 0.0382449 1.659 111 133 136
-0.169186 -0.777594 2.44 60 32 13
0.815832 0.564497 2.44 57 30 22
0.819654 0.694338 2.121 4 5 0
-0.328597 0.160448 0.746 120 122 104
0.558932 0.715552 2.253 5 11 9
-0.353673 -0.628099 2.509 57 21 9
0.847201 -0.740039 2.383 123 124 115
0.920984 0.549679 2.499 9 7 0
-1.4127 -0.92871 3.071 36 41 46
-0.24688 0.225904 0.697 72 63 54
-0.455143 -0.122889 1.763 133 135 124
0.819251 -0.505387 2.392 116 117 106
0.144613 0.144096 1.227 51 146 143
0.262212 0.233786 1.316 135 138 139
-0.721485 -0.0628325 1.62 164 168 163
0.645709 0.63374 2.236 65 39 37
0.279126 0.0527417 1.691 145 142 139
0.00560708 0.235774 1.012 192 192 194
-1.03413 -0.725548 2.755 34 18 15
-0.430477 0.0781719 1.366 150 148 140
-0.155265 -0.00598048 2.004 158 150 147
-0.586565 -0.428576 2.638 53 24 12
-0.366739 0.186214 0.752 119 106 93
-0.94955 -0.381466 2.731 37 19 8
-0.927986 -0.549915 2.707 36 18 7
0.727433 -0.331357 2.519 115 108 100
-0.397622 -0.93943 2.638 82 68 62
0.0739655 -0.461388 2.469 55 22 5
1.21302 -0.0191937 2.44 78 86 71
-0.00123756 0.137284 1.275 169 166 163
-0.735234 -0.76676 2.695 60 40 41
0.0506773 0.258086 0.932 191 194 195
1.21446 0.244763 2.459 69 74 64
0.510081 -0.842467 2.479 132 127 123
-1.44653 -0.675674 3.248 15 19 14
0.125702 -0.555558 2.459 45 21 7
-0.136843 0.259495 0.721 172 172 174
-0.327416 -0.024381 1.696 163 159 152
-0.292022 0.245122 0.678 177 192 191
-0.577938 -0.0073555 1.595 143 143 139
0.164524 0.238638 1.118 174 174 174
-0.504462 0.113743 1.267 172 172 166
0.863494 -0.718034 2.44 126 122 115
-0.128137 0.0215508 1.848 163 155 152
0.0614248 0.0291665 1.763 114 127 122
-0.222278 0.22287 0.709 117 112 92
-0.281432 -0.828286 2.449 31 20 15
-0.38102 0.091468 1.333 184 184 180
-0.0912626 0.134283 1.286 143 138 136
-0.301005 -0.1457 1.997 165 165 161
1.11023 -0.522079 2.278 100 105 95
0.60706 0.161253 2.53 77 73 66
1.21991 0.0243835 2.43 81 83 70
0.263035 -0.668928 2.509 114 109 105
-0.298833 0.0478761 1.535 162 157 155
0.614685 0.239013 2.615 73 69 62
0.589436 0.0761027 2.44 78 74 65
0.0670041 0.261227 0.927 194 194 194
1.19427 -0.37126 2.356 99 95 86
0.583 0.644505 2.261 51 36 35
0.187258 -0.054898 2.004 172 164 161
0.998578 -0.679295 2.374 118 118 112
-1.4561 -0.722633 3.318 23 23 17
-0.454924 -0.725506 2.55 49 19 3
-0.12853 -0.487328 2.499 51 22 8
-0.309951 0.221607 1.015 194 198 193
0.0823357 -0.338198 2.479 56 23 8
1.12845 0.317878 2.499 77 73 64
0.249488 0.278315 1.203 91 86 82
0.836817 0.691731 2.212 6 5 7
0.389242 -0.841632 2.43 136 129 123
1.13749 -0.755301 2.244 117 118 109
0.184972 -0.0928997 2.051 177 169 166
0.891294 -0.819836 2.356 124 122 110
-0.0580868 0.259144 0.879 190 190 194
0.465225 0.655543 2.261 64 64 68
0.277693 0.233514 1.339 114 115 111
-0.0751533 0.219151 1.059 193 192 192
1.12692 -0.648742 2.32 110 111 105
1.00627 0.771552 2.051 6 12 10
0.823355 -0.0481246 2.499 99 95 88
0.416205 -0.513445 2.449 108 104 97
0.285502 -0.0975042 2.078 175 173 165
0.23178 0.10856 1.477 154 149 145
-0.344549 0.180595 0.749 83 80 64
-0.529512 -0.081363 1.734 177 177 171
0.980025 -0.71799 2.312 119 116 111
-0.187718 0.247292 0.684 186 196 199
0.15585 -0.0380915 1.978 165 156 159
-0.366949 0.0257916 1.559 108 109 103
-0.260203 0.0581695 1.543 178 174 175
0.119482 0.315527 0.821 166 177 173
-0.269059 0.231607 0.687 76 65 56
-0.888328 -0.642424 2.707 39 19 9
-0.514826 0.153886 1.015 181 189 188
0.198556 -0.782818 2.469 130 122 119
-0.523677 -0.658979 2.582 47 18 8
0.794328 0.730172 1.941 10 10 4
1.15134 -0.553673 2.286 100 105 93
0.0397895 0.175783 1.198 151 143 140
-0.506865 -0.583347 2.582 57 24 9
0.549573 0.076726 2.338 82 73 64
1.15615 0.562783 2.303 9 6 1
0.713432 0.536438 2.572 24 15 18
0.219153 -0.869313 2.43 133 129 120
0.750055 -0.255324 2.42 110 108 100
-0.331035 0.205242 1.024 185 189 184
0.496073 -0.563776 2.392 41 20 19
-0.565729 -0.00481065 1.612 131 132 123
0.350877 -0.411314 2.411 45 21 9
-0.245041 0.221863 0.695 64 45 43
0.159977 0.0871042 1.48 114 137 85
-0.138531 0.0442495 1.682 163 158 154
0.600591 0.717922 2.204 4 10 8
-0.312281 0.13042 1.249 176 176 172
0.791872 0.749957 1.935 2 6 1
-0.313011 0.211035 0.708 97 87 73
0.641562 0.442881 2.638 48 43 39
0.847071 -0.260632 2.509 113 106 100
-1.38029 -0.923552 2.898 133 141 140
1.1264 -0.179407 2.459 89 94 84
0.448097 -0.549313 2.449 116 107 102
-0.457274 -0.507723 2.54 53 25 8
-0.802901 -0.590636 2.672 44 20 8
0.511648 -0.879074 2.392 129 125 118
0.465945 0.763724 2.212 62 63 59
-0.600149 -0.968276 2.719 131 124 116
-1.39341 -0.742839 3.336 29 26 21
-0.298867 0.175738 1.089 175 172 169
-0.381808 0.152203 1.073 172 177 167
-0.343255 0.17731 1.046 143 140 137
1.05945 0.613124 2.509 68 81 68
0.522602 0.63399 2.303 55 46 39
-0.88439 -0.630805 2.695 41 16 9
-0.296985 -0.507632 2.479 54 24 8
-0.426445 -0.102807 1.763 177 177 171
-0.21083 0.0448915 1.607 165 161 154
-0.390556 0.177305 0.989 120 129 109
0.875049 0.271231 2.519 82 80 72
-0.184437 0.218809 0.861 186 186 188
-0.360139 0.221407 0.751 51 42 35
0.0774727 0.242079 1.004 188 188 190
0.713432 0.318793 2.572 67 65 55
0.194781 -0.265924 2.374 127 100 76
0.797327 -0.586128 2.42 120 116 109
-0.285402 0.167704 1.196 141 135 139
0.155545 -0.211035 2.365 150 121 78
0.814548 0.69062 2.22 30 7 2
0.702564 0.049278 2.489 93 91 83
0.786159 -0.551556 2.459 119 117 109
-0.352445 0.233036 0.73 140 157 158
-0.00723307 0.278016 0.794 186 189 190
0.19053 0.243974 1.143 159 159 161
-0.506912 -0.524424 2.561 53 22 11
-0.243262 0.144331 1.229 189 189 185
0.952074 0.435986 2.572 60 61 57
0.311407 -0.515529 2.44 37 18 12
-0.120071 0.243164 0.963 188 188 188
-0.0821662 0.257783 0.833 153 158 165
-0.227437 0.198826 0.718 119 109 95
0.908899 0.664489 2.136 8 17 10
-0.367065 -0.389152 2.604 55 25 9
0.42591 -0.347474 2.459 63 52 45
0.56697 -0.732679 2.347 130 122 119
0.937256 0.354478 2.499 80 77 74
-0.215521 0.0209794 1.799 154 149 147
0.881326 -0.448868 2.402 111 112 99
-0.319721 -0.503594 2.499 55 25 9
0.854037 -0.745088 2.338 125 121 114
0.517481 -0.868011 2.383 130 126 117
-0.135749 0.105393 1.291 92 139 136
0.636764 -0.815271 2.365 129 125 118
-1.51971 -0.560952 3.055 109 111 100
-0.457048 0.140848 1.167 160 167 159
0.274918 -0.814961 2.469 132 125 117
0.55369 0.103897 2.44 75 73 65
0.135003 0.205437 1.178 178 178 178
0.300597 -0.385915 2.449 47 21 8
1.02869 -0.760168 2.303 117 122 110
0.714718 -0.0195791 2.489 96 96 90
1.22341 0.173436 2.469 74 75 69
-0.376031 0.223852 0.751 118 129 127
1.11247 0.213314 2.42 77 79 70
0.18578 0.132705 1.291 167 164 161
0.266086 0.0817567 1.612 150 147 142
-0.0898084 0.165729 1.21 152 143 138
0.757219 0.0782548 2.509 92 90 82
0.944014 0.645891 2.253 10 9 9
0.118654 -0.338198 2.479 57 24 9
0.0222161 0.269659 0.832 137 139 145
-0.238093 0.245379 0.688 147 158 154
-0.35634 0.0718161 1.416 181 180 180
-1.52233 -0.592072 3.011 108 108 102
0.832729 0.265225 2.54 71 69 59
-0.0297717 0.256017 0.888 192 192 194
0.163054 0.20163 1.201 120 120 116
0.72248 -0.668829 2.42 122 120 108
0.509759 -0.30652 2.42 37 24 11
-0.297949 0.249808 0.65 180 196 204
0.0783376 0.277793 0.824 185 188 187
-0.233648 0.213582 0.705 126 117 96
-0.747118 -0.945229 2.755 127 125 115
0.65648 0.198307 2.53 76 72 61
1.1448 0.376734 2.244 19 17 7
-0.306854 0.242839 0.684 178 191 190
-0.943317 -0.756975 2.805 40 42 33
-0.160146 0.26199 0.715 136 127 152
1.14705 0.245758 2.469 78 79 70
-0.332803 0.242786 0.687 177 194 199
-0.427966 0.0633062 1.432 166 170 163
1.0348 0.332808 2.489 74 76 63
0.216617 0.226156 1.239 145 148 147
0.526958 -0.133553 2.356 86 83 78
-1.36059 -0.763568 3.011 23 28 18
-0.154492 -0.547554 2.459 52 21 8
-0.574308 -0.256037 2.253 147 143 134
-0.369619 0.171554 0.763 124 124 104
-0.539929 0.145662 1.051 143 159 150
0.714137 0.144784 2.53 77 75 67
-1.4457 -1.2576 3.631 33 39 39
0.183562 0.0331226 1.673 144 147 150
-0.313394 0.0575343 1.463 140 140 134
0.181957 0.0148216 1.763 165 158 152
0.611543 -0.27034 2.449 93 91 83
-0.88439 -0.503621 2.695 34 19 9
-1.41895 -0.443998 2.939 131 124 116
0.729454 0.767982 2.024 12 14 5
-1.37184 -1.19965 3.547 43 44 40
-1.48034 -1.36639 3.718 37 43 41
-0.140734 -0.462927 2.499 55 22 7
0.584188 0.279199 2.593 71 67 58
-0.337477 0.158698 0.755 131 131 111
-0.258564 -0.859679 2.459 54 32 22
0.0933683 0.19123 1.185 149 149 149
-0.0225697 0.256305 0.889 193 192 194
-0.880178 -1.03553 2.793 133 124 115
-0.0183872 0.0512187 1.487 0 109 105
0.522602 0.652729 2.303 56 40 33
0.810669 0.580032 2.312 60 28 24
-0.651699 -0.839222 2.731 121 119 109
-0.250071 0.0321525 1.624 183 182 182
-0.636702 -0.842909 2.743 116 112 101
-0.783876 -0.185631 2.244 93 91 79
-0.386347 -0.7955 2.509 65 28 14
-0.0838207 0.269755 0.785 135 138 139
1.19656 -0.0792664 2.338 81 86 74
-0.31196 -1.01207 2.604 123 123 119
0.436643 0.100979 2.057 96 92 93
0.727056 0.525809 2.561 42 38 27
0.249766 -0.909055 2.42 131 129 121
-0.179228 0.21957 0.812 193 195 201
0.371883 -0.381345 2.42 93 119 95
-0.0712932 -0.327411 2.489 48 24 12
0.602915 0.447174 2.638 33 30 27
-0.614865 0.140674 1.232 173 181 178
0.64601 0.288858 2.604 70 68 58
0.672827 0.566136 2.593 14 11 6
-0.111809 -0.355764 2.489 52 18 8
1.08637 0.604907 2.459 77 85 70
0.531411 -0.434855 2.411 38 18 10
0.718541 -0.550685 2.42 120 118 108
0.285813 -0.83567 2.459 132 125 119
-0.503795 0.085586 1.378 186 190 185
0.315379 -0.420233 2.44 50 26 12
-1.07912 -1.17689 3.133 47 55 52
0.450422 -0.769653 2.44 132 125 119
0.196744 0.145648 1.294 152 149 146
-0.183692 0.144684 1.232 165 157 154
0.120432 -0.0219972 1.978 143 133 131
-0.225754 0.0301457 1.659 137 128 131
0.541774 -0.829213 2.44 129 124 120
-0.145157 0.260158 0.71 151 154 153
-0.536907 0.0892307 1.4 177 187 175
0.203189 0.0285213 1.724 161 156 152
0.678228 0.172849 2.519 77 73 62
0.832215 -0.0398312 2.489 98 95 90
1.12372 -0.714333 2.253 111 112 106
-0.172448 -0.802088 2.43 33 14 8
0.681269 0.536598 2.593 28 33 23
0.659381 -0.0710737 2.449 94 90 83
-1.07394 -0.200967 2.294 131 140 131
1.08239 -0.455931 2.338 101 106 96
1.21367 0.141368 2.402 74 75 69
0.910167 0.733178 1.966 10 23 20
-0.444172 0.110535 1.254 180 181 177
0.747391 -0.679295 2.374 127 125 115
-0.076253 -0.118197 2.519 45 30 20
-0.51001 0.156725 1.012 178 186 183
-0.487143 -0.0846703 1.744 176 173 170
0.0734102 -0.0542908 2.107 154 141 145
0.876112 -0.716086 2.42 122 120 112
1.02984 -0.0778179 2.411 89 90 84
0.811151 0.533413 2.499 54 42 40
1.1604 0.130286 2.489 80 80 74
0.260687 0.249897 1.257 105 108 111
0.612621 -0.179686 2.519 87 84 81
1.14436 -0.861769 2.236 113 120 114
-0.319588 0.157173 0.742 107 105 95
-1.42172 -0.399044 2.925 118 115 110
0.861091 0.60699 2.286 57 24 27
-0.167876 0.220129 0.755 173 159 155
0.00479617 -0.00284822 2.099 166 156 156
1.16284 -0.245608 2.402 91 92 86
0.568848 -0.621571 2.42 120 115 111
-0.940952 -0.534654 2.719 37 22 10
1.15714 0.381943 2.32 28 23 19
-0.28625 0.201714 0.688 95 81 64
-0.41401 -0.285754 2.479 163 155 152
-0.292513 -0.944698 2.582 94 84 84
-0.13779 0.148935 1.234 174 166 165
-0.0346888 -0.435018 2.479 57 23 11
0.80466 -0.475359 2.479 116 113 99
-0.555352 0.0373458 1.62 117 119 110
-0.316858 -0.10339 1.935 114 103 107
0.79494 0.600991 2.236 64 31 32
0.946902 -0.015223 2.44 90 92 79
-0.012897 0.226023 1.043 189 189 191
-0.822736 -0.728972 2.768 104 97 87
-0.349854 0.238608 0.701 173 187 191
1.09671 -0.534932 2.42 105 107 89
0.519637 -0.607489 2.411 94 79 69
0.708019 -0.685959 2.411 122 123 112
-0.575618 0.0213023 1.603 129 131 120
0.13883 -0.358369 2.479 53 22 9
0.584888 0.460297 2.615 43 43 43
-0.11322 0.179963 1.187 194 193 193
0.862397 0.169487 2.53 90 88 76
-0.235594 0.187066 1.171 189 188 188
-0.29804 -0.0187499 1.686 170 169 171
1.10093 0.724009 2.158 16 17 8
0.0722664 0.0385753 1.563 1 85 108
0.705353 0.471074 2.604 28 32 25
-0.282497 0.19982 1.048 196 196 196
-1.07972 -0.469742 2.78 35 22 9
0.840802 -0.822968 2.365 125 126 117
-0.0551872 0.213317 1.073 189 189 191
-1.42187 -1.09656 3.181 29 42 37
0.0534338 -0.660902 2.449 53 22 9
-0.218407 0.13427 1.247 184 181 178
-0.364277 0.230829 0.742 81 89 88
0.974666 -0.169383 2.43 96 97 88
-0.509187 -0.925621 2.66 124 122 112
1.03722 -0.640662 2.374 111 111 107
0.121699 -0.647595 2.459 42 21 16
0.662176 -0.628094 2.43 122 118 111
-0.967508 -0.432886 2.719 17 12 8
0.108106 0.290652 0.858 170 173 174
0.214312 -0.530994 2.42 61 25 4
-1.44013 -0.383642 2.953 120 117 114
-1.56352 -0.535492 2.996 103 104 95
-0.212666 -0.0304906 2.121 148 146 136
-0.305023 0.159495 0.736 98 94 83
-0.737658 -0.499323 2.672 55 25 9
-0.347447 -0.225568 2.356 161 150 145
1.19498 -0.0724846 2.365 81 85 78
0.0360639 0.283268 0.78 183 189 189
-0.223444 -0.606031 2.469 60 31 10
-0.747321 -0.778985 2.707 83 80 75
-0.365405 0.170068 1.013 160 161 157
0.162359 0.293492 0.974 159 159 163
-0.985114 -0.528126 2.731 29 18 13
0.273093 -0.627142 2.489 116 109 101
-0.0912683 0.0741204 1.416 81 132 133
0.260732 -0.393885 2.449 54 23 12
0.477307 -0.716686 2.519 129 121 118
0.0181313 0.267982 0.831 147 150 153
0.978893 -0.392503 2.392 111 109 99
-0.090769 -0.167372 2.582 48 23 16
-0.506927 0.107327 1.289 171 172 168
0.133467 0.262578 0.995 180 183 184
-0.83926 -0.953722 2.793 127 125 117
-0.00651948 -0.121811 2.509 50 29 16
0.732024 -0.430984 2.479 117 114 109
-0.0711473 0.262573 0.831 110 109 116
-0.248561 -0.648828 2.479 34 15 9
0.0416437 -0.643593 2.459 49 23 10
0.969359 0.49259 2.519 37 37 31
-0.421242 -1.0433 2.707 127 123 112
0.241439 -0.198007 2.303 181 142 81
0.0437991 0.170359 1.201 165 157 156
1.08086 -0.00327159 2.411 88 89 80
-1.47703 -1.04532 2.857 110 122 114
0.366327 -0.0864766 2.057 166 162 155
0.898029 0.673733 2.212 3 10 16
-0.2132 0.0920856 1.342 111 104 98
0.766641 0.235997 2.582 74 72 62
0.986249 0.581588 2.479 34 27 10
-0.133439 -0.745828 2.44 55 23 19
-0.380629 -0.162206 1.923 150 150 146
-1.45029 -0.613231 3.198 24 25 19
-0.25084 0.215917 0.914 190 193 192
1.0199 0.74266 2.121 4 4 4
0.654487 0.538875 2.604 29 33 26
0.694542 0.351343 2.66 67 65 55
-0.64511 0.021927 1.47 101 103 90
-1.49328 -1.3362 3.467 31 44 31
1.07036 0.424835 2.459 67 69 60
0.101272 -0.401856 2.449 49 20 10
0.726492 0.25183 2.53 74 73 56
0.491886 -0.0229536 2.064 150 149 149
-0.405769 0.149255 1.13 142 152 138
0.644244 0.797241 2.057 7 10 11
-0.646319 -0.494975 2.672 53 23 5
-0.180564 0.0681575 1.487 168 163 161
-0.235798 0.204577 0.937 191 194 195
-0.738911 -0.0436938 1.595 167 172 162
-0.38427 0.035663 1.547 115 116 110
-0.251656 0.2094 0.945 190 193 192
-0.398271 -0.234039 2.253 139 134 130
-0.513884 0.0880197 1.381 186 190 183
0.182134 0.0514242 1.567 0 83 106
0.223572 -0.66093 2.479 103 95 94
0.294284 0.212828 1.419 115 115 117
-0.755418 -0.106335 1.774 163 167 160
-0.257474 0.252699 0.652 186 199 198
1.07282 0.731033 2.158 22 15 5
-0.362787 -0.233236 2.356 160 150 148
-0.0330409 0.277666 0.793 182 188 188
-0.377884 0.0696591 1.419 165 163 153
-0.173302 0.0657377 1.487 166 161 159
-0.175216 -0.577906 2.469 49 23 12
-0.278239 0.251424 0.646 185 197 199
0.0870641 0.192018 1.178 166 166 166
-0.489566 -0.972886 2.695 126 122 113
0.439146 -0.128523 2.204 134 130 121
-0.318024 -0.0996193 1.923 107 98 103
0.201441 0.101786 1.449 161 162 158
0.168955 -0.159345 2.286 175 139 100
1.07292 -0.210428 2.402 93 98 88
0.748165 -0.382574 2.479 115 111 102
-0.458461 0.112576 1.254 162 164 155
-0.0458264 0.258332 0.891 190 190 192
-0.39002 0.0211428 1.591 114 106 103
-0.581415 -0.117152 1.763 130 131 125
-0.0576739 0.192527 1.158 187 186 188
-0.273451 0.228369 0.684 70 57 46
1.09671 -0.200191 2.42 91 96 86
0.65494 0.0792217 2.54 77 73 64
0.290994 -0.557817 2.469 75 48 42
0.87422 -0.243433 2.459 109 102 94
-0.654681 -0.0342186 1.52 135 137 126
-0.0477252 0.180721 1.192 172 168 169
-1.41695 -0.894077 2.925 128 129 125
-0.382851 -0.462256 2.54 57 24 9
0.551721 0.788513 2.181 59 62 61
0.584768 0.720528 2.212 4 10 8
0.835559 0.114543 2.499 92 90 82
-0.100131 0.249032 0.91 115 113 122
-0.344016 -0.553799 2.469 56 22 10
1.08382 -0.034257 2.383 87 89 80
-0.042587 -0.521656 2.469 51 22 10
-0.146204 0.251961 0.751 47 44 41
0.203313 0.102706 1.429 164 161 156
0.451135 -0.0388425 2.017 157 154 149
0.81912 -0.885452 2.347 123 124 113
-0.219768 -0.360052 2.519 103 89 74
0.167795 0.338862 0.878 132 139 143
0.882796 0.723855 1.941 14 22 21
-0.411182 -0.412073 2.615 52 23 11
-1.46628 -0.395117 2.967 116 116 116
1.20083 -0.151163 2.392 88 90 79
0.253851 -0.682529 2.499 118 114 105
0.872173 -0.204129 2.42 99 100 91
-0.249232 0.191688 1.089 184 183 183
0.0939198 0.186541 1.192 139 134 132
0.0404012 0.246699 0.977 190 193 194
-1.44776 -0.967152 3.181 30 33 36
0.0506791 0.233571 1.024 188 188 188
-0.129945 -0.098971 2.449 150 143 137
-0.615942 -0.0143923 1.516 104 117 100
-0.931397 -0.423316 2.743 59 45 30
0.191682 0.315387 0.978 139 146 138
-0.246554 0.253474 0.654 186 198 202
0.906248 -0.61899 2.365 115 117 108
0.429913 -0.799655 2.459 131 124 118
-1.0207 -0.637576 2.743 51 31 23
-0.829604 -0.306618 2.66 52 37 27
-0.94054 -0.840964 2.939 117 118 107
0.789784 0.708515 2.143 12 9 4
0.637738 -0.250453 2.489 93 89 82
0.707219 -0.254399 2.449 106 106 100
0.182118 -0.568254 2.411 63 28 11
0.23266 0.171912 1.369 148 148 142
1.08341 0.604186 2.489 71 73 62
1.13973 -0.0974353 2.411 90 91 78
0.722822 0.0654797 2.489 93 91 79
-1.40387 -1.06503 2.898 134 137 138
-0.135055 0.258218 0.724 166 166 166
0.0297559 -0.372995 2.469 58 25 10
-0.712608 -0.860764 2.743 123 119 108
0.637376 -0.6428 2.411 124 122 114
0.803086 -0.885014 2.356 127 125 113
0.173457 0.311883 0.948 152 155 154
-0.139592 0.209797 1.064 181 181 181
-0.0596966 0.0707672 1.491 95 133 131
0.101444 0.290366 0.849 176 179 178
-0.400615 -0.132421 1.815 127 128 117
0.557639 -0.677979 2.356 128 121 115
-0.221278 0.207079 0.921 191 194 193
-0.368539 0.0282559 1.555 109 110 101
-0.154066 0.134808 1.252 174 170 171
0.679938 0.574107 2.572 8 10 1
-0.00800558 0.217945 1.07 190 189 191
1.07538 -0.643473 2.356 112 114 101
0.788518 -0.221208 2.479 109 102 96
-0.169209 -0.458861 2.499 57 25 5
0.45391 -0.00588498 1.972 153 150 145
0.556272 -0.674115 2.383 125 123 113
0.159203 0.263282 1.036 172 175 176
0.28539 0.219314 1.387 121 125 120
0.660924 -0.599642 2.411 120 118 108
-1.05987 -0.967116 3.198 48 49 43
-0.393353 0.0999348 1.302 152 152 146
0.61218 -0.649138 2.42 125 121 114
1.12403 -0.687435 2.261 112 113 107
0.714105 0.760591 2.085 19 11 10
-0.907289 -0.268867 2.672 38 23 13
-0.295293 0.0287647 1.583 162 158 159
1.17995 0.16607 2.479 78 79 70
-0.0803245 0.279366 0.73 187 190 189
0.87326 -0.0598419 2.479 97 94 89
1.04555 -0.546589 2.402 111 109 101
1.13875 0.692337 2.261 19 12 4
0.978893 -0.400288 2.392 111 107 98
0.0845047 0.264045 0.937 182 182 182
-0.23655 0.172888 1.205 173 168 166
-0.14854 0.253503 0.763 48 43 39
0.678006 -0.749848 2.402 126 124 114
-0.998451 -0.363689 2.731 30 16 10
1.02368 0.725506 2.173 4 8 3
-0.34279 0.242916 0.678 175 194 196
-1.46606 -1.01996 3.391 28 32 27
0.906634 -0.846674 2.356 126 124 116
1.00625 -0.867725 2.261 120 121 110
0.537597 0.641486 2.303 61 43 34
-0.205461 0.217408 0.861 171 174 177
-0.154158 0.208416 1.057 192 192 194
0.58668 0.640825 2.261 55 50 46
-0.481738 0.129747 1.205 145 150 136
0.987552 -0.725515 2.312 117 118 107
-0.775609 -0.917361 2.793 126 123 118
-0.0432593 0.246298 0.963 190 190 192
0.231331 0.11436 1.459 150 142 139
-0.179096 0.194928 1.139 193 192 194
-0.120291 -0.0307062 2.136 158 147 151
-0.257876 0.217073 0.687 91 92 83
-0.976457 -0.254768 2.707 30 16 10
0.359886 0.146795 1.763 122 122 118
-0.253394 0.0367695 1.595 182 179 176
-0.0584726 0.206529 1.102 191 190 192
-0.125806 0.0731347 1.442 119 134 133
-1.00284 -0.244868 2.695 29 23 10
0.43457 -0.713841 2.509 130 123 117
-0.377679 -0.428569 2.561 56 28 11
-0.227583 0.0973142 1.324 108 103 99
-0.46091 0.167923 1.02 175 183 180
0.210613 -0.654246 2.469 92 77 78
0.148734 0.258061 1.022 178 178 178
0.762964 -0.611412 2.411 119 120 111
0.852473 -0.201848 2.489 106 102 93
0.00579206 0.275029 0.808 184 187 188
-0.565018 -0.0591233 1.664 133 138 124
0.715934 0.602467 2.228 62 38 26
1.074 0.191252 2.44 77 78 72
-1.37509 -0.690236 3.318 34 35 29
-0.368272 -0.127713 1.876 151 146 144
-0.308631 0.0622959 1.463 139 139 133
-0.305682 0.188822 0.729 119 121 103
-0.797768 -0.575817 2.684 50 24 11
1.17196 -0.443336 2.312 100 102 93
0.137729 0.032588 1.646 119 133 139
0.672345 0.710749 2.204 4 7 10
0.893437 -0.318027 2.479 111 107 98
0.0106564 0.282905 0.779 186 189 190
-0.434279 0.149634 1.147 142 152 138
1.12252 -0.767163 2.236 116 118 107
-1.18882 -0.132838 2.278 111 119 120
-0.0910911 0.210879 1.106 191 190 192
0.867866 -0.201018 2.43 105 103 93
-0.350645 0.184252 0.749 100 92 78
-0.0955667 0.255094 0.82 58 64 66
-0.0975427 0.132191 1.286 140 139 139
0.14911 -0.557284 2.449 54 23 10
0.15036 0.147849 1.225 147 154 146
-0.345565 0.142743 1.108 140 142 131
-0.327895 0.248222 0.657 180 199 203
0.138719 0.27158 0.975 181 181 183
0.63177 -0.20929 2.53 93 86 78
-1.14527 -0.257931 2.649 109 109 111
0.0176988 -0.802907 2.469 122 107 106
0.597724 0.658106 2.22 31 32 26
-0.465181 0.155534 1.06 138 148 134
0.0506588 -0.94657 2.509 131 124 116
0.0511367 -0.0420007 2.181 161 153 150
0.0221576 -0.269869 2.519 54 23 10
1.06265 0.37433 2.469 78 71 63
0.630132 0.207358 2.54 75 71 62
-0.476974 0.155478 1.048 133 144 125
0.0664511 0.286708 0.779 186 189 190
0.432151 -0.549313 2.449 116 108 105
-0.823103 -0.0910709 1.815 133 135 122
0.770844 0.231795 2.582 75 68 62
1.03033 -0.307458 2.459 105 101 92
-0.31387 -0.157006 2.017 170 165 163
0.916501 0.343648 2.509 78 74 65
0.0812537 0.231618 1.053 182 182 186
-0.69909 0.0968846 1.348 134 158 144
0.400295 -0.706929 2.499 127 123 116
1.18802 0.274992 2.479 71 72 66
0.104051 0.240836 1.041 186 186 186
-0.0379014 0.280084 0.761 184 187 188
-0.678204 -0.986043 2.695 129 126 112
-0.107321 0.253991 0.808 76 76 76
0.119132 0.144684 1.232 125 142 143
0.855757 0.686657 2.151 1 4 3
0.564714 0.750202 2.204 25 30 18
-0.397587 -0.898479 2.582 43 23 24
-0.326246 -0.335435 2.55 151 144 136
-0.081946 0.0831638 1.339 113 142 139
1.21037 -0.352462 2.411 97 98 85
-0.509025 -0.438144 2.593 56 23 8
0.503938 -0.270069 2.411 45 25 15
1.13547 -0.210428 2.402 91 93 84
-0.771554 -0.597656 2.684 44 20 6
0.349687 -0.28406 2.43 104 129 112
-1.4333 -0.443998 2.939 124 116 113
-0.196393 0.216101 0.733 104 95 78
1.14026 -0.85506 2.228 111 118 112
0.147819 0.237016 1.102 178 181 182
0.987221 -0.698305 2.347 122 119 105
-0.357705 0.161916 1.024 166 165 165
0.586809 0.81437 2.128 55 63 52
-0.0745837 0.151107 1.252 141 142 131
-0.26044 0.245459 0.682 135 151 140
0.465938 -0.395494 2.459 64 57 51
0.822676 -0.484047 2.402 114 112 102
-1.385 -1.09333 2.898 131 140 133
-0.0945713 0.201865 1.126 191 190 192
0.59731 -0.836256 2.392 129 125 116
0.949931 0.315334 2.479 78 74 75
-0.158535 0.257629 0.729 129 118 126
0.982214 0.553349 2.479 31 22 5
-0.481899 -0.70363 2.561 49 20 6
-0.552438 0.0118238 1.744 38 43 33
-0.26929 -0.407731 2.561 60 25 10
-0.25816 0.016647 1.659 180 175 171
-0.358147 0.102289 1.305 147 149 140
0.323142 0.185904 1.583 124 124 120
-0.169172 0.221047 0.923 192 192 194
0.161427 -0.101565 2.092 168 160 157
1.04223 0.0324252 2.44 87 88 77
-1.50262 -0.921858 2.953 115 117 106
-0.190293 0.136517 1.249 172 167 165
-0.1757 0.245828 0.712 187 194 198
1.05087 -0.750837 2.286 117 118 105
0.875049 0.287628 2.519 74 72 62
0.891226 0.350641 2.53 65 66 57
0.849567 0.742177 1.923 9 9 11
0.146727 0.304337 0.916 158 164 162
-0.915732 -0.580185 2.684 35 21 13
-0.238637 0.106291 1.302 109 102 92
-0.256566 -0.809359 2.44 43 24 18
0.637376 -0.634953 2.411 122 120 112
-0.0472242 0.272106 0.815 185 188 189
0.831719 -0.40435 2.44 114 112 100
-0.10067 0.263503 0.797 53 51 58
0.117696 -0.531548 2.459 43 19 7
-0.653945 0.0146803 1.463 120 128 115
0.524293 0.657644 2.294 56 40 33
0.206594 -0.7788 2.469 130 123 117
1.09838 0.0967033 2.459 82 87 75
-0.318201 0.183449 0.736 78 69 52
-0.391825 0.0406979 1.547 119 124 114
-1.44113 -1.15347 3.547 35 42 36
-0.206181 0.199785 1.135 195 194 194
0.727642 -0.285763 2.411 111 109 99
0.998767 -0.865408 2.236 122 120 108
-1.21194 -0.43626 2.857 91 79 77
0.416151 0.0361785 1.991 99 94 90
0.479725 -0.866117 2.489 132 128 119
1.13291 -0.29458 2.356 96 96 90
-0.577637 -0.125817 1.805 126 128 117
0.958002 -0.221208 2.479 104 100 89
0.59731 -0.76619 2.392 129 127 117
-0.096335 0.194431 1.147 191 190 192
0.213734 0.133354 1.362 146 143 140
0.584651 0.124689 2.54 76 72 63
-0.322725 0.162016 1.169 135 137 128
-0.0259089 0.285643 0.737 181 187 185
1.11192 -0.850245 2.244 110 119 110
1.16088 0.371517 2.374 51 52 46
-0.661953 -0.0642968 1.591 135 140 130
-0.407659 -0.86733 2.54 29 14 13
-0.235132 0.178395 0.75 107 104 90
0.69446 0.0573789 2.489 92 90 78
0.558523 0.511325 2.572 36 36 36
0.906396 -0.723099 2.269 118 119 108
-0.0381149 -0.841125 2.44 82 70 68
0.61471 -0.446191 2.43 101 97 88
0.597658 0.587961 2.615 19 15 6
-0.233784 0.18941 1.162 186 185 185
-0.252419 -0.0782923 2.107 108 103 101
0.640225 0.549662 2.615 17 17 21
-1.49365 -1.13184 3.429 33 42 35
-0.606171 0.0303904 1.535 91 101 85
-0.1182 0.108916 1.283 97 134 135
-0.0146878 -0.125894 2.509 51 27 13
1.02174 -0.822968 2.365 120 121 108
-0.0844538 -0.962641 2.519 126 122 113
0.123184 -0.79726 2.489 125 122 119
0.390844 -0.316995 2.44 43 36 26
-0.590859 -0.484384 2.638 53 25 8
-1.41062 -0.8149 3.133 23 30 22
-1.42502 -0.694461 3.165 27 24 21
0.0150314 0.0872144 1.442 12 57 55
0.852942 -0.877346 2.356 124 126 110
0.774442 -0.710201 2.374 124 125 114
0.193146 -0.137829 2.181 166 155 148
0.838145 -0.237075 2.519 106 102 95
0.0886718 0.267363 0.917 180 183 184
-0.299563 0.155441 1.222 195 195 195
1.09037 0.104707 2.459 82 87 73
0.677115 0.389586 2.626 62 62 56
0.409899 -0.531548 2.459 111 107 98
-0.526123 0.071279 1.452 173 177 172
1.10124 -0.497598 2.43 105 106 95
0.265833 0.254999 1.262 56 58 64
-1.41031 -1.13765 3.055 32 41 34
0.0441273 0.165729 1.21 168 165 160
1.21596 0.0283379 2.43 79 81 68
1.11041 -0.546233 2.286 103 105 96
0.954846 -0.0509591 2.44 97 95 85
-0.228082 0.227524 0.702 89 78 71
-0.563793 -0.0165568 1.744 59 60 54
-1.37764 -0.739249 2.953 106 110 103
-0.128907 0.276871 0.736 129 125 118
0.200196 -0.420233 2.44 52 19 4
0.761303 0.0129273 2.509 98 94 87
1.18526 -0.143378 2.392 88 90 81
0.468029 -0.768506 2.449 128 123 119
0.48039 -0.501555 2.411 85 78 70
0.10957 0.276316 0.917 183 182 182
0.880052 -0.361654 2.42 110 108 98
0.566199 0.316066 2.55 68 66 58
0.0150749 0.208323 1.102 188 187 187
0.746643 0.353911 2.615 65 65 59
0.174656 0.0772936 1.524 40 59 59
0.400388 -0.147083 2.269 145 143 135
0.434534 -0.5195 2.44 112 108 101
0.0599976 0.11199 1.345 136 156 151
0.104871 -0.606855 2.44 52 19 4
0.93379 0.557383 2.479 9 9 3
-0.358135 0.168269 0.765 121 115 100
-0.573585 -0.0476534 1.642 127 132 122
0.794605 -0.615142 2.365 120 116 109
-0.306249 0.0670575 1.463 137 133 126
-0.648016 -0.631748 2.626 47 26 11
0.0336382 -0.115382 2.459 49 25 13
-0.758447 -0.597656 2.684 46 22 8
0.0986021 0.0813422 1.463 0 84 100
0.768404 0.724128 2.212 5 5 5
0.0706181 0.248289 0.977 187 187 187
-0.082363 -0.238802 2.582 49 23 12
0.778956 0.697985 1.966 5 6 2
-0.500989 -0.21191 1.978 158 157 157
-1.41331 -1.06503 2.898 123 127 122
-0.65359 -0.457888 2.684 54 24 6
0.966341 0.0245741 2.449 90 92 76
-0.100252 0.0745357 1.381 41 120 120
-0.320242 0.0899017 1.342 148 144 133
-0.35518 0.236061 0.714 170 189 191
0.859362 0.686728 2.196 4 7 6
0.942268 0.264771 2.459 83 79 68
0.238483 0.201189 1.327 147 147 143
0.862568 -0.735576 2.32 126 122 113
0.820962 -0.479798 2.42 115 116 105
0.872173 0.0085306 2.42 94 90 81
-0.36429 0.216807 0.752 67 58 53
-0.130673 0.244354 0.798 58 53 63
1.18735 -0.44487 2.32 98 100 91
-0.958656 -0.419612 2.719 17 12 8
-0.736602 -0.615127 2.684 50 24 9
-0.138921 0.176842 1.192 190 189 189
-0.47773 -0.661954 2.561 54 26 7
0.131191 0.321291 0.836 153 164 162
0.766889 -0.603565 2.411 120 120 114
0.107605 0.276597 0.913 183 184 180
-0.120157 0.209986 1.092 189 188 190
0.246785 -0.851122 2.469 134 127 119
0.507863 -0.340692 2.411 34 18 13
-0.29242 0.237797 0.692 102 105 104
0.43568 -0.236387 2.469 36 27 18
0.899462 0.346524 2.53 66 67 58
0.791859 0.488103 2.582 28 24 25
-0.221748 0.216557 0.711 117 110 91
-0.356052 0.113115 1.26 150 152 141
0.90224 -0.323465 2.459 111 109 101
1.19113 -0.307251 2.365 92 97 87
-0.547917 -0.368476 2.638 58 32 19
-0.641051 0.0368724 1.494 70 80 66
-0.0378025 -0.818478 2.42 50 37 43
-1.44013 -0.878608 2.953 112 112 112
-0.86953 -0.665897 2.731 40 22 13
-0.44397 -0.241639 2.189 129 124 122
-0.497489 0.113563 1.265 173 173 167
-0.326246 -0.912242 2.55 91 77 71
0.484874 -0.15536 2.338 120 117 114
0.840802 -0.630536 2.365 119 115 106
-0.0494288 0.284117 0.73 183 186 187
-0.0330574 0.240949 0.986 189 189 191
-0.527985 -0.0332963 1.729 104 102 94
0.56403 -0.0730362 2.383 84 80 73
0.865718 -0.228351 2.469 106 102 95
0.246785 -0.802907 2.469 133 124 117
-0.124744 0.168966 1.205 149 146 143
0.459997 -0.163597 2.347 91 96 84
0.59028 -0.803663 2.411 129 130 119
-0.156102 0.0602479 1.532 168 163 161
-0.589049 -0.0633367 1.633 122 122 116
-0.143583 0.146689 1.232 173 165 162
-0.143317 0.273971 0.701 129 135 135
-0.630917 -0.584741 2.626 55 27 10
-0.448512 0.102252 1.278 186 186 186
0.600544 -0.810647 2.374 129 125 114
0.548128 0.680017 2.269 39 38 38
0.14697 0.136299 1.247 21 135 130
-0.409598 -0.951594 2.66 102 91 86
0.703676 -0.755551 2.383 131 129 119
-0.337829 0.192094 0.737 96 90 75
-1.50754 -1.26155 3.448 34 41 35
0.0982155 0.288998 0.845 174 177 176
-0.0799192 0.272825 0.772 105 111 111
-0.932646 -0.582563 2.695 35 24 17
-1.46736 -1.23279 3.81 40 46 46
-0.0175927 0.264123 0.858 187 187 187
1.03319 -0.808334 2.356 119 121 112
1.14549 -0.00331094 2.44 86 88 75
-0.586697 0.0487494 1.563 93 95 86
-0.498339 -0.990428 2.695 126 122 113
-0.365259 0.222292 0.754 46 46 40
-0.161829 0.134485 1.249 172 169 166
0.52635 0.637738 2.303 59 46 35
-0.694443 -0.42657 2.707 57 26 13
1.06124 0.0124224 2.411 87 89 80
-0.152733 0.255862 0.724 151 151 147
0.813328 0.464346 2.638 60 61 52
-0.333687 0.239289 0.703 173 187 191
-0.175956 0.140902 1.234 157 149 146
-0.356154 0.131768 1.154 186 187 183
0.969004 0.62187 2.286 27 35 22
0.448561 -0.0286218 1.991 157 153 154
-1.42913 -0.761895 2.911 93 95 86
-0.277231 -0.0134513 1.71 161 158 153
0.122194 -0.320762 2.469 53 23 7
0.552232 -0.216298 2.469 80 69 62
-0.23004 0.219215 0.701 128 118 104
-0.226736 0.196528 1.005 189 189 189
0.0341854 -0.499528 2.499 52 24 7
-1.43633 -0.629492 3.026 130 134 127
-1.35982 -0.951196 2.925 69 70 61
-0.482082 -0.524257 2.54 56 22 10
-1.4803 -1.19343 3.336 32 38 36
-1.34077 -0.475203 2.925 131 120 113
-0.426883 0.0239109 1.603 129 125 116
0.207964 0.291769 1.079 144 144 148
-0.585162 -0.058164 1.637 136 133 130
0.249783 -0.666262 2.499 114 110 103
0.282518 0.172674 1.491 140 139 139
-0.301021 -0.600418 2.479 49 23 8
0.857155 -0.532943 2.411 113 114 103
0.371883 -0.830292 2.42 133 129 118
-0.809219 -0.765007 2.768 118 111 101
0.306176 -0.307787 2.43 92 105 100
0.592423 -0.236387 2.469 87 85 77
-0.263513 0.205436 0.693 152 130 106
1.06137 -0.674003 2.253 112 114 103
-1.46398 -0.697982 2.982 62 61 61
0.736709 0.735662 2.151 8 8 8
0.630506 -0.808334 2.356 129 125 118
0.75119 -0.752658 2.411 129 127 119
1.16933 0.437435 2.44 55 65 53
-0.0175599 -0.0795716 2.347 149 141 138
0.224657 0.055662 1.616 102 121 79
0.77952 0.698086 2.244 10 5 3
-0.481247 0.0638809 1.445 157 161 154
-0.39744 -1.01674 2.695 127 123 112
-0.0999212 0.236007 1.013 194 194 196
0.378435 -0.740554 2.489 129 124 120
-1.35954 -0.40753 2.884 124 116 113
0.839627 0.126743 2.499 89 90 81
1.07564 -0.645931 2.365 112 114 101
-0.364467 -0.784196 2.499 64 24 9
-0.215264 0.185445 1.185 198 194 195
-0.19835 0.247215 0.69 183 193 196
0.775493 0.539379 2.489 59 30 20
-0.00653312 0.203705 1.116 189 188 190
-0.172232 0.218754 0.742 121 104 90
-0.117227 0.239186 0.992 190 190 192
-0.98956 -0.465906 2.731 31 15 20
1.06041 -0.408866 2.374 102 104 95
0.947185 0.447985 2.593 60 61 52
-0.399965 0.155182 1.094 156 161 147
-0.218073 0.202961 0.809 133 113 103
-0.668066 -0.934145 2.672 130 127 113
0.0505823 0.104202 1.387 151 163 153
-0.332206 0.0107594 1.587 183 179 180
1.05732 -0.365592 2.42 102 103 99
0.905832 -0.482268 2.374 114 112 102
0.819404 0.249671 2.55 73 69 62
-0.69614 0.0246004 1.487 83 96 83
-0.472563 -0.00501955 1.682 89 91 73
0.0290589 0.248088 0.97 193 193 195
-0.0300476 -0.723 2.43 61 24 8
0.145301 0.280077 0.966 173 176 175
-0.444833 -0.0587887 1.734 173 173 173
-0.320761 0.223593 0.715 55 57 46
0.184105 0.130907 1.294 168 164 165
-0.17277 0.199322 1.122 190 190 190
-0.985212 -0.5966 2.719 26 21 19
0.150759 0.0351809 1.642 99 123 133
0.0278032 0.278118 0.798 186 189 188
0.638071 0.239268 2.572 70 68 56
-0.304562 0.237355 0.694 150 158 159
-0.754037 -1.02529 2.638 139 132 126
-0.125557 0.231332 1.007 185 188 187
0.583638 -0.421783 2.449 100 96 87
-0.593179 0.123809 1.308 139 153 144
0.843694 0.114543 2.499 92 88 79
-0.636421 0.0841027 1.429 137 146 139
-1.00734 -0.585901 2.731 22 15 7
-0.295638 0.216584 0.689 107 101 86
0.0957698 0.272742 0.886 183 183 179
0.167284 0.258763 1.066 169 169 169
-0.042925 0.190225 1.167 187 186 188
0.23459 -0.259081 2.347 128 97 68
0.44645 -0.217728 2.44 27 18 11
-1.15009 -0.248383 2.509 142 149 141
0.743527 -0.671569 2.374 123 124 111
-0.442493 -0.0497429 1.714 177 177 173
0.726419 -0.554623 2.42 118 119 108
-0.571763 -0.878686 2.649 124 117 109
-0.0164139 0.185476 1.173 189 188 190
0.713196 -0.140069 2.402 104 100 91
-0.564654 -0.010132 1.624 129 130 126
-0.411182 -0.365263 2.615 71 47 33
0.619804 0.622428 2.261 64 42 34
1.06516 0.000651899 2.411 88 89 83
-1.4196 -0.888048 3.086 37 43 41
-0.466067 -0.0529919 1.729 180 180 176
0.833102 0.574086 2.365 57 30 22
1.15365 -0.216519 2.383 94 93 78
-1.40028 -0.616866 3.301 20 24 17
0.862692 -0.381929 2.449 113 109 98
-0.72646 -0.547478 2.695 55 27 10
0.115536 0.299359 0.851 175 175 175
0.114965 0.0260738 1.748 149 149 153
0.538713 -0.717928 2.374 128 124 117
0.753058 0.572855 2.392 62 27 22
0.0214569 0.138485 1.267 174 171 166
-0.437332 -0.135966 1.784 133 135 126
-0.446243 0.162133 1.081 128 136 123
-0.109159 -0.699273 2.43 61 26 11
-0.357832 0.156767 1.034 179 179 179
0.250804 -0.34487 2.469 51 22 8
0.329909 -0.315696 2.43 98 134 116
0.0470296 0.259254 0.92 188 188 190
-0.765942 -0.582563 2.695 43 22 9
-1.01764 -0.841237 3.026 46 43 40
0.647231 0.65695 2.204 22 23 19
0.111062 0.276316 0.917 184 183 183
0.0400788 0.0134577 1.985 156 148 145
1.1307 -0.656293 2.32 110 111 100
0.112353 -0.465963 2.43 52 23 9
1.03452 0.722464 2.196 3 6 9
0.270708 0.0521803 1.673 152 149 146
-0.943828 -0.735556 2.793 42 43 34
-0.191538 0.217947 0.831 188 191 192
1.15041 0.160729 2.459 77 78 72
0.0425099 0.09506 1.419 87 106 106
-0.383121 0.1856 0.999 99 109 95
0.536876 -0.840865 2.383 135 128 120
-0.443119 -0.84333 2.53 43 17 13
0.959425 -0.411966 2.392 109 105 98
-0.464987 -0.999214 2.731 125 121 110
0.328056 -0.141378 2.181 161 154 148
-0.80725 -0.590636 2.672 44 20 8
0.388299 -0.298237 2.449 36 26 26
-1.40387 -0.928268 2.898 126 130 125
-1.05805 -0.800847 2.831 51 37 22
1.17188 0.33547 2.365 58 63 53
-0.300996 0.240826 0.691 140 147 151
-0.600235 0.0204518 1.539 100 103 87
-0.0722561 0.255122 0.895 128 115 119
-0.154018 0.00686326 1.947 159 151 150
-0.381518 0.20119 1.012 85 89 84
0.0341854 -0.914331 2.499 129 122 112
0.180565 0.16007 1.227 140 134 136
-0.235478 0.0171588 1.71 146 143 138
0.885814 -0.111833 2.469 99 97 87
-0.264583 0.247682 0.67 183 194 194
-0.381018 0.200489 0.737 138 127 118
-0.471958 0.135614 1.171 161 169 158
-0.326847 0.163131 1.137 130 135 125
0.637733 0.686728 2.196 17 18 9
0.305866 0.0065319 1.853 144 140 133
0.775047 0.21919 2.582 72 73 64
-0.289476 -0.437938 2.519 54 24 8
-0.247104 0.171757 0.753 139 139 133
0.343182 -0.793477 2.44 133 124 119
0.903513 0.594164 2.338 58 28 21
-0.299381 -0.536128 2.499 52 24 7
0.489904 -0.685135 2.479 126 122 115
-0.163227 0.222063 0.745 140 122 113
-0.654946 -0.0756385 1.612 172 173 169
0.000580941 0.260618 0.884 191 190 190
-0.307844 -0.746657 2.469 60 26 2
0.0751451 0.0530253 1.47 0 82 104
-0.33551 0.148068 1.135 126 124 114
0.752036 0.254834 2.519 74 72 62
-0.00213851 0.270759 0.823 120 122 130
-1.20865 -0.709669 3.011 24 29 19
-0.0742082 0.27368 0.778 97 119 120
0.00288372 0.288041 0.737 185 193 190
-0.421067 -0.165348 1.853 175 171 172
1.0726 -0.796947 2.269 116 118 109
-1.31968 -1.28297 3.301 36 47 47
-0.730145 -0.908271 2.793 125 123 113
-0.835955 -0.0563875 1.587 164 172 171
-1.39079 -0.288891 2.871 69 77 76
0.911377 -0.335468 2.43 108 106 98
-0.367536 0.0578096 1.47 179 179 179
-0.5933 0.0412241 1.567 101 102 96
0.0460177 -0.818262 2.479 123 116 108
-0.142408 -0.143373 2.604 27 17 15
-0.273459 -0.780462 2.449 39 19 11
0.40897 0.096806 1.972 118 115 112
1.01045 -0.0549298 2.44 91 92 81
-0.479722 -0.182081 1.87 181 180 180
0.967045 -0.689882 2.411 117 118 107
0.931327 0.4883 2.561 42 39 36
1.06367 0.472094 2.519 70 68 60
0.886479 0.166023 2.54 87 85 73
1.14977 0.528042 2.383 48 53 41
0.658071 -0.951716 2.459 125 127 111
0.558831 -0.689159 2.329 126 124 116
-0.335537 0.225336 0.732 54 52 44
-0.414667 -0.114996 1.774 152 152 146
0.708975 -0.216298 2.469 108 104 95
0.241842 -0.0785019 2.024 178 168 166
-0.183889 0.159157 1.22 99 88 83
-0.190517 -0.703617 2.459 37 24 13
0.0623469 0.188823 1.182 178 178 178
0.961866 0.344959 2.489 75 76 67
0.5745 0.606544 2.55 52 41 5
0.0823357 -0.806159 2.479 124 117 111
-0.219425 -0.489513 2.469 55 21 9
-0.86703 -0.899519 2.78 130 126 115
-0.135242 0.255036 0.725 177 183 183
0.0123001 -0.0391391 2.22 160 153 147
-0.346477 -0.0731472 1.81 135 133 121
0.82006 0.134337 2.489 90 87 82
-0.177242 0.196782 1.139 193 192 194
-1.45828 -0.679721 3.373 15 16 10
-1.18112 -0.204972 2.43 111 133 132
1.05034 -0.307458 2.459 105 103 91
-0.0228828 0.203705 1.116 187 186 188
0.230678 0.06304 1.603 111 131 73
-0.611248 -0.578036 2.615 54 24 6
0.120432 -0.0187783 1.978 140 131 126
-0.0843849 0.160746 1.217 170 165 163
-0.120432 0.256362 0.799 77 84 76
-0.218443 0.0876373 1.375 137 132 128
-0.287915 0.245867 0.671 180 194 198
-0.117378 0.0974404 1.297 131 158 153
0.772046 0.205784 2.572 76 73 68
0.153867 -0.0856358 2.037 174 166 163
0.665422 0.75974 2.092 33 42 33
-0.949804 -0.52138 2.719 34 26 12
-0.408414 0.1762 0.974 137 150 137
-0.909432 -1.02241 2.871 128 129 123
0.629974 -0.778818 2.383 127 128 119
0.376123 0.0328392 1.985 84 80 81
1.19498 -0.307251 2.365 93 98 88
-0.092839 0.277691 0.735 187 188 184
0.132869 0.228309 1.112 182 182 184
-0.200651 0.242608 0.706 170 183 182
1.16742 -0.290746 2.356 94 96 87
0.193069 0.115198 1.357 163 164 155
0.61853 0.692816 2.204 11 10 17
-0.141132 0.236976 0.957 193 192 192
0.81273 -0.188935 2.479 104 100 89
0.617516 -0.807573 2.365 128 124 115
0.135493 0.110253 1.378 127 153 151
0.808307 0.677701 1.991 11 11 7
0.0823237 0.062594 1.47 0 80 87
1.04869 -0.430407 2.365 103 104 95
1.10238 0.0526857 2.459 85 87 71
1.19113 -0.211035 2.365 86 94 81
-0.709357 -0.265376 2.44 160 157 154
0.000684117 0.22559 1.041 189 189 191
-0.137223 0.263745 0.723 148 151 150
0.740566 -0.859296 2.402 132 128 119
-0.631323 0.00526641 1.494 111 113 100
0.113628 -0.157753 2.374 59 32 24
0.795416 -0.84284 2.356 125 125 119
-0.0490274 0.270759 0.823 181 184 187
-0.438983 -0.269788 2.374 162 158 151
1.05339 -0.030736 2.411 89 90 79
0.629635 -0.153243 2.489 89 87 75
1.07127 -0.831982 2.347 123 119 108
-0.500206 0.17422 0.999 180 188 187
-0.156129 0.168966 1.205 163 158 154
-0.200518 0.217886 0.735 93 86 67
-1.34545 -0.398144 2.884 120 116 109
-0.593323 -0.887307 2.649 122 123 114
-0.918936 -0.171494 2.158 133 140 132
0.19542 -0.458054 2.43 41 19 11
-0.324757 0.0742774 1.419 181 181 177
-0.381307 0.000438024 1.62 107 103 104
-0.0469836 -0.347663 2.489 55 24 11
0.866773 0.676784 2.037 11 17 17
0.966195 -0.280584 2.469 107 103 96
-0.12757 0.250609 0.905 192 192 192
0.230589 0.000482368 1.784 162 153 148
0.789421 0.582983 2.294 60 28 22
-0.0267255 -0.41652 2.489 53 22 9
-0.142288 0.257776 0.713 168 168 170
0.00162913 -0.467291 2.479 54 24 8
-1.33012 -0.259286 2.755 104 117 114
-0.59635 0.0282559 1.555 100 105 93
-0.978285 -1.05756 3.011 114 112 104
-0.252037 0.211749 0.935 190 193 192
0.0894317 0.223792 1.09 184 183 183
-0.249976 0.246034 0.693 118 126 123
-0.5176 -0.880174 2.615 104 101 96
-0.500583 -0.53462 2.55 56 22 10
0.468029 -0.561269 2.449 118 111 105
-1.57327 -0.472111 2.996 101 103 94
-0.103818 -0.168085 2.593 42 20 12
-0.327156 0.221695 0.724 74 62 62
-1.07374 -0.842426 2.911 46 38 24
-0.205914 0.249099 0.689 181 194 191
0.248468 -0.0476032 1.972 166 158 157
0.2777 -0.146456 2.204 165 158 150
-0.179246 0.253844 0.669 188 195 199
-0.0779479 0.280554 0.73 186 189 190
0.457621 -0.870706 2.479 134 127 117
-0.336042 -0.431616 2.53 60 25 8
-0.202328 0.240218 0.716 155 161 163
-0.209888 -0.332793 2.499 164 156 144
-0.356332 -0.292126 2.499 165 157 156
0.195541 0.275465 1.098 149 148 155
0.102926 -0.886369 2.489 129 125 118
0.100009 0.258871 0.969 189 189 189
-0.606259 -0.473471 2.649 54 24 8
0.895129 -0.819836 2.356 124 122 110
0.0135689 -0.852198 2.449 123 113 113
0.117267 -0.130038 2.294 139 130 123
-0.369225 0.232509 0.721 143 165 164
-0.0024159 -0.493478 2.489 51 22 8
1.11624 0.354478 2.499 70 74 67
0.0673931 0.288752 0.761 183 189 187
0.692152 0.285892 2.54 70 66 57
-0.245818 0.220414 0.694 65 49 42
0.986984 -0.455225 2.374 110 108 98
0.701466 -0.140069 2.402 107 100 92
1.07587 -0.0418542 2.374 88 90 81
0.73614 0.342494 2.593 65 65 59
-1.1757 -0.290133 2.793 93 78 79
0.0634546 0.174558 1.203 163 156 150
0.701114 0.471074 2.604 27 31 24
-0.156572 0.196436 1.137 182 181 181
1.03214 -0.675069 2.294 115 117 108
0.784606 0.494583 2.572 30 27 24
-0.397856 0.150964 0.772 87 68 62
-0.374688 0.205645 0.734 128 126 105
-0.402882 0.171065 0.772 104 97 80
1.05811 0.278607 2.44 72 77 63
-0.23952 -0.602014 2.469 65 37 20
-1.42648 -1.01308 2.925 118 129 125
1.13075 0.584532 2.392 60 64 57
-0.461356 -0.183249 1.882 181 180 180
-0.616257 -0.0531268 1.567 134 142 129
0.0251996 0.23905 1.005 193 193 195
0.802094 0.213239 2.561 71 73 64
0.682424 0.577496 2.55 11 11 5
-0.868886 -0.673286 2.743 43 21 11
0.982787 -0.392503 2.392 110 108 98
-0.00958425 0.133761 1.281 165 162 159
0.966716 -0.0977991 2.42 96 95 80
-0.318879 0.207593 0.716 97 90 80
0.86005 -0.734449 2.365 125 121 112
-0.230512 0.207143 0.928 192 196 191
0.0293549 0.147032 1.252 166 158 157
0.487962 -0.421783 2.449 25 23 15
-1.45652 -0.600767 3.133 121 123 114
0.537334 -0.657014 2.42 125 120 116
-0.23242 -0.241379 2.479 161 150 143
-0.398707 0.187942 0.764 73 57 50
0.102512 -0.82633 2.479 127 120 114
-0.117028 0.273532 0.76 168 169 163
-0.2325 0.241117 0.705 64 68 61
-1.3499 -0.666927 3.283 30 34 27
0.00571016 -0.536128 2.499 52 24 7
0.0449572 0.226674 1.046 191 190 192
-0.389304 0.160598 0.77 99 78 73
0.982295 0.584899 2.459 45 47 31
-1.51694 -0.67988 2.925 98 109 105
0.925402 0.284202 2.489 80 80 74
-0.719048 -0.303984 2.53 165 156 149
-0.862455 -0.499236 2.695 46 25 12
0.131815 -0.735396 2.499 118 111 105
-0.213086 0.242692 0.713 143 155 159
-0.0694613 0.197938 1.135 190 190 190
-0.0547583 0.226998 1.032 193 193 195
-0.0349687 -0.898064 2.499 124 117 109
1.20653 0.135342 2.365 71 72 66
1.05728 -0.151795 2.402 91 93 84
-0.41306 0.161922 1.068 171 178 170
-0.303011 0.0563222 1.494 143 141 131
-0.677007 -0.0921134 1.673 131 138 132
-1.04127 -0.14001 2.107 127 135 122
-0.154835 -0.415147 2.53 51 22 10
0.839093 0.421417 2.638 65 63 53
0.140407 0.189045 1.208 162 157 153
-0.143358 0.222044 1.017 190 190 192
-0.154835 -0.406913 2.53 49 23 10
-0.0569238 -0.158353 2.572 49 24 15
0.68119 0.13655 2.53 77 73 66
-0.397151 0.151484 1.106 149 158 140
0.790162 -0.267442 2.459 109 105 98
0.704555 0.252825 2.54 71 69 59
0.0360432 0.277658 0.808 185 191 189
1.1258 0.172031 2.449 79 76 71
1.07036 0.420833 2.459 67 68 62
0.679313 -0.130854 2.449 93 90 85
1.1547 0.52568 2.338 10 6 0
-0.439 -0.666293 2.53 60 25 8
-0.186965 -0.388747 2.519 52 21 8
-0.506856 0.159544 1.009 178 189 187
0.530984 -0.714065 2.374 127 123 114
0.292057 -0.0114921 1.842 146 141 137
-1.41491 -0.908746 2.911 125 126 122
0.766713 -0.911092 2.374 127 125 117
-0.66386 -0.647514 2.638 49 25 11
0.0868941 0.104427 1.39 125 156 154
-0.135139 0.219234 1.043 185 185 185
-0.153016 -0.0920768 2.374 154 142 140
0.141137 -0.254399 2.449 90 63 41
0.0545166 0.200489 1.139 188 187 189
-0.714597 -0.873114 2.768 125 123 111
0.876476 0.749124 1.941 0 8 9
1.04484 -0.649779 2.365 113 114 105
0.163047 0.264045 1.039 167 170 173
0.99432 -0.225242 2.479 105 102 88
-0.801038 -1.02551 2.695 129 127 117
0.920984 0.321945 2.499 76 77 68
0.2731 -0.278566 2.383 122 87 59
0.328382 -0.701592 2.509 124 117 107
0.855595 -0.810647 2.374 124 125 112
-0.515271 -0.339645 2.582 145 138 128
1.09071 -0.743664 2.253 114 118 111
0.719232 0.271231 2.519 72 69 55
-0.51501 0.113091 1.283 175 176 170
0.065691 0.193112 1.173 183 183 183
0.120568 -0.974938 2.519 131 126 108
-0.617525 -0.0894155 1.624 124 132 121
0.360819 -0.0315577 1.972 159 154 152
-0.0984533 -0.659599 2.459 51 22 10
0.375723 -0.00266775 1.966 143 140 135
0.956768 0.393361 2.54 70 66 67
-0.00964713 0.220874 1.059 189 188 190
1.07498 0.711237 2.228 12 13 9
-0.242553 -0.295454 2.459 167 157 155
0.484176 -0.497598 2.43 80 73 65
-0.322069 0.136664 1.232 180 180 180
1.08275 0.0770072 2.469 84 86 77
0.167889 0.134361 1.267 166 167 161
-0.681001 0.0923134 1.378 154 164 152
-0.377817 0.175049 0.762 113 112 97
0.607557 -0.421783 2.449 100 98 90
-0.413353 -0.168909 1.859 174 170 171
0.240168 0.00335706 1.769 160 153 147
-0.247734 -0.137386 2.356 160 151 146
1.09001 -0.740694 2.244 113 117 110
0.970108 -0.253481 2.479 107 103 94
0.0414744 -0.62902 2.449 50 24 9
-0.204313 0.246744 0.695 180 193 192
0.826187 -0.303457 2.459 113 106 100
-0.0562155 -0.131582 2.54 47 25 15
-1.42913 -0.75242 2.911 94 92 84
-0.0184614 0.27965 0.777 186 189 190
0.283604 -0.539353 2.44 57 30 22
1.1399 -0.5332 2.278 98 103 91
-0.345409 -0.265583 2.479 165 157 156
0.0325359 0.288466 0.757 182 188 188
0.683704 -0.297378 2.509 106 106 100
0.0619083 -0.445316 2.469 55 22 7
1.17304 -0.371636 2.383 100 98 86
-0.27745 0.133301 1.257 199 199 199
-0.678296 -0.0698243 1.599 169 172 171
0.424523 0.772516 2.166 122 133 133
0.0426598 -0.253472 2.519 57 23 11
-0.271684 0.11473 1.278 189 188 188
0.839627 -0.267726 2.499 107 103 96
0.982787 -0.692231 2.392 119 117 105
-0.768531 0.03126 1.459 93 103 91
0.719315 0.769841 1.978 11 13 4
-0.427049 0.0498818 1.52 167 168 164
-0.17282 0.124346 1.27 177 172 168
0.888528 0.391462 2.582 65 66 55
-0.325283 -0.238458 2.449 165 156 151
-0.0864363 0.10891 1.308 9 111 110
0.908333 0.241573 2.509 86 82 71
0.900338 0.428698 2.604 63 60 55
