ply
format ascii 1.0
comment Created by Open3D
element vertex 1291
property double x
property double y
property double z
property uchar red
property uchar green
property uchar blue
end_header
0.0531042 0.216809 1.073 255 255 255
0.66478 0.312684 1.599 255 255 255
0.206351 -0.137362 0.995 255 255 255
-0.262009 0.329782 1.242 255 255 255
0.354876 0.348771 1.139 255 255 255
0.0591864 0.160719 1.027 255 255 255
0.0278188 -0.352379 1.275 255 255 255
0.425301 -0.0364902 1.027 255 255 255
-0.189453 0.41679 1.299 255 255 255
-0.246038 -0.448343 1.459 255 255 255
-0.0250323 0.0596348 0.986 255 255 255
0.653434 0.29497 1.616 255 255 255
0.516668 -0.325189 1.205 255 255 255
-0.794811 0.247776 1.567 255 255 255
-0.290407 0.259467 1.154 255 255 255
0.603848 -0.520177 1.403 255 255 255
-0.0168237 0.336797 1.077 255 255 255
-0.686779 -0.0339092 1.316 255 255 255
0.289291 0.214718 0.969 255 255 255
0.258518 -0.145935 0.966 0 0 0
0.0646764 0.251846 0.937 255 255 255
-0.326038 -0.326457 1.33 255 255 255
0.0825367 0.0503021 0.932 255 255 255
0.244691 -0.252506 1.094 255 255 255
0.198199 -0.195469 1.046 255 255 255
0.247817 -0.375144 1.254 255 255 255
-0.0285574 -0.0484038 0.997 255 255 255
-0.243238 0.215496 1.102 255 255 255
0.018693 0.290326 1.007 255 255 255
0.16115 0.210462 0.986 255 255 255
-0.248399 -0.469425 1.473 255 255 255
-0.65757 0.569682 1.612 255 255 255
-0.641469 0.0384106 1.375 255 255 255
-0.304969 -0.272099 1.278 255 255 255
-0.240714 -0.468468 1.47 255 255 255
0.0700243 -0.485284 1.463 255 255 255
-0.125227 -0.48244 1.491 255 255 255
-0.35524 0.132603 1.145 255 255 255
0.375278 -0.0933374 1.046 255 255 255
0.0539455 0.390528 1.09 255 255 255
0.192743 0.0281034 0.66 255 255 255
-0.0194011 -0.300814 1.242 255 255 255
0.250976 -0.258876 1.106 255 255 255
0.106174 -0.262364 1.098 255 255 255
-0.0850805 0.038189 1.013 255 255 255
0.221156 0.214256 0.802 255 255 255
0.0355379 -0.19061 1.02 255 255 255
-0.902874 0.384459 1.815 255 255 255
-0.555187 0.199623 1.289 255 255 255
-0.180572 -0.268568 1.281 255 255 255
0.0363392 -0.206789 1.043 255 255 255
-0.419213 -0.169949 1.189 255 255 255
0.10704 -0.0240663 0.934 255 255 255
0.0342097 0.151132 1.03 255 255 255
-0.59082 -0.113484 1.249 255 255 255
0.184034 0.266812 0.811 255 255 255
-0.147007 -0.22842 1.244 255 255 255
-0.291601 0.389504 1.351 255 255 255
0.333066 -0.327887 1.215 255 255 255
0.089252 0.25259 0.923 255 255 255
0.297775 -0.210662 1.037 255 255 255
-0.670446 -0.278549 1.339 255 255 255
-0.28681 0.142228 1.104 255 255 255
-0.215543 0.198201 1.126 255 255 255
0.142927 0.243835 0.841 255 255 255
0.0446079 -0.173854 1 255 255 255
-0.0447866 -0.0516487 0.997 255 255 255
0.273987 0.0894297 0.884 255 255 255
-0.573099 0.52927 1.633 255 255 255
0.339377 -0.282417 1.143 255 255 255
-0.173854 -0.00649473 1.041 255 255 255
-0.0275964 -0.151832 1.087 255 255 255
0.400075 -0.272638 1.141 255 255 255
-0.133911 0.384538 1.217 255 255 255
0.0854977 -0.271966 1.108 255 255 255
-0.155051 0.406327 1.26 255 255 255
-0.677609 -0.0254007 1.319 255 255 255
0.834852 0.131323 1.748 255 255 255
-0.607584 -0.0697595 1.267 255 255 255
0.0609166 -0.582438 1.599 255 255 255
0.121638 -0.181953 1.018 255 255 255
-0.155622 -0.121868 1.104 255 255 255
0.111394 0.236135 0.986 255 255 255
-0.412931 -0.307747 1.324 255 255 255
0.0442938 -0.0200077 0.958 255 255 255
0.506019 0.068844 1.203 255 255 255
0.754137 0.319051 1.579 255 255 255
-0.535805 -0.210201 1.244 255 255 255
0.168291 0.136062 0.726 255 255 255
-0.0459906 0.0131295 0.988 255 255 255
0.071839 -0.0740801 0.972 255 255 255
-0.538884 -0.600608 1.71 255 255 255
-1.38596 -0.855096 2.768 255 255 255
0.289905 -0.480388 1.387 255 255 255
0.409448 -0.112258 1.064 255 255 255
0.462381 -0.292145 1.167 255 255 255
-0.0266063 -0.115687 1.048 255 255 255
-0.17988 -0.318985 1.291 255 255 255
-0.662278 -0.0147575 1.327 255 255 255
-0.372386 -0.17455 1.194 255 255 255
-0.014175 -0.0920412 1.013 255 255 255
-0.0867881 0.124497 1.075 255 255 255
-0.367703 0.119978 1.149 255 255 255
-0.418801 -0.268148 1.289 255 255 255
-0.410278 0.125135 1.18 255 255 255
0.0257408 -0.0122893 0.964 255 255 255
0.243821 0.334956 0.879 255 255 255
-0.0057194 0.0575006 0.977 255 255 255
-0.0263271 0.121783 1.037 255 255 255
0.725863 0.321621 1.579 255 255 255
-0.508001 -0.532085 1.612 255 255 255
-0.128264 0.40762 1.239 255 255 255
0.483605 0.469131 1.412 255 255 255
-0.291672 -0.0947478 1.102 255 255 255
-0.0229648 0.229951 1.12 255 255 255
-0.456162 0.149976 1.21 255 255 255
0.187993 -0.534145 1.473 255 255 255
0.146291 -0.0641289 0.942 255 255 255
-0.0297868 -0.00453782 0.984 255 255 255
-0.0174729 0.273922 1.013 255 255 255
0.0824112 0.394812 1.068 255 255 255
0.575143 0.507168 1.378 255 255 255
0.196381 -0.608557 1.579 255 255 255
-0.500122 -0.518668 1.587 255 255 255
-0.303801 0.0430229 1.094 255 255 255
-0.206964 0.439722 1.33 255 255 255
0.498603 0.477081 1.422 255 255 255
0.105112 -0.0995976 0.944 255 255 255
-0.22282 0.317997 1.205 255 255 255
-0.65522 0.501396 1.673 255 255 255
0.292384 -0.257076 1.106 255 255 255
-0.274407 0.188498 1.112 255 255 255
-0.261266 0.204416 1.11 255 255 255
0.133332 0.181436 0.994 255 255 255
0.524856 -0.151801 1.154 255 255 255
0.0399231 0.13438 1.005 255 255 255
-0.299019 0.412086 1.375 255 255 255
0.664088 0.460587 1.4 255 255 255
-0.205387 0.000285257 1.055 255 255 255
0.64562 0.429253 1.456 255 255 255
0.157082 0.221708 0.815 255 255 255
0.165346 -0.295118 1.149 255 255 255
-0.0414445 -0.22095 1.079 255 255 255
-0.348287 0.385504 1.384 255 255 255
0.132459 0.124485 0.931 255 255 255
-0.303533 -0.0806931 1.106 255 255 255
-0.871826 0.572371 1.65 255 255 255
-0.880302 0.523574 1.719 255 255 255
0.610882 0.476419 1.393 255 255 255
0.139298 0.117057 0.748 255 255 255
-0.505605 -0.284047 1.324 255 255 255
0.18557 0.0535264 0.669 255 255 255
-0.75984 0.0927999 1.456 255 255 255
-0.0925555 0.154523 1.102 255 255 255
0.0720638 0.229035 0.997 255 255 255
-0.562356 -0.0220202 1.249 255 255 255
-0.0531874 0.329071 1.104 255 255 255
-0.325137 0.00209887 1.106 255 255 255
-0.594136 -0.234664 1.278 255 255 255
0.750894 0.309555 1.583 255 255 255
-0.238973 0.524773 1.445 255 255 255
0.458758 -0.178066 1.13 255 255 255
-0.0278243 -0.379458 1.357 255 255 255
0.201239 -0.281043 1.13 255 255 255
-0.124167 0.240976 1.112 255 255 255
0.877406 0.0586989 1.882 255 255 255
0.0886926 -0.134931 0.966 255 255 255
-0.276066 0.0390656 1.083 255 255 255
-0.16137 -0.0317829 1.037 255 255 255
-0.766707 0.54448 1.655 255 255 255
-0.0339626 -0.0722594 1.013 255 255 255
-0.0472474 0.0779062 1.015 255 255 255
-0.167309 -0.122531 1.11 255 255 255
-0.398403 0.474101 1.524 255 255 255
0.125614 0.235308 1.01 255 255 255
-0.49941 -0.302358 1.348 255 255 255
0.148006 -0.170189 1.017 255 255 255
-0.673732 -0.123603 1.291 255 255 255
-0.63528 0.0114083 1.357 255 255 255
0.132317 0.121325 0.93 255 255 255
-0.512654 -0.17681 1.237 255 255 255
-0.113225 0.41233 1.229 255 255 255
0.521813 0.0716256 1.217 255 255 255
-0.422632 -0.0166182 1.156 255 255 255
-0.250851 -0.166743 1.18 255 255 255
-0.22237 -0.418195 1.429 255 255 255
0.182422 -0.124659 0.997 255 255 255
-0.348725 0.0698104 1.124 255 255 255
-0.399316 0.189778 1.176 255 255 255
0.424462 -0.24984 1.122 255 255 255
-0.101341 -0.342342 1.308 255 255 255
0.120394 -0.559062 1.528 255 255 255
-0.644462 0.101772 1.416 255 255 255
-0.685308 -0.160058 1.297 255 255 255
-0.923555 0.449438 1.815 255 255 255
-0.784102 0.394379 1.729 255 255 255
0.397888 -0.032018 0.992 255 255 255
-0.251323 0.167683 1.106 255 255 255
-0.361938 -0.413544 1.429 255 255 255
0.066343 0.0185906 0.939 255 255 255
-0.773245 0.586221 1.607 255 255 255
-0.0899367 -0.17917 1.114 255 255 255
-0.463274 -0.131954 1.178 255 255 255
0.0171738 -0.444852 1.425 255 255 255
-0.0129959 -0.216927 1.051 255 255 255
-0.0530784 -0.0870499 1.032 255 255 255
0.0934563 -0.0119196 0.935 255 255 255
0.158216 -0.490051 1.442 255 255 255
-0.00140936 -0.467458 1.452 255 255 255
-0.532931 0.528995 1.624 255 255 255
-0.168681 -0.0629978 1.051 255 255 255
-0.143835 -0.0788382 1.057 255 255 255
0.525035 0.480865 1.406 255 255 255
-0.138753 -0.0501031 1.032 255 255 255
-0.573579 -0.415116 1.502 255 255 255
0.0618374 -0.242421 1.073 255 255 255
-0.54935 -0.119667 1.229 255 255 255
0.288864 0.0336187 0.932 255 255 255
0.254391 -0.0254218 0.928 255 255 255
0.916597 0.0342887 1.887 255 255 255
0.677301 0.421794 1.463 255 255 255
0.692506 0.407067 1.47 255 255 255
0.632028 0.442251 1.452 255 255 255
-0.681617 -0.100727 1.294 255 255 255
0.137972 0.0204292 0.655 255 255 255
-0.599308 0.0655463 1.381 255 255 255
-0.236689 -0.161107 1.167 255 255 255
-0.231631 0.118226 1.098 255 255 255
-0.292708 0.230549 1.141 255 255 255
-0.404748 0.252493 1.192 255 255 255
-0.111904 0.0449598 1.017 255 255 255
-0.4676 -0.0035483 1.189 255 255 255
-0.0617251 -0.603658 1.607 255 255 255
0.537137 0.0485286 1.234 255 255 255
-0.41058 -0.201346 1.215 255 255 255
-0.259585 -0.00491597 1.066 255 255 255
-0.420629 0.431512 1.48 255 255 255
-0.211936 0.0400363 1.062 255 255 255
0.846185 0.185092 1.719 255 255 255
0.0456809 -0.10424 0.988 255 255 255
0.50787 -0.168067 1.137 255 255 255
0.411143 -0.403552 1.286 255 255 255
0.14546 0.264243 0.832 255 255 255
-0.476513 -0.550447 1.612 255 255 255
-0.695589 -0.323534 1.354 255 255 255
-0.673451 -0.0062026 1.345 255 255 255
-0.302188 -0.490888 1.502 255 255 255
0.406754 -0.104639 1.057 255 255 255
-0.784182 0.486894 1.748 255 255 255
-0.175886 -0.0132964 1.043 255 255 255
0.080411 0.2712 0.925 255 255 255
-1.35257 -0.875357 2.719 255 255 255
0.664676 -0.303438 1.324 255 255 255
-0.511903 0.132091 1.265 255 255 255
-0.435741 -0.289921 1.302 255 255 255
-0.268493 0.189965 1.11 255 255 255
0.175007 0.0497344 0.662 255 255 255
-0.69625 -0.0191195 1.33 255 255 255
0.126262 0.00459664 0.678 255 255 255
-0.557328 -0.653219 1.724 255 255 255
-0.453442 0.159557 1.208 255 255 255
0.142276 0.197177 1 255 255 255
0.201882 -0.16491 1.005 255 255 255
0.659366 0.368504 1.498 255 255 255
-0.667884 0.5807 1.599 255 255 255
0.16676 0.0182974 0.655 255 255 255
0.254999 -0.23652 1.07 255 255 255
-0.270753 0.117365 1.09 255 255 255
-0.484367 -0.0936142 1.178 255 255 255
-0.225857 0.114444 1.096 255 255 255
0.543798 -0.431741 1.308 255 255 255
-0.767921 -0.471423 1.629 255 255 255
-0.433463 0.434719 1.491 255 255 255
0.121631 0.396618 1.032 255 255 255
-0.334742 -0.0359557 1.114 255 255 255
0.0690985 -0.370579 1.31 255 255 255
-0.219708 0.206222 1.11 255 255 255
-0.0436606 0.415623 1.187 255 255 255
-0.334077 0.339495 1.319 255 255 255
-0.425679 0.397054 1.409 255 255 255
0.313535 -0.280934 1.137 255 255 255
0.12805 0.120069 0.932 255 255 255
0.16343 0.064702 0.672 255 255 255
-0.304101 0.205326 1.135 255 255 255
-0.0303922 -0.0601805 1.004 255 255 255
0.0775757 0.356257 1.027 255 255 255
0.149237 0.346917 0.951 255 255 255
-0.705924 -0.518062 1.677 255 255 255
0.0644782 -0.223748 1.059 255 255 255
-0.0307916 -0.227129 1.075 255 255 255
-0.26802 -0.0400937 1.079 255 255 255
0.274229 0.21317 0.955 255 255 255
-0.565646 -0.0860157 1.234 255 255 255
-0.290502 -0.299361 1.297 255 255 255
0.602878 -0.289538 1.237 255 255 255
-0.312342 0.354511 1.327 255 255 255
-0.458083 -0.0676436 1.16 255 255 255
0.132157 0.239547 0.86 255 255 255
-0.295383 0.226041 1.137 255 255 255
0.853233 0.0585117 1.876 255 255 255
-0.153464 -0.308176 1.281 255 255 255
-0.271016 -0.192641 1.21 255 255 255
-0.397851 0.378748 1.384 255 255 255
-0.78442 0.328103 1.664 255 255 255
0.212306 -0.407631 1.299 255 255 255
-0.169766 0.42782 1.294 255 255 255
0.610488 0.414653 1.48 255 255 255
0.749068 0.395912 1.473 255 255 255
0.515783 0.480619 1.412 255 255 255
0.388295 -0.294044 1.167 255 255 255
0.042965 -0.204305 1.039 255 255 255
0.658288 0.454802 1.432 255 255 255
-0.165119 0.154838 1.158 255 255 255
-0.352142 -0.129666 1.141 255 255 255
-0.133211 0.314655 1.143 255 255 255
0.145236 0.101611 0.916 255 255 255
-0.643909 -0.0498782 1.286 255 255 255
-0.863218 0.51107 1.724 255 255 255
-0.0218166 -0.162471 1.064 255 255 255
0.562622 -0.466881 1.348 255 255 255
0.297404 0.141757 0.935 255 255 255
0.471381 -0.0686934 1.087 255 255 255
1.05033 -0.177052 2.099 255 255 255
0.416707 -0.468669 1.366 255 255 255
-0.680401 -0.425342 1.539 255 255 255
-0.166086 0.19236 1.192 255 255 255
-0.327529 -0.0213374 1.108 255 255 255
-0.60339 0.153577 1.345 255 255 255
-0.0376857 -0.125314 1.072 255 255 255
0.0756749 -0.0135274 0.941 255 255 255
-0.749161 0.178263 1.477 255 255 255
0.380745 0.353456 1.173 255 255 255
-0.205496 -0.398585 1.409 255 255 255
-0.151057 -0.22842 1.244 255 255 255
-0.162809 -0.366748 1.359 255 255 255
0.0378723 -0.247353 1.087 255 255 255
0.261013 -0.269054 1.126 255 255 255
0.700441 0.436859 1.442 255 255 255
-0.740748 0.568466 1.616 255 255 255
-0.664975 -0.331363 1.359 255 255 255
0.894331 0.0191155 1.905 255 255 255
0.167523 0.0451508 0.658 255 255 255
-0.585169 -0.425543 1.513 255 255 255
-0.137677 -0.0363836 1.024 255 255 255
-0.010469 -0.0108429 0.975 255 255 255
0.22128 -0.0638496 0.916 0 0 0
0.203282 -0.292139 1.152 255 255 255
-0.104868 -0.0211564 1.013 255 255 255
0.0290098 0.235237 1.024 255 255 255
0.681113 -0.337456 1.348 255 255 255
-0.508666 0.22126 1.257 255 255 255
-0.333034 0.193404 1.152 255 255 255
-0.103571 -0.0868595 1.05 255 255 255
-0.569174 0.522574 1.637 255 255 255
-0.0712501 0.0362159 1.004 255 255 255
-0.388277 -0.00529873 1.149 255 255 255
0.151028 0.13995 0.734 255 255 255
-0.0147347 0.238472 1.053 255 255 255
-0.106234 0.257928 1.077 255 255 255
-0.285497 -0.119989 1.12 0 0 0
0.0718539 0.227009 1.017 255 255 255
-0.388262 -0.366066 1.39 255 255 255
0.0964587 -0.551996 1.543 255 255 255
-0.128076 0.226162 1.147 255 255 255
-0.236124 0.182032 1.128 255 255 255
0.107605 0.284025 0.913 255 255 255
-0.257698 -0.183696 1.203 255 255 255
0.341713 0.199852 1.022 255 255 255
-0.287964 -0.622525 1.629 255 255 255
-0.147421 -0.200479 1.198 255 255 255
-0.585811 -0.575372 1.677 255 255 255
-0.0205043 -0.0566861 1 255 255 255
-0.120677 -0.608004 1.591 255 255 255
1.12798 -0.297095 2.204 255 255 255
0.510195 -0.360543 1.232 255 255 255
-0.415804 -0.510882 1.571 255 255 255
0.266294 -0.01959 0.938 255 255 255
0.0122795 -0.291064 1.178 255 255 255
0.543096 -0.205137 1.169 255 255 255
-0.234052 -0.146167 1.154 255 255 255
0.357954 0.35556 1.137 255 255 255
-0.442994 0.176223 1.201 255 255 255
-0.168484 0.132705 1.13 255 255 255
-0.352393 -0.326488 1.348 255 255 255
0.0443849 -0.111455 0.995 255 255 255
-0.189358 -0.328694 1.313 255 255 255
0.26303 -0.0444713 0.916 255 255 255
0.346339 -0.327348 1.213 255 255 255
-0.48432 0.21747 1.247 255 255 255
-0.253969 0.0880861 1.079 255 255 255
0.428975 -0.419167 1.302 255 255 255
0.199082 -0.520726 1.449 255 255 255
-0.777158 -0.442654 1.583 255 255 255
-0.745219 0.561964 1.62 255 255 255
-0.238096 0.197144 1.12 255 255 255
-0.54283 0.504019 1.646 255 255 255
-0.633442 -0.0498782 1.286 255 255 255
-0.367565 0.0410134 1.137 255 255 255
-0.378999 -0.384008 1.406 255 255 255
-0.301867 -0.261096 1.265 255 255 255
-0.243991 -0.215019 1.203 255 255 255
-0.902507 0.527903 1.724 255 255 255
0.245673 -0.0580134 0.918 255 255 255
0.131669 0.239809 0.866 255 255 255
0.101248 -0.0864079 0.951 255 255 255
-0.207842 0.164924 1.124 255 255 255
-0.183651 -0.159589 1.156 255 255 255
-0.057146 0.136997 1.077 255 255 255
0.183198 -0.534145 1.473 255 255 255
0.058803 -0.439287 1.422 255 255 255
-0.268598 0.411108 1.357 255 255 255
0.355381 -0.509731 1.387 255 255 255
0.105519 0.240401 0.934 255 255 255
0.161253 -0.0467146 0.931 255 255 255
0.169473 0.139606 0.726 255 255 255
-0.337764 -0.0342654 1.118 255 255 255
0.482906 -0.167676 1.122 255 255 255
-0.165465 0.27966 1.122 255 255 255
0.131256 0.115983 0.765 255 255 255
-0.0151265 -0.140439 1.081 255 255 255
0.175222 -0.189452 1.041 255 255 255
-0.0104046 0.0113002 0.969 255 255 255
-0.659517 0.483492 1.677 255 255 255
0.266776 -0.570026 1.498 255 255 255
-0.749111 0.0734898 1.449 255 255 255
-0.278631 -0.250689 1.244 255 255 255
-0.185469 0.0687714 1.079 255 255 255
-0.578126 0.509468 1.655 255 255 255
0.0261947 0.239727 0.981 255 255 255
-0.0507611 0.224649 1.13 255 255 255
0.355206 -0.347916 1.237 255 255 255
-0.416745 0.173435 1.182 255 255 255
0.169598 0.202291 0.781 255 255 255
-0.38722 0.433698 1.463 255 255 255
0.0818909 -0.112221 0.96 255 255 255
-0.333527 0.100187 1.116 255 255 255
0.312576 0.0390467 0.917 255 255 255
-0.0548849 -0.141374 1.102 0 0 0
0.46418 -0.445496 1.33 255 255 255
-0.914692 0.440577 1.815 255 255 255
-0.506396 -0.115178 1.203 255 255 255
0.184426 -0.165224 1.017 255 255 255
-0.824986 0.565197 1.637 255 255 255
0.913349 0.0313172 1.893 255 255 255
0.54744 0.429816 1.466 255 255 255
0.266964 -0.0088765 0.935 255 255 255
-0.00676728 0.408531 1.156 255 255 255
-0.0345921 -0.00453782 0.984 255 255 255
-0.542918 0.425872 1.547 255 255 255
-0.113001 0.0282702 1.012 255 255 255
-0.126837 -0.256979 1.265 255 255 255
0.177375 0.33217 0.883 255 255 255
0.223207 -0.361449 1.242 255 255 255
0.53025 -0.354529 1.232 255 255 255
0.175184 0.18991 0.772 255 255 255
-0.320998 0.0324594 1.098 255 255 255
0.45478 -0.361129 1.234 255 255 255
0.402447 -0.214727 1.092 255 255 255
-1.22124 -1.08716 2.857 255 255 255
-0.588637 -0.489115 1.575 255 255 255
0.109722 -0.0412221 0.944 255 255 255
-0.396937 -0.0556863 1.147 255 255 255
-0.230311 -0.422286 1.435 255 255 255
-0.0977624 0.382785 1.187 255 255 255
-0.11982 -0.267939 1.278 255 255 255
1.03563 -0.111769 2.03 255 255 255
0.753864 0.391118 1.473 255 255 255
-0.310141 0.549012 1.505 255 255 255
-0.207457 -0.544463 1.543 255 255 255
-0.705966 -0.319834 1.357 255 255 255
0.601904 0.245246 1.551 255 255 255
-0.289029 0.265561 1.156 255 255 255
0.679739 0.287081 1.616 255 255 255
-0.321852 0.145062 1.126 255 255 255
-0.272107 0.184546 1.11 255 255 255
-0.217408 -0.0271841 1.055 255 255 255
0.0901262 0.236291 0.948 255 255 255
0.0818282 0.261885 0.924 255 255 255
0.224681 0.269119 0.81 255 255 255
-0.212148 -0.518809 1.505 255 255 255
0.268009 -0.221001 1.046 255 255 255
0.547381 -0.0299089 1.239 255 255 255
-0.235928 -0.468468 1.47 255 255 255
-0.608389 -0.0618035 1.273 255 255 255
-0.14784 0.48083 1.324 255 255 255
0.150528 0.0626079 0.673 255 255 255
0.259354 -0.00735495 0.935 255 255 255
0.239223 -0.135372 0.958 255 255 255
0.0552099 0.0953569 0.958 255 255 255
-0.710937 0.606841 1.579 255 255 255
0.534224 -0.231285 1.196 255 255 255
-0.127339 -0.286929 1.27 255 255 255
0.486776 -0.0809849 1.11 255 255 255
0.0754336 0.0658903 0.938 255 255 255
0.246843 -0.163269 0.995 255 255 255
-0.0621897 -0.351845 1.336 255 255 255
-0.0044122 -0.125439 1.044 255 255 255
-0.12881 -0.171768 1.137 255 255 255
-0.45278 -0.224372 1.244 255 255 255
-0.653637 -0.260936 1.327 255 255 255
-0.262684 -0.14642 1.156 255 255 255
-0.076326 -0.4681 1.484 255 255 255
1.14115 -0.3317 2.244 255 255 255
0.177029 -0.295888 1.152 255 255 255
-0.495469 -0.146744 1.205 255 255 255
-0.47621 0.598028 1.543 255 255 255
-0.302386 -0.577506 1.607 255 255 255
-0.0531874 -0.166783 1.104 255 255 255
-0.523714 0.43256 1.535 255 255 255
-0.175549 -0.00310663 1.041 255 255 255
0.0577174 -0.129708 0.974 255 255 255
-1.22395 -0.989733 2.831 255 255 255
-0.133441 -0.0710047 1.043 255 255 255
-0.422518 0.0791832 1.182 255 255 255
0.015139 0.108099 0.989 255 255 255
-0.376888 0.185308 1.16 255 255 255
-0.647866 -0.314023 1.351 255 255 255
-0.515428 0.022423 1.234 255 255 255
0.699627 0.385752 1.48 255 255 255
-0.0456647 0.022615 0.981 255 255 255
-0.261991 -0.617557 1.616 255 255 255
-0.166894 -0.599847 1.563 255 255 255
0.0381355 0.0674357 0.96 255 255 255
-0.0438015 -0.138567 1.094 255 255 255
0.0163086 0.0143644 0.963 255 255 255
-0.0089639 0.0787293 0.984 255 255 255
0.476031 -0.195336 1.145 255 255 255
0.216334 -0.03545 0.914 255 255 255
0.130098 0.0715815 0.675 255 255 255
0.431962 -0.0301534 1.039 255 255 255
-0.199458 -0.0687121 1.06 255 255 255
-0.756439 0.35875 1.668 255 255 255
0.0900698 0.321144 0.981 255 255 255
0.672843 0.184585 1.664 0 0 0
-0.00932987 -0.314201 1.247 255 255 255
0.183787 -0.176058 1.032 255 255 255
0.404996 -0.0952213 1.048 255 255 255
-0.316211 -0.0104429 1.1 255 255 255
-0.106037 0.145489 1.075 255 255 255
0.265676 -0.0671227 0.92 0 0 0
-0.058652 -0.296972 1.26 255 255 255
0.540082 0.0262893 1.227 255 255 255
0.387372 0.209238 1.07 255 255 255
0.102973 -0.265113 1.102 255 255 255
-0.0202582 -0.0318889 0.988 255 255 255
0.0985221 0.16659 1.002 255 255 255
0.0283865 0.127456 1.002 255 255 255
-0.520478 -0.122057 1.213 255 255 255
0.0288492 0.0112302 0.963 255 255 255
0.64562 0.431623 1.456 255 255 255
-0.0326007 0.100064 1.022 255 255 255
0.124829 0.210459 1.017 255 255 255
-0.369944 0.128234 1.156 255 255 255
0.289967 0.218769 0.966 255 255 255
-0.312061 -0.0390129 1.098 255 255 255
0.234637 -0.201639 1.034 255 255 255
-0.315791 0.148462 1.124 255 255 255
-0.252686 0.195736 1.112 255 255 255
-0.00677899 -0.272932 1.158 0 0 0
-0.60115 0.530566 1.637 255 255 255
-0.600864 0.530624 1.629 255 255 255
-0.174765 0.496083 1.366 255 255 255
0.163201 -0.250429 1.085 255 255 255
0.159061 0.163674 0.761 255 255 255
0.1643 -0.563556 1.52 255 255 255
-0.388887 0.0967529 1.162 255 255 255
0.195274 0.179943 0.767 255 255 255
-0.35816 0.527721 1.543 255 255 255
0.12158 -0.317902 1.178 255 255 255
0.230199 -0.557837 1.498 255 255 255
0.0290251 0.219638 1.087 255 255 255
-0.196876 -0.575153 1.579 255 255 255
-0.8465 0.283747 1.612 255 255 255
0.495656 -0.455048 1.339 255 255 255
-0.333973 0.57236 1.502 255 255 255
-0.267865 -0.142411 1.154 255 255 255
-0.383804 -0.635411 1.677 255 255 255
-0.34165 -0.394604 1.403 255 255 255
0.435422 0.0570559 1.09 255 255 255
-1.35818 -0.972886 2.695 255 255 255
0.132089 -0.337731 1.222 255 255 255
1.02571 -0.101859 2.03 255 255 255
0.299903 -0.314337 1.201 255 255 255
-0.609741 -0.240879 1.289 255 255 255
0.316398 -0.150191 1.005 255 255 255
-0.635743 -0.0828435 1.278 255 255 255
-0.569028 -0.634433 1.734 255 255 255
0.74146 0.243603 1.642 255 255 255
-0.593732 -0.438721 1.516 255 255 255
-0.0436723 0.377763 1.137 255 255 255
-0.247258 -0.245649 1.239 255 255 255
0.173957 0.0246551 0.654 255 255 255
0.148525 0.270307 0.834 255 255 255
0.21121 -0.140601 0.995 255 255 255
0.45842 -0.338329 1.217 255 255 255
-0.192683 0.245078 1.09 255 255 255
-0.256527 0.0685164 1.075 255 255 255
-0.00972911 -0.152654 1.068 255 255 255
-0.701058 0.491564 1.705 255 255 255
-0.00106575 0.187912 1.098 255 255 255
0.201096 0.195692 0.775 255 255 255
-0.035854 -0.624359 1.62 0 0 0
0.104333 0.102415 0.937 255 255 255
0.208088 -0.0713806 0.917 255 255 255
0.531588 -0.209657 1.173 255 255 255
-0.139299 -0.154433 1.132 255 255 255
0.573686 -0.284039 1.222 255 255 255
-0.620274 -0.358074 1.403 255 255 255
-0.318001 0.0486291 1.1 255 255 255
0.14345 0.169897 0.784 255 255 255
0.0395741 0.00804553 0.957 255 255 255
-0.364106 0.0408331 1.132 255 255 255
0.0981273 0.133881 0.966 255 255 255
0.380301 0.196933 1.06 255 255 255
0.0770469 0.167923 1.02 255 255 255
0.181705 0.30669 0.856 255 255 255
0.548614 -0.449825 1.33 255 255 255
0.108849 0.360791 1.007 255 255 255
0.00602262 0.18426 1.087 255 255 255
0.309959 0.059154 0.905 255 255 255
0.065952 0.202871 1.055 255 255 255
-0.755389 0.0949079 1.452 255 255 255
-0.0106616 -0.444852 1.425 255 255 255
0.193019 -0.331072 1.205 255 255 255
-0.260072 -0.00666318 1.068 255 255 255
-0.0606486 0.0244582 0.991 255 255 255
-0.602721 -0.444826 1.52 255 255 255
0.0846793 0.225893 1.012 255 255 255
0.533497 0.363378 1.487 255 255 255
-0.191714 0.35319 1.232 255 255 255
-0.406229 0.23944 1.185 255 255 255
-0.357104 0.13633 1.145 255 255 255
0.268236 -0.536378 1.466 255 255 255
-0.137331 0.289061 1.116 255 255 255
1.08735 -0.303524 2.173 255 255 255
0.13516 -0.18231 1.02 255 255 255
0.562922 -0.468959 1.354 255 255 255
0.177427 -0.208686 1.044 255 255 255
-0.467785 -0.266463 1.291 255 255 255
-0.700389 0.561964 1.62 255 255 255
0.134542 -0.283713 1.126 255 255 255
0.594546 0.382042 1.513 255 255 255
0.368302 0.345253 1.152 255 255 255
0.147895 -0.160004 1.005 255 255 255
-0.486955 -0.0441811 1.189 255 255 255
-0.421676 0.0250466 1.169 255 255 255
0.211994 -0.0941735 0.921 255 255 255
-0.793278 0.338853 1.677 255 255 255
0.285691 -0.186923 1.018 255 255 255
-0.223892 -0.361448 1.381 255 255 255
0.328894 -0.171352 1.034 255 255 255
0.34022 -0.0397662 0.984 255 255 255
-0.498578 0.539149 1.607 255 255 255
0.180871 0.0828047 0.715 255 255 255
-1.35442 -0.86861 2.768 255 255 255
0.123211 0.259539 0.866 255 255 255
-0.0106193 -0.046406 0.989 255 255 255
-0.304012 0.576324 1.487 255 255 255
-0.0177489 -0.182245 1.029 255 255 255
0.567268 -0.341047 1.234 255 255 255
0.666634 0.324065 1.591 255 255 255
0.896844 -0.0244384 1.917 255 255 255
0.681941 0.515962 1.354 255 255 255
0.396626 0.458165 1.273 255 255 255
-0.433064 -0.281822 1.294 255 255 255
0.100202 0.0802029 0.927 255 255 255
-0.272102 -0.571458 1.583 255 255 255
0.475755 -0.529606 1.416 255 255 255
-0.578013 -0.231128 1.27 255 255 255
-0.186845 -0.104072 1.087 255 255 255
0.304013 -0.251185 1.096 255 255 255
-0.31442 -0.0426641 1.1 255 255 255
-0.151057 0.395094 1.244 255 255 255
0.298676 0.0231748 0.939 255 255 255
-0.0230395 0.125641 1.041 255 255 255
0.137628 0.131209 0.925 255 255 255
-0.62414 -0.530434 1.607 255 255 255
-0.0587939 0.263617 1.044 255 255 255
0.607 0.369388 1.532 255 255 255
0.6557 0.513445 1.359 255 255 255
0.734912 0.212446 1.714 255 255 255
0.727541 0.364807 1.513 255 255 255
-0.263414 0.104852 1.089 255 255 255
-0.622027 -0.29996 1.357 255 255 255
-0.144894 -0.430031 1.422 255 255 255
0.10406 0.267694 0.908 255 255 255
0.0102476 0.434462 1.165 255 255 255
-0.27836 0.119357 1.092 255 255 255
-0.660722 0.423661 1.646 255 255 255
-0.851748 0.603784 1.612 255 255 255
0.29499 0.018551 0.937 255 255 255
0.682762 0.38816 1.48 255 255 255
0.0826366 0.425787 1.094 255 255 255
-0.405056 -0.328681 1.348 255 255 255
0.169339 0.289686 0.843 255 255 255
-0.194048 0.367637 1.247 255 255 255
-0.347811 0.565205 1.509 255 255 255
-0.180485 -0.0543943 1.05 255 255 255
-0.127966 -0.13014 1.098 255 255 255
0.362839 -0.00751228 0.955 255 255 255
-0.904847 0.419013 1.837 255 255 255
0.187248 0.157808 0.745 255 255 255
0.110499 -0.46568 1.432 255 255 255
0.439907 -0.476382 1.369 255 255 255
0.0910797 0.155242 0.992 255 255 255
-0.458668 -0.261855 1.289 255 255 255
0.156503 -0.516312 1.47 255 255 255
-0.12824 0.375574 1.201 255 255 255
0.0152156 0.239668 0.994 255 255 255
0.10678 0.259732 0.906 255 255 255
0.14731 0.188514 0.798 255 255 255
0.292251 0.0124651 0.938 255 255 255
-0.183235 0.0436565 1.066 255 255 255
-0.320892 -0.0936293 1.11 255 255 255
0.132424 -0.228899 1.051 255 255 255
0.54718 0.0043499 1.234 255 255 255
-0.110249 0.0449598 1.017 255 255 255
-0.516889 0.481616 1.607 255 255 255
-0.442181 -0.14729 1.178 255 255 255
-0.569663 -0.100073 1.234 255 255 255
0.293698 -0.368724 1.267 255 255 255
-0.29563 -0.216075 1.198 255 255 255
0.00888156 -0.594329 1.603 255 255 255
-0.81987 0.551195 1.659 255 255 255
-0.826789 0.31082 1.673 255 255 255
-0.108733 -0.278662 1.27 255 255 255
0.0704274 -0.264151 1.098 255 255 255
1.13105 -0.34403 2.253 255 255 255
-0.901188 0.467593 1.794 255 255 255
0.116696 0.235544 1.004 255 255 255
-0.169035 -0.0828232 1.064 255 255 255
0.101275 0.19974 1.03 255 255 255
-0.591707 0.460177 1.633 255 255 255
-0.458144 0.53558 1.612 255 255 255
-0.139291 0.0643448 1.036 255 255 255
-0.424543 -0.253976 1.281 255 255 255
-0.103219 -0.0228049 1.013 255 255 255
-0.0908619 0.0182437 1.004 255 255 255
-1.32879 -0.958967 2.743 255 255 255
0.29173 -0.236314 1.077 255 255 255
-0.363276 -0.184574 1.196 255 255 255
0.16892 0.0277202 0.651 255 255 255
0.671364 -0.39227 1.333 255 255 255
0.992774 -0.148618 2.037 255 255 255
0.711306 0.279192 1.616 255 255 255
0.627837 -0.111015 1.342 255 255 255
-0.625432 0.464804 1.659 255 255 255
0.50602 -0.105158 1.137 255 255 255
-0.214335 -0.139924 1.149 255 255 255
0.727643 0.373379 1.498 255 255 255
-0.308486 0.0699823 1.098 255 255 255
0.132509 -0.147817 1 255 255 255
0.781815 0.306979 1.583 255 255 255
-0.505514 -0.151916 1.215 255 255 255
0.797796 0.0955818 1.826 0 0 0
0.114023 0.332318 0.981 255 255 255
-0.654818 -0.0500721 1.291 255 255 255
-0.429955 -0.610915 1.655 255 255 255
-0.503832 -0.39029 1.429 255 255 255
-0.0981495 0.486781 1.294 255 255 255
-0.142152 -0.221096 1.237 255 255 255
0.296576 -0.196932 1.027 255 255 255
-0.0371367 -0.559151 1.563 255 255 255
-0.553127 0.154071 1.294 255 255 255
-0.562382 0.117763 1.336 255 255 255
0.368184 0.11447 1.017 255 255 255
-0.208086 -0.0566374 1.06 255 255 255
-0.803024 0.535473 1.686 255 255 255
0.225487 -0.0492104 0.921 255 255 255
0.14303 -0.0207338 0.921 255 255 255
0.231483 -0.0372202 0.921 255 255 255
0.0499367 0.230149 1.009 255 255 255
-0.246872 -0.335787 1.359 255 255 255
-0.239216 -0.171884 1.189 255 255 255
-0.114122 0.186209 1.12 255 255 255
0.17396 0.133515 0.725 255 255 255
0.0568878 -0.0403586 0.96 255 255 255
-1.35541 -0.90233 2.707 255 255 255
0.452199 -0.229961 1.132 255 255 255
0.0568235 -0.107238 0.986 255 255 255
-0.607243 -0.665127 1.763 255 255 255
0.229473 -0.090384 0.913 255 255 255
-0.670656 0.43371 1.664 255 255 255
0.301128 -0.547796 1.452 255 255 255
-0.628385 0.000360424 1.333 255 255 255
-0.176064 -0.351241 1.342 255 255 255
0.915018 -0.0308696 1.929 255 255 255
-0.3768 -0.56094 1.612 255 255 255
-0.762581 -0.568536 1.784 255 255 255
-0.625948 -0.0784993 1.275 255 255 255
0.438026 0.095418 1.124 255 255 255
0.0441736 -0.269328 1.112 255 255 255
-0.704536 0.501189 1.7 255 255 255
-0.556718 -0.490358 1.579 255 255 255
-0.080621 0.417251 1.22 255 255 255
-0.647605 0.351563 1.575 255 255 255
0.398566 0.132872 1.072 255 255 255
-0.455835 0.207653 1.225 255 255 255
0.349486 -0.417 1.322 255 255 255
-0.143042 -0.127258 1.104 255 255 255
-0.236334 -0.195923 1.194 255 255 255
0.0122326 0.125807 1.015 255 255 255
0.612999 0.375399 1.516 255 255 255
-0.624436 -0.332301 1.372 255 255 255
-0.37668 -0.318516 1.333 255 255 255
-0.0853546 0.247872 1.079 255 255 255
-0.496124 0.308741 1.316 255 255 255
0.150365 -0.586655 1.555 255 255 255
-0.176955 0.359744 1.227 255 255 255
0.219091 -0.462349 1.354 255 255 255
-0.619192 -0.450957 1.524 255 255 255
-0.520844 -0.43595 1.498 255 255 255
-0.302278 -0.106082 1.108 255 255 255
0.246787 -0.271368 1.128 255 255 255
0.167116 -0.112273 0.974 255 255 255
-0.326313 0.0960359 1.11 255 255 255
0.87861 -0.165456 1.821 255 255 255
0.437679 -0.476382 1.369 255 255 255
-0.550482 0.530624 1.629 255 255 255
0.321831 -0.0361177 0.972 255 255 255
0.364146 0.309847 1.139 255 255 255
0.277416 -0.459633 1.359 255 255 255
-0.62123 0.520241 1.655 255 255 255
0.287229 -0.307327 1.189 255 255 255
0.384714 -0.333754 1.222 255 255 255
0.134232 0.239304 1.013 255 255 255
0.0132088 0.216106 1.096 255 255 255
-0.0622244 -0.611177 1.62 255 255 255
-0.170479 0.209125 1.156 255 255 255
-0.287248 0.0855933 1.092 255 255 255
0.0649525 0.243734 0.941 255 255 255
0.216753 -0.187268 1.029 255 255 255
-0.174589 -0.312833 1.283 255 255 255
-0.0529047 0.445776 1.222 255 255 255
-0.0581756 -0.0520113 1.004 255 255 255
0.111793 -0.158211 1.004 255 255 255
0.273164 0.146969 0.92 255 255 255
-0.562046 -0.227618 1.262 255 255 255
0.696776 0.351937 1.532 255 255 255
-0.637621 -0.327662 1.362 255 255 255
0.657924 0.32488 1.595 255 255 255
0.425196 -0.0859496 1.039 255 255 255
0.186297 0.0184371 0.66 255 255 255
-0.214673 0.208403 1.112 255 255 255
0.360587 -0.500784 1.381 255 255 255
0.203831 -0.0744462 0.918 255 255 255
-0.798734 0.450833 1.774 255 255 255
-0.31423 -0.0829405 1.112 255 255 255
0.134653 0.0547358 0.905 255 255 255
-0.307689 -0.0934606 1.108 255 255 255
0.595572 -0.121502 1.291 255 255 255
0.165396 -0.135067 1.002 255 255 255
0.31299 -0.0749946 0.984 255 255 255
-0.142368 -0.304657 1.275 255 255 255
-0.708653 -0.515333 1.677 255 255 255
-0.246488 -0.314178 1.333 255 255 255
-0.103694 0.210879 1.106 255 255 255
-0.192138 0.0686439 1.077 255 255 255
0.347722 0.235467 1.025 255 255 255
-0.685087 -0.63595 1.794 255 255 255
-0.641856 -0.496568 1.599 255 255 255
0.0619547 0.243993 0.942 255 255 255
-0.49277 0.00818988 1.208 255 255 255
0.137342 0.127328 0.744 255 255 255
0.929486 0.0311352 1.882 255 255 255
-0.209765 0.456641 1.348 255 255 255
0.539253 0.509411 1.378 255 255 255
-1.26879 -1.07232 2.818 255 255 255
-0.0065097 0.219261 1.112 255 255 255
0.42381 -0.21928 1.106 255 255 255
-0.731391 0.583606 1.607 255 255 255
0.0876916 0.213463 1.048 255 255 255
-1.3466 -0.981623 2.707 255 255 255
0.363258 0.23968 1.036 255 255 255
0.240436 -0.190802 1.03 255 255 255
-0.427794 -0.379826 1.416 255 255 255
-0.367565 0.044714 1.137 255 255 255
-0.0734294 0.282914 1.059 255 255 255
-0.44052 -0.101636 1.139 255 255 255
-0.130527 -0.316514 1.281 255 255 255
0.81016 0.309555 1.583 255 255 255
0.18833 -0.0557449 0.93 255 255 255
-0.497451 0.548101 1.595 255 255 255
-0.579745 -0.252927 1.297 255 255 255
0.0556188 -0.391424 1.345 255 255 255
-0.0548736 0.196782 1.139 255 255 255
0.790979 0.143518 1.758 255 255 255
0.407605 -0.0422083 1.004 255 255 255
0.166423 0.0854504 0.708 255 255 255
-0.055071 0.0625436 1.007 255 255 255
0.466183 -0.456067 1.342 255 255 255
0.0947866 -0.324649 1.203 255 255 255
-0.45532 0.561732 1.575 255 255 255
0.45096 0.485765 1.362 255 255 255
-0.0595338 0.170109 1.122 255 255 255
-1.41011 -0.804561 2.719 255 255 255
-0.144577 0.251362 1.102 0 0 0
-0.728626 -0.42361 1.551 255 255 255
0.4424 -0.155324 1.112 255 255 255
0.0131871 0.0520292 0.964 255 255 255
-0.388088 0.0172135 1.154 255 255 255
0.374325 -0.313131 1.189 255 255 255
-0.696644 0.15279 1.419 255 255 255
0.0731665 -0.227409 1.06 255 255 255
-0.425862 -0.307747 1.324 255 255 255
0.543706 0.448209 1.456 255 255 255
0.481395 -0.345119 1.22 255 255 255
-0.544517 -0.358484 1.432 255 255 255
-0.141795 0.464377 1.308 255 255 255
-0.393597 -0.531664 1.595 255 255 255
0.543045 -0.211566 1.173 255 255 255
-0.223615 0.0106364 1.06 255 255 255
0.30532 -0.502985 1.406 255 255 255
0.228873 -0.339665 1.229 255 255 255
-0.54293 0.0356171 1.275 255 255 255
-0.147917 0.108197 1.087 255 255 255
-0.167604 0.195746 1.189 255 255 255
0.510195 -0.362548 1.232 255 255 255
0.147085 0.112668 0.909 255 255 255
-0.746609 0.516473 1.714 255 255 255
0.321093 -0.464223 1.366 255 255 255
-0.48168 -0.539548 1.603 255 255 255
-0.470278 -0.385249 1.419 255 255 255
-0.421352 -0.327214 1.351 255 255 255
0.314511 -0.499408 1.396 255 255 255
0.0365728 0.0643112 0.96 255 255 255
0.420483 -0.223867 1.102 255 255 255
-0.309966 -0.142914 1.143 255 255 255
0.0582508 -0.103712 0.983 255 255 255
-0.0623119 0.277739 1.046 255 255 255
0.496793 -0.469074 1.348 255 255 255
-0.671289 0.475112 1.686 255 255 255
-0.304185 -0.00147771 1.089 255 255 255
0.063286 0.0338713 0.939 255 255 255
0.285873 -0.411225 1.297 255 255 255
0.388962 -0.419611 1.31 255 255 255
-0.859038 0.352391 1.744 255 255 255
0.125053 -0.589185 1.555 255 255 255
0.317989 -0.357388 1.249 255 255 255
0.071441 0.217633 1.06 255 255 255
-0.557379 0.0362875 1.299 255 255 255
-0.0339626 0.0876435 1.013 255 255 255
0.0726914 -0.436973 1.422 255 255 255
-0.38633 0.106025 1.16 255 255 255
-1.32742 -0.87922 2.731 255 255 255
-0.720468 0.605802 1.583 255 255 255
-0.289025 0.0447213 1.092 255 255 255
0.0869946 0.0638835 0.931 255 255 255
0.286114 0.0440456 0.928 255 255 255
0.313301 0.179555 0.975 255 255 255
-0.024965 0.38028 1.128 255 255 255
0.673726 -0.475874 1.387 255 255 255
0.600012 -0.556563 1.432 255 255 255
-0.616991 -0.0353659 1.291 255 255 255
0.744324 -0.52432 1.459 255 255 255
0.158431 0.263742 0.822 255 255 255
-0.50719 0.334542 1.369 255 255 255
-0.395327 -0.077404 1.137 255 255 255
-0.194279 0.108396 1.089 255 255 255
0.604674 -0.400672 1.297 255 255 255
0.466243 -0.494042 1.381 255 255 255
0.832006 0.128478 1.748 255 255 255
-0.371423 -0.39254 1.412 255 255 255
0.262828 0.208516 0.895 0 0 0
0.333121 0.0810681 0.937 255 255 255
0.370328 -0.468479 1.359 255 255 255
-0.775935 0.311161 1.646 255 255 255
0.878826 -0.0273855 1.905 255 255 255
0.143112 0.224567 0.867 255 255 255
-0.167667 -0.307454 1.278 255 255 255
-0.323558 0.292955 1.215 255 255 255
0.351638 -0.417 1.322 255 255 255
-0.0183181 -0.163894 1.062 255 255 255
-0.279075 -0.0208174 1.081 255 255 255
0.218675 0.200238 0.793 255 255 255
0.405461 -0.0641434 1.015 255 255 255
0.248521 -0.0888008 0.912 255 255 255
0.0322677 -0.281428 1.139 0 0 0
-0.138753 0.0590582 1.032 255 255 255
0.500918 0.453941 1.422 255 255 255
-1.40205 -0.915872 2.695 255 255 255
0.392499 -0.163492 1.094 255 255 255
0.302345 -0.442964 1.342 255 255 255
-0.711464 0.473527 1.71 255 255 255
-0.389967 0.00782377 1.154 255 255 255
0.465273 -0.279066 1.16 255 255 255
-0.328077 -0.0759744 1.116 255 255 255
-0.346895 -0.0527405 1.124 255 255 255
-0.352279 -0.197728 1.205 0 0 0
0.199131 -0.0266127 0.917 255 255 255
0.532314 0.42583 1.477 255 255 255
0.491908 0.493489 1.39 255 255 255
-0.132929 0.0729851 1.039 255 255 255
-0.476715 -0.243528 1.27 255 255 255
-0.350453 -0.143152 1.16 255 255 255
-0.547626 0.601486 1.539 255 255 255
-0.184375 0.233853 1.104 255 255 255
-0.846797 0.462084 1.784 255 255 255
-0.0835963 0.0498266 1.015 255 255 255
-0.381269 -0.244048 1.262 255 255 255
0.256505 -0.0770965 0.914 255 255 255
0.0394389 -0.489928 1.477 255 255 255
0.974916 -0.0274717 1.911 255 255 255
0.0174658 0.410657 1.141 255 255 255
0.189986 0.203522 0.776 255 255 255
-0.694785 -0.0382794 1.319 255 255 255
-0.0772578 -0.200224 1.141 255 255 255
0.106795 0.339513 0.988 255 255 255
0.0109556 -0.220347 1.051 255 255 255
-0.331116 -0.0994052 1.114 255 255 255
-0.115445 -0.335759 1.299 255 255 255
-0.569313 -0.126996 1.242 255 255 255
-0.376002 -0.332348 1.354 255 255 255
-0.343599 0.256155 1.156 255 255 255
0.0356076 0.234778 1.022 255 255 255
0.135199 -0.224406 1.046 255 255 255
0.491931 -0.238561 1.165 255 255 255
0.135948 0.140457 0.743 255 255 255
0.155299 -0.131543 1 255 255 255
0.0969845 -0.463273 1.439 255 255 255
0.126127 0.0883876 0.918 255 255 255
0.101549 0.277778 0.912 255 255 255
0.21093 0.217014 0.793 255 255 255
-0.108733 0.450886 1.27 255 255 255
0.298162 -0.0632605 0.952 255 255 255
0.508122 -0.333862 1.208 255 255 255
-0.0010677 0.191834 1.1 255 255 255
-0.345077 -0.53525 1.575 255 255 255
0.00222557 0.0684191 0.974 255 255 255
-0.415291 -0.0758196 1.141 255 255 255
-0.478335 0.180217 1.242 255 255 255
0.12238 0.165199 0.984 255 255 255
-0.328014 0.122636 1.122 255 255 255
-0.0517494 0.382747 1.152 255 255 255
0.0396982 -0.00755161 0.96 255 255 255
0.25222 -0.593874 1.528 255 255 255
-0.059695 0.121034 1.06 255 255 255
0.992774 -0.221545 2.037 255 255 255
-0.653232 -0.487539 1.595 255 255 255
0.193248 0.144137 0.731 255 255 255
-0.12012 -0.210226 1.198 255 255 255
0.867952 0.0974199 1.805 255 255 255
0.0552185 -0.11847 0.986 255 255 255
0.137628 -0.0990983 0.925 0 0 0
0.321835 -0.216036 1.055 255 255 255
0.113426 -0.314644 1.173 255 255 255
-0.624338 -0.668268 1.779 255 255 255
-0.638866 -0.238407 1.31 255 255 255
-0.189423 0.233429 1.102 255 255 255
-0.159862 0.186071 1.189 255 255 255
0.107742 0.364229 1.012 255 255 255
-0.492591 -0.130295 1.198 255 255 255
-0.441945 0.572313 1.555 255 255 255
0.017592 -0.355419 1.286 255 255 255
0.161253 -0.0633801 0.931 255 255 255
0.597009 0.382042 1.513 255 255 255
-0.12686 0.506817 1.33 255 255 255
0.164577 -0.349322 1.242 255 255 255
-0.648574 0.057335 1.4 255 255 255
0.363366 -0.140225 1.066 255 255 255
-0.00754919 0.253137 1.009 255 255 255
-0.198382 0.141449 1.112 255 255 255
0.485022 -0.143687 1.106 255 255 255
0.268116 -0.34786 1.244 255 255 255
0.228509 -0.551321 1.487 255 255 255
0.283727 0.0960453 0.892 255 255 255
-0.114935 0.446752 1.27 255 255 255
0.0607421 0.0634403 0.947 255 255 255
0.250156 -0.0430745 0.918 255 255 255
-0.0352597 -0.489835 1.484 255 255 255
-0.168014 -0.155287 1.152 255 255 255
0.228511 -0.165238 1.007 255 255 255
-0.125863 -0.537424 1.559 0 0 0
0.270716 -0.0344456 0.927 255 255 255
-0.276575 0.077982 1.085 255 255 255
0.0303172 -0.139709 1.012 255 255 255
-0.489646 -0.155229 1.21 255 255 255
0.178434 0.130974 0.724 255 255 255
-0.0484736 -0.299497 1.262 255 255 255
0.429887 -0.507474 1.387 255 255 255
0.327214 -0.324033 1.208 255 255 255
0.136107 -0.312202 1.171 255 255 255
0.292131 0.0983713 0.9 255 255 255
-0.860618 0.362768 1.753 255 255 255
-0.127034 0.129781 1.09 255 255 255
-0.354265 -0.0346332 1.13 255 255 255
-0.0747526 0.23026 1.104 255 255 255
0.178722 0.188409 0.771 255 255 255
-0.276161 0.321697 1.242 255 255 255
-0.228225 -0.404576 1.422 255 255 255
0.297617 -0.342499 1.232 255 255 255
-0.517233 -0.329874 1.39 255 255 255
-0.0403135 -0.144171 1.096 255 255 255
-0.40504 -0.571633 1.62 255 255 255
0.0380163 0.0314058 0.957 255 255 255
-0.372664 0.360484 1.366 255 255 255
-0.457932 0.27429 1.247 255 255 255
-0.421489 0.244627 1.201 255 255 255
0.248822 -0.215725 1.037 255 255 255
0.291361 0.119498 0.916 255 255 255
-0.191285 0.0191341 1.053 255 255 255
-0.0145668 0.240836 1.041 255 255 255
0.497537 0.36804 1.439 255 255 255
0.418723 -0.11115 1.07 255 255 255
-0.314169 -0.190911 1.187 255 255 255
-0.173278 -0.114474 1.102 255 255 255
0.162829 0.141176 0.728 255 255 255
0.315292 -0.251643 1.098 255 255 255
-0.190557 0.162127 1.13 255 255 255
0.170388 -0.0117241 0.665 255 255 255
-0.509063 -0.484146 1.559 255 255 255
0.515719 -0.219762 1.176 255 255 255
0.31136 -0.131706 0.989 255 255 255
-0.0195248 -0.572583 1.579 255 255 255
0.114131 -0.608557 1.579 255 255 255
-0.123089 -0.213947 1.208 255 255 255
-0.226191 -0.0551196 1.064 255 255 255
-0.32333 0.505017 1.498 255 255 255
0.655027 0.256716 1.607 255 255 255
-0.185259 -0.0133602 1.048 255 255 255
0.250456 -0.380133 1.257 255 255 255
-1.25837 -0.962384 2.805 255 255 255
-0.548892 0.166061 1.289 255 255 255
-0.0089857 0.465477 1.201 255 255 255
-0.308656 -0.151538 1.152 255 255 255
-0.144071 0.052442 1.034 255 255 255
-0.0600351 -0.561694 1.563 255 255 255
0.00736194 -0.120054 1.027 255 255 255
0.433249 -0.0569308 1.034 255 255 255
0.143729 -0.117639 0.966 255 255 255
0.236707 -0.0550256 0.918 255 255 255
-0.324282 0.211982 1.141 255 255 255
0.367466 -0.0969267 1.048 255 255 255
0.527972 0.518356 1.372 255 255 255
0.144324 0.238617 0.97 255 255 255
-0.427085 -0.0896407 1.128 255 255 255
0.661342 0.23107 1.629 255 255 255
0.176764 0.267798 0.814 255 255 255
-0.202335 -0.0495967 1.057 255 255 255
-0.578116 -0.349688 1.406 255 255 255
-0.035982 0.213238 1.128 255 255 255
0.705299 0.428074 1.452 255 255 255
0.00553505 -0.0745122 0.999 255 255 255
0.585082 0.508302 1.375 255 255 255
0.104051 0.388219 1.041 255 255 255
-0.276066 0.0619767 1.083 255 255 255
0.0937562 0.239904 0.938 255 255 255
0.472083 0.118108 1.149 255 255 255
-0.13825 0.319561 1.154 255 255 255
0.101547 -0.269675 1.106 255 255 255
0.516276 0.468734 1.439 255 255 255
0.176077 0.102698 0.724 255 255 255
-0.101862 0.113058 1.05 255 255 255
-0.418319 0.316214 1.294 255 255 255
-0.510625 0.532956 1.612 255 255 255
0.204335 0.105109 0.741 255 255 255
-0.095548 -0.177676 1.116 255 255 255
0.121902 -0.29968 1.145 255 255 255
1.04752 -0.254842 2.121 255 255 255
0.166301 0.330119 0.893 255 255 255
0.275557 -0.0403051 0.923 255 255 255
0.125889 0.0562866 0.676 255 255 255
-0.0600476 -0.176597 1.098 255 255 255
0.083693 0.0244135 0.928 255 255 255
0.0808673 0.0974469 0.948 255 255 255
0.347657 -0.175712 1.05 255 255 255
0.378272 -0.129573 1.064 255 255 255
0.487424 -0.41238 1.294 255 255 255
0.566942 0.292177 1.559 255 255 255
0.0407971 0.150692 1.027 255 255 255
0.645668 0.357622 1.535 255 255 255
-0.591084 -0.0532649 1.267 255 255 255
-0.581891 -0.303031 1.351 255 255 255
0.510585 -0.289829 1.173 255 255 255
-0.301962 -0.618739 1.633 255 255 255
0.819698 0.172598 1.734 255 255 255
-0.183651 -0.157708 1.156 255 255 255
0.553186 0.44347 1.456 255 255 255
-0.407974 -0.241994 1.262 255 255 255
0.35106 -0.0417038 0.992 255 255 255
0.233675 -0.0888008 0.912 255 255 255
-0.432675 -0.457205 1.48 255 255 255
0.531856 0.455317 1.456 255 255 255
0.494291 0.498115 1.384 255 255 255
-0.0516059 0.413495 1.192 255 255 255
-0.237348 0.135531 1.108 255 255 255
0.224884 -0.138057 0.977 255 255 255
-0.2311 0.212294 1.104 255 255 255
0.0340436 -0.193212 1.025 255 255 255
0.181758 0.0511955 0.667 0 0 0
-0.249461 0.104948 1.09 255 255 255
0.17278 0.131155 0.725 255 255 255
0.257132 -0.114229 0.938 255 255 255
0.366913 -0.0469221 1 255 255 255
-0.506241 -0.41425 1.456 255 255 255
-0.0338129 -0.211884 1.06 255 255 255
-0.0678112 0.4974 1.278 255 255 255
0.260332 0.0754444 0.872 255 255 255
-0.553127 0.181446 1.294 255 255 255
-0.541111 -0.485317 1.571 255 255 255
0.135765 -0.147817 1 255 255 255
0.370007 -0.37491 1.267 255 255 255
-0.737308 0.5646 1.62 255 255 255
-0.120636 -0.359732 1.333 255 255 255
-0.6187 -0.0186739 1.299 255 255 255
-0.351533 0.534123 1.547 255 255 255
-0.137651 0.246429 1.104 255 255 255
-0.202353 0.163095 1.124 255 255 255
-0.29663 -0.154883 1.149 255 255 255
0.714352 -0.243654 1.456 255 255 255
0.784542 0.128581 1.789 255 255 255
-0.0363765 -0.135662 1.085 255 255 255
0.415523 0.136751 1.089 255 255 255
0.129462 0.241929 0.977 255 255 255
0.29667 -0.137305 0.983 0 0 0
0.422804 -0.0380871 1.025 255 255 255
-0.0165581 0.312506 1.06 255 255 255
-0.804285 0.370794 1.724 255 255 255
-0.145332 0.0941401 1.068 255 255 255
-0.383285 -0.210363 1.21 255 255 255
-0.249275 -0.245649 1.239 255 255 255
0.195304 -0.421125 1.342 255 255 255
-0.0692003 -0.0712383 1.022 255 255 255
-0.191285 -0.0202782 1.053 255 255 255
-0.527106 0.569421 1.575 255 255 255
-0.678292 0.0864281 1.429 255 255 255
0.196788 -0.0925741 0.92 0 0 0
0.191022 -0.193396 1.044 255 255 255
0.0720615 -0.0370014 0.954 255 255 255
0.104551 -0.181059 1.013 255 255 255
-0.951997 0.40588 1.859 255 255 255
-0.399457 0.436662 1.473 255 255 255
0.637949 0.370226 1.505 255 255 255
0.379359 -0.557729 1.435 255 255 255
0.660767 -0.135635 1.393 255 255 255
-0.258833 -0.293029 1.297 255 255 255
-0.251434 -0.492145 1.491 255 255 255
-0.512654 -0.186875 1.237 255 255 255
-0.185886 0.146633 1.124 255 255 255
-0.641636 0.451305 1.659 255 255 255
-0.385264 -0.501854 1.551 255 255 255
-0.668932 0.340468 1.583 255 255 255
0.0644682 -0.552646 1.559 255 255 255
-0.455902 -0.228971 1.247 255 255 255
0.885196 0.118507 1.769 255 255 255
0.611853 0.448412 1.449 255 255 255
0.109141 -0.0333635 0.939 255 255 255
-0.229564 0.545936 1.445 255 255 255
0.146635 0.110081 0.742 255 255 255
0.277297 0.131898 0.909 255 255 255
-0.668932 0.592922 1.583 255 255 255
0.144868 -0.205888 1.03 255 255 255
0.643846 0.435163 1.452 255 255 255
-0.0251855 -0.218784 1.06 0 0 0
1.06884 -0.194077 2.136 255 255 255
-0.464512 0.0956914 1.196 255 255 255
0.567372 -0.419177 1.289 255 255 255
0.0647643 0.173929 1.036 255 255 255
0.0334823 -0.00599561 0.961 255 255 255
-0.0426575 -0.575153 1.579 255 255 255
-0.119354 0.0232835 1.01 255 255 255
-0.21476 0.0903416 1.085 255 255 255
0.0246731 0.277289 0.984 255 255 255
-0.0459026 -0.446881 1.439 255 255 255
-0.467219 -0.206503 1.234 255 255 255
-0.39189 0.351347 1.348 255 255 255
-0.451615 -0.282094 1.305 255 255 255
0.343851 -0.445148 1.342 255 255 255
0.181214 0.0567924 0.669 0 0 0
0.125777 0.148827 0.961 255 255 255
-1.38957 -0.917966 2.638 255 255 255
0.46324 0.382964 1.359 255 255 255
0.433838 -0.258731 1.137 255 255 255
0.0525598 0.364942 1.062 255 255 255
0.159963 -0.250891 1.087 255 255 255
-0.382666 0.0564047 1.149 255 255 255
-0.16563 0.3859 1.247 255 255 255
-0.138475 -0.373383 1.359 255 255 255
-0.295665 0.179557 1.124 255 255 255
0.147848 -0.098884 0.923 255 255 255
0.200569 0.232667 0.798 255 255 255
-0.397542 0.462369 1.502 255 255 255
-0.0281804 0.36518 1.11 255 255 255
-0.127639 0.196635 1.16 255 255 255
-0.0366782 0.334992 1.094 255 255 255
0.241708 0.346666 0.887 255 255 255
0.594011 0.406935 1.487 255 255 255
0.170388 -0.00847758 0.665 0 0 0
0.659124 0.191088 1.65 255 255 255
-0.00567843 0.000262274 0.97 255 255 255
-0.14644 -0.0181062 1.027 255 255 255
