ply
format ascii 1.0
comment Created by Open3D
element vertex 1341
property double x
property double y
property double z
property uchar red
property uchar green
property uchar blue
end_header
-0.90234 -0.897598 3.609 51 52 46
1.01008 -0.882057 2.338 125 122 117
-0.0207502 0.293977 1.203 177 180 179
-0.253503 0.265796 0.719 107 99 87
-0.430971 0.04221 1.831 128 132 125
-0.392933 0.254511 1.07 143 151 138
-0.522155 0.253388 1.01 166 169 168
-0.454502 0.23204 1.26 134 144 130
-0.308707 0.197571 1.409 175 174 174
0.893056 -0.820208 2.402 133 131 119
1.13809 -0.740565 2.312 126 127 118
-0.449058 0.25389 1.012 183 191 188
-0.249999 0.251834 0.747 74 66 52
0.198477 -0.109998 2.519 57 23 11
0.201741 0.134051 2.411 125 116 107
0.450132 0.348075 1.682 126 127 123
0.0501783 0.345809 0.896 192 195 196
-0.141205 -0.516119 2.582 75 29 9
0.735634 0.783636 2.519 14 20 20
0.926256 -0.0513559 2.459 114 112 104
0.342079 0.371139 1.302 138 141 140
-0.236594 0.208145 1.403 150 151 142
0.162468 0.263436 1.273 164 171 165
0.74413 0.0571484 2.479 87 84 79
-0.231764 -0.686476 2.707 104 93 84
-0.680128 0.0258737 1.947 161 161 157
0.809144 -0.215943 2.42 110 103 97
-0.0840414 0.30502 1.108 186 187 183
0.926476 0.474916 2.449 73 74 68
-1.42947 -0.0980151 3.198 67 68 59
0.142428 0.299048 1.192 163 158 154
-0.0425459 0.337882 0.914 187 190 191
0.568861 -0.785109 2.489 137 129 128
-1.46481 -1.02866 3.086 118 115 110
0.789892 -0.526024 2.509 127 125 117
1.16138 0.862298 2.44 36 41 27
-0.763323 -0.459155 2.884 41 39 31
0.9834 -0.72504 2.347 132 130 122
0.904251 0.773579 2.411 41 30 23
0.0185876 -0.184964 2.593 53 24 10
-0.23668 -1.06315 2.818 134 129 125
0.855999 -0.386875 2.43 125 123 115
0.467243 -0.595435 2.509 136 127 120
-0.343145 0.102877 1.748 172 167 165
0.667354 -0.429753 2.449 129 125 116
0.157142 0.362774 0.952 188 194 192
-0.317119 0.119417 1.7 182 183 177
-0.0969604 0.289579 1.201 189 189 189
-0.094357 0.257435 1.244 161 155 159
0.382186 0.121991 2.017 178 173 169
0.195107 0.317697 1.182 137 137 133
-0.729289 -0.862244 2.898 55 54 54
0.474305 -0.133242 2.42 61 53 39
-1.50028 -0.682671 2.857 98 93 89
-0.0152958 0.274103 1.237 172 172 168
0.21911 0.373001 1.009 170 178 175
0.070513 -0.525882 2.489 59 29 13
-0.0483308 0.192629 1.789 167 157 157
1.10678 0.553091 2.374 83 81 73
-0.386658 0.208137 1.33 183 182 182
-0.289149 0.215666 1.31 152 150 138
1.15371 0.682153 2.449 75 77 68
0.460485 0.159927 1.959 169 166 163
0.986681 -0.182304 2.392 115 116 105
-0.00902767 0.335706 0.991 193 196 195
-0.0468728 0.138261 2.286 172 164 163
-0.0652972 -0.292289 2.572 59 25 5
-1.3927 -0.358992 3.071 105 102 97
0.485532 0.298223 1.848 128 128 128
0.838773 -0.182663 2.449 118 114 103
0.145112 0.242911 1.406 55 120 116
0.275604 0.252666 1.372 164 168 163
1.18322 0.398437 2.469 82 87 77
1.04234 0.116711 2.459 105 103 93
-0.255252 0.268444 1.077 120 125 115
0.834406 -0.628674 2.402 131 129 119
-1.20563 -0.639252 3.198 121 113 110
-0.114208 -0.145245 2.638 57 27 11
-0.0864727 0.320775 1.01 194 197 198
1.03833 -0.123385 2.459 114 112 104
0.332248 0.385893 1.234 132 140 137
0.590024 -0.587571 2.459 129 127 119
0.145514 0.35995 0.978 186 192 190
0.0955846 -0.411701 2.509 55 21 9
0.135882 -0.389727 2.499 57 22 5
0.848501 -0.726752 2.365 133 129 122
0.0400289 -0.701445 2.615 126 122 113
-0.18421 0.292376 0.88 191 194 193
-0.789248 -0.999173 2.793 137 139 130
-0.970694 -0.638675 3.248 47 39 36
-1.45861 -0.489175 3.011 105 103 93
1.05639 0.327773 2.365 91 92 81
-1.15386 -0.174707 2.996 128 117 110
-0.374896 -0.797281 2.755 136 129 123
0.913947 0.743974 2.469 40 35 33
-0.290903 0.280542 0.749 81 79 60
-1.51504 -1.08465 3.117 114 115 111
-0.548226 0.155524 1.513 84 92 81
0.602032 -0.631588 2.459 133 129 122
1.13156 0.184365 2.402 97 99 90
-0.213575 -0.0179193 2.278 150 141 132
-0.642376 0.0369239 1.865 172 174 165
-0.22577 0.30157 1.046 188 188 184
-0.368611 0.278752 0.741 115 121 123
1.06999 -0.310193 2.449 119 117 107
-0.114746 0.288104 1.203 190 190 192
0.438207 -0.579833 2.53 132 124 121
-0.192642 0.276326 0.719 130 116 97
-0.0680521 -0.565014 2.519 36 22 14
0.535786 0.29667 1.978 123 126 125
0.740876 0.821901 2.294 38 17 14
0.427205 0.0267519 2.294 174 135 76
-1.1807 -1.01828 3.04 129 129 125
0.639755 -0.00722194 2.42 25 16 9
0.134795 -0.511666 2.479 66 26 11
-0.647267 -0.48714 2.911 104 85 83
-0.252986 0.299213 1.032 195 198 197
0.930154 -0.851619 2.338 133 129 120
-0.570563 0.218217 1.366 141 151 135
0.807888 0.322285 2.44 84 79 75
-0.180562 0.151807 1.691 154 155 144
-1.48417 -0.276419 3.215 99 95 88
0.624557 0.27632 2.092 93 88 84
-0.365521 0.234999 0.806 135 118 104
-0.697364 0.0406873 1.899 161 163 150
0.285147 -0.93943 2.638 137 130 124
-1.21172 -0.748621 3.133 138 140 131
-0.00668129 0.338838 0.893 195 192 189
-0.516055 -0.485983 2.719 32 15 15
0.352039 -0.978261 2.593 136 132 125
0.441895 0.362445 1.612 117 117 121
0.0783393 -0.046103 2.615 52 23 13
-0.207104 0.299014 1.055 201 201 201
0.0123772 0.326175 1.027 192 195 196
-1.45805 -0.58483 2.768 132 129 115
-0.368364 -0.373708 2.707 63 28 13
0.824355 -0.509462 2.43 130 126 115
0.40902 -0.616231 2.43 136 129 121
0.939573 0.173285 2.411 104 102 94
-0.111426 0.172634 1.923 158 148 146
-0.38967 0.238513 1.126 134 144 130
0.956902 -0.905192 2.329 131 126 108
-0.491431 -0.537601 2.78 102 89 78
-1.42462 -0.395899 3.086 106 102 93
-0.990358 -0.997467 3.674 42 46 39
0.154846 0.296654 1.198 170 170 166
-0.525075 -0.151026 2.743 62 32 27
-0.366263 0.264999 0.98 143 155 147
-0.253812 -0.770381 2.755 135 125 123
0.360394 -0.346061 2.449 40 19 6
-0.138245 0.0652487 2.092 120 111 114
-1.0186 -0.605011 3.266 38 39 33
-0.0837666 -0.144584 2.626 56 25 12
0.316385 -0.253481 2.479 49 20 6
0.747084 -0.262369 2.449 107 99 96
-0.47704 0.232762 1.116 144 158 147
-0.515916 0.229011 1.351 144 154 140
-0.845325 -0.374109 2.844 33 22 15
-1.3539 -0.780817 3.04 122 120 110
1.05254 -0.599747 2.365 129 126 121
-1.35271 -0.743801 3.071 115 113 101
-0.500813 -0.0611706 2.374 161 158 153
-1.53337 -0.141328 2.911 43 29 21
-1.3995 -0.807697 3.086 117 115 105
-1.11615 -0.210927 3.026 83 74 81
0.276031 -0.350301 2.479 57 21 9
-0.268975 0.262366 0.739 125 114 91
0.327365 0.215324 1.591 114 135 93
-0.401175 -0.025216 1.978 182 181 181
-0.53978 -0.591631 2.844 127 122 118
-1.22751 -0.0129955 2.818 36 29 23
-0.371595 0.260232 0.791 104 102 92
-0.367595 0.033471 1.842 133 135 124
-0.162625 0.0313094 2.099 129 124 120
-0.131062 0.218019 1.351 111 105 109
-1.07951 -0.280994 3.149 137 126 119
0.239675 0.239044 1.452 67 110 74
-1.46771 -0.380103 3.04 78 76 68
0.0871684 0.241425 1.359 146 157 155
0.197617 0.0548711 2.561 56 27 15
-1.47086 -0.545243 2.996 108 106 98
0.101498 0.286551 1.213 159 161 152
1.07973 -0.265924 2.374 120 118 110
-0.276889 0.23947 0.754 117 110 102
-0.00271017 0.32277 1.043 192 195 196
0.998578 -0.420455 2.374 124 125 114
-0.828354 -0.494396 2.898 34 18 11
1.02564 0.318634 2.383 94 96 87
0.0319207 0.217047 1.463 102 121 123
0.720507 0.0403666 2.44 84 81 76
-0.428672 -0.651796 2.844 129 119 117
-0.240429 0.259108 0.74 118 108 94
-0.644561 -0.924434 2.857 132 130 122
-0.175148 0.278983 0.729 122 114 100
1.04891 -0.429805 2.383 124 122 110
0.856416 -0.298644 2.42 124 122 112
0.695706 0.702612 2.479 82 85 84
0.318177 0.202902 1.637 146 152 150
-0.282248 0.0220756 1.893 169 157 157
0.836267 0.55153 2.489 69 71 62
0.0802052 0.257154 1.283 170 169 169
0.740367 -0.257435 2.44 106 99 93
-0.0441739 -0.35772 2.561 52 21 10
-0.51168 -1.02146 2.743 138 131 123
0.0636239 0.323681 1.104 188 191 190
-0.326531 0.243817 1.169 142 147 137
-0.432735 0.25219 1.032 190 193 192
-0.495741 -0.780306 2.857 135 128 120
0.746065 0.679814 2.499 60 61 55
-1.10888 -1.04211 2.967 76 71 67
-0.467822 0.0186539 1.859 130 130 130
0.975166 -0.159613 2.402 117 115 103
0.940298 -0.375514 2.383 124 122 110
0.13507 0.328255 1.072 182 188 188
-0.61132 0.215726 1.237 129 143 134
1.09519 0.0585911 2.374 99 100 91
0.168716 0.24165 1.412 102 131 128
0.740882 0.555962 2.509 71 69 59
1.0877 0.477629 2.383 78 82 77
-1.28455 -0.942049 3.149 113 111 101
0.679148 0.0439738 2.42 26 21 17
-0.162629 0.153064 1.705 165 165 165
0.954898 -0.0426652 2.42 112 110 98
-1.03489 -0.616866 3.301 37 39 30
0.94627 0.624915 2.459 69 69 63
-1.38707 -0.0582734 3.026 78 72 57
-0.130787 -0.204411 2.626 61 26 11
0.792518 0.81763 2.303 50 25 18
-0.268133 0.229336 0.757 111 109 97
-0.775609 -0.0356058 2.793 28 18 6
0.660268 0.157069 2.236 100 98 90
0.0105449 -0.806231 2.695 136 128 125
-0.156517 0.283404 1.208 171 168 165
0.798061 0.629455 2.509 66 68 59
-0.62499 0.148823 1.52 174 176 167
-0.143894 0.296941 0.814 154 150 153
-0.62197 0.190309 1.297 181 189 186
0.284224 0.168971 1.953 153 148 144
-0.436043 0.162241 1.744 52 66 55
-0.83301 -0.214771 2.818 28 17 12
-0.314021 0.24772 0.776 119 110 91
0.123105 -0.124869 2.572 56 25 12
-0.877093 -0.134057 2.857 36 22 14
0.0796874 -0.839047 2.66 137 129 128
-1.28312 -1.15649 3.133 118 119 108
-0.0208976 0.138745 2.294 164 156 155
-0.0361301 -0.163171 2.582 56 22 10
-0.340649 0.291574 0.989 68 69 56
0.582716 -0.386608 2.479 127 123 116
-0.190632 -0.653115 2.626 52 32 33
-0.0617147 0.229653 1.281 26 113 110
0.950933 -0.0388871 2.43 109 110 97
0.0672625 -0.454335 2.519 49 23 8
0.173348 0.195567 1.763 152 152 146
0.837585 0.707814 2.469 44 44 40
-1.40744 0.0185154 2.731 58 70 60
-0.275692 -0.0555827 2.469 166 158 155
0.371185 0.363769 1.387 133 136 135
-1.32867 -0.594441 3.181 117 115 105
0.0806214 0.196608 1.629 72 125 118
0.0824321 0.197772 1.516 1 107 107
1.09104 0.231557 2.365 94 98 91
-0.224456 0.173224 1.539 147 145 137
0.524422 -0.693426 2.509 136 131 127
0.172581 0.280629 1.213 7 94 94
1.04869 -0.634385 2.365 125 126 117
-1.36936 -0.350701 3.086 106 107 98
-0.294754 0.195088 1.477 164 158 160
0.0922663 -0.378093 2.53 60 26 6
-0.547667 0.192986 1.498 120 128 117
-0.331659 -0.488423 2.66 55 25 9
-0.392034 0.239391 0.812 116 119 101
-1.37344 -0.0126496 2.743 47 54 62
0.418643 0.077049 2.136 170 167 162
-1.16215 -0.897328 3.266 38 39 33
0.274258 0.267319 1.302 165 165 165
-1.04284 -0.27035 3.086 135 124 117
-0.0920432 0.22619 1.297 78 127 128
0.152957 0.22595 1.459 0 77 79
0.713599 -0.189155 2.43 62 47 37
0.558131 0.329919 2.024 105 106 102
0.4199 -0.597808 2.519 135 126 121
0.242614 -0.521941 2.509 112 110 100
1.03773 -0.3746 2.402 124 122 114
-0.102728 0.325129 0.92 180 183 184
-0.619192 0.146735 1.524 178 182 175
-1.47182 -0.758818 3.133 117 118 109
0.249747 -0.549057 2.54 121 114 108
-1.11083 -1.06084 3.931 45 45 47
-0.605957 0.217146 1.281 175 186 186
-0.0329104 0.208508 1.487 158 155 152
-0.343441 -0.317844 2.719 56 22 10
0.336155 0.184221 1.821 165 158 152
0.701732 -0.746726 2.43 132 133 124
0.667562 -0.84606 2.365 135 132 127
0.679077 -0.279618 2.392 36 17 11
-1.46628 -0.535137 2.967 106 107 98
-0.114208 -0.140952 2.638 65 39 26
0.349038 0.135727 1.978 175 165 165
0.130304 0.322255 1.137 187 190 191
-0.767734 -0.00684592 2.294 147 147 143
-1.48077 -0.675158 2.967 104 106 95
-0.181268 0.28811 1.141 192 192 192
-0.0155718 -0.878006 2.66 137 130 124
-0.0299987 0.342157 0.991 193 196 197
-0.0666235 0.205998 1.599 172 164 163
1.22931 0.864504 2.402 56 63 55
-0.398398 -0.121028 2.672 142 131 122
0.710662 -0.75153 2.42 131 132 123
-0.0412079 -0.840694 2.638 138 128 126
0.867866 0.257694 2.43 99 94 90
-0.500674 -0.339959 2.684 52 23 11
-0.515457 0.15049 1.563 107 106 91
0.621211 -0.805389 2.44 135 130 126
-0.111784 -0.343846 2.582 58 23 6
0.378896 -0.417441 2.519 98 89 84
-0.0999016 0.194215 1.677 170 166 157
-0.611839 0.208014 1.289 186 192 190
-1.47492 -0.3543 2.871 32 30 22
-1.02347 -0.509143 3.231 33 29 22
0.426402 -0.432116 2.509 120 115 111
0.0395238 -0.0245124 2.582 49 24 15
1.06126 -0.464046 2.42 124 121 118
0.417904 -0.659599 2.459 135 128 120
-1.19538 -0.283211 3.117 130 121 114
0.189014 -0.897196 2.615 138 131 123
-0.184489 0.209238 1.442 186 181 179
0.263215 0.393074 1.068 141 153 155
0.629526 -0.874286 2.411 132 133 122
0.171863 -0.156999 2.55 62 25 11
-0.432184 0.0836771 1.763 141 132 135
0.100499 -0.789179 2.638 135 128 120
0.231417 0.146339 1.991 171 161 161
-0.149783 0.289407 1.027 196 196 198
0.0346094 -0.448084 2.53 48 19 7
-0.884963 -0.263312 2.898 37 30 22
0.818766 -0.562224 2.402 132 130 122
0.945896 0.1459 2.479 106 104 94
0.101752 0.333256 1.018 191 194 195
0.89553 -0.316371 2.347 122 123 114
-1.26917 -0.291243 3.149 126 117 108
0.257919 -0.37346 2.499 58 25 10
0.0588271 -0.493361 2.509 61 26 9
0.554875 -0.475128 2.499 132 124 123
-0.52309 0.10725 1.563 129 134 120
0.81749 0.776117 2.469 15 15 15
-0.203456 -0.550554 2.626 67 30 14
-0.0519956 0.293488 1.201 194 197 198
0.0618374 0.328561 1.073 192 192 192
0.0280588 0.249384 1.286 169 172 171
0.883688 -0.0507503 2.43 112 113 104
0.672643 -0.619824 2.383 131 132 123
1.07921 -0.206398 2.356 113 114 105
-1.32686 -0.0220649 2.805 63 62 62
0.0145206 0.213462 1.393 103 140 141
0.173348 0.198436 1.763 143 144 140
-0.603652 -0.737554 2.818 134 127 121
-0.587443 0.245529 1.225 136 153 135
0.998578 -0.389549 2.374 125 123 111
-1.2094 -0.955496 2.953 116 117 106
-0.533442 0.126562 1.52 115 123 112
-0.0844867 0.183614 1.815 162 156 158
1.06831 0.0937145 2.383 101 102 91
-0.0240978 0.337007 0.892 177 176 178
1.05435 -0.319463 2.459 119 118 103
-1.32349 -0.475381 3.181 113 109 102
-0.617414 -0.943915 2.818 138 131 121
-1.54165 -1.13472 2.982 103 113 101
-0.77243 -0.587172 3.011 44 44 40
0.251028 0.318895 1.201 142 146 139
-1.0866 -0.225699 3.026 130 119 112
-0.0725096 -0.890295 2.684 136 131 127
0.9121 -0.399544 2.411 127 125 115
0.14385 0.214666 1.463 0 95 98
1.1619 0.175812 2.392 95 100 90
0.564909 -0.11749 2.42 43 25 14
-0.093193 0.323782 0.994 199 199 201
-0.1694 -0.769512 2.768 131 121 119
-0.390255 0.240976 1.112 133 146 133
-0.598318 0.116222 1.547 146 155 148
-1.28553 -0.745138 2.996 122 120 108
0.0424905 0.115001 2.509 118 110 109
1.06235 -0.491532 2.459 125 122 117
0.400295 -0.837063 2.499 138 131 123
-0.817635 0.0502777 1.612 141 149 138
0.092294 -0.736429 2.649 131 122 117
1.10029 0.411078 2.402 85 90 78
-1.38312 -0.597698 3.117 113 114 105
0.791699 0.0452276 2.489 94 87 81
0.191956 0.200131 1.831 157 152 150
0.403499 -0.868358 2.519 134 132 124
-0.596807 0.214512 1.316 167 175 174
0.172781 0.210335 1.466 0 79 95
-0.163022 0.114236 1.941 100 94 98
0.18792 0.368365 0.975 181 189 188
-1.45769 -0.493925 3.071 111 109 97
0.176724 0.353946 1.03 181 184 183
0.302117 0.160498 1.966 163 155 154
-1.17162 -0.523067 3.354 24 25 21
0.0922213 0.320399 1.124 190 193 194
1.10065 -0.0702321 2.42 107 109 100
0.0230683 0.343094 0.92 186 189 190
-0.686417 -1.04996 2.857 138 140 131
-0.28168 -0.102316 2.638 159 152 146
1.09656 -0.0150421 2.411 102 103 97
0.382996 -0.433838 2.519 117 114 109
0.810313 0.629455 2.509 66 67 58
-0.618194 0.199951 1.378 129 141 131
-0.184552 0.295896 1.044 196 196 196
-0.215414 0.104407 1.774 183 182 182
0.0899091 0.324147 1.118 191 194 193
0.880052 -0.101737 2.42 114 112 104
-1.40676 -0.847221 3.102 120 118 108
0.323913 0.0306046 2.303 186 152 90
0.037563 0.332156 1.03 193 193 193
-0.048135 -0.0491068 2.55 156 145 138
0.817643 0.427002 2.519 73 74 65
0.0388808 -0.408521 2.54 43 21 11
-1.44974 -0.466206 3.086 108 105 91
0.883688 -0.450146 2.43 129 127 117
-1.15311 -0.966034 3.301 36 43 35
-0.431251 0.235357 1.07 139 152 137
-1.21355 -0.832167 3.011 102 96 83
0.928275 -0.361362 2.392 127 125 115
-0.59097 0.132201 1.528 61 55 59
0.308314 -0.37854 2.479 35 14 11
0.912417 0.159914 2.509 104 102 94
-0.370412 -0.595533 2.755 85 66 62
0.994713 -0.540217 2.374 123 124 113
0.519288 0.0236409 2.356 103 111 96
0.585134 0.36022 2.085 89 90 84
-0.351519 0.219203 0.801 92 78 70
-0.279497 -0.883083 2.743 138 129 122
-0.970106 -1.10111 2.857 134 139 129
0.0199082 0.334012 0.986 190 193 194
0.947743 -0.201767 2.392 115 116 105
-0.453653 0.153872 1.714 104 106 95
-0.0537905 0.220942 1.291 34 123 131
0.338325 0.111755 2.01 178 173 169
-0.37379 0.202063 1.362 189 189 189
0.169205 -0.892208 2.638 138 131 125
-0.315326 0.271876 0.752 130 116 101
0.801266 0.0242831 2.42 102 98 89
0.184732 0.27516 1.215 95 137 138
0.513971 -0.841125 2.44 135 133 125
0.128875 0.0854554 2.604 53 27 16
1.08201 -0.518607 2.329 122 123 117
0.564909 -0.133242 2.42 41 23 12
-1.51268 -1.03366 3.071 111 113 102
0.847201 0.0549353 2.383 105 106 97
-0.559774 -0.807186 2.805 136 128 127
0.618043 -0.855678 2.459 132 130 122
-1.33068 -0.726822 3.149 120 116 107
-1.25379 -0.583337 3.149 105 103 93
-0.334589 -0.317844 2.719 58 25 10
0.436302 -0.552716 2.519 132 124 121
0.204216 -0.323361 2.489 58 23 8
-0.733857 0.114194 1.52 184 191 185
0.353532 -0.944273 2.604 137 130 122
1.11311 -0.790225 2.43 130 131 122
-0.222691 0.269228 1.215 194 194 196
0.227081 0.144464 2.01 169 159 157
-0.175867 0.192654 1.575 186 180 184
0.874917 -0.8261 2.374 133 129 120
-0.405825 0.229951 1.12 153 158 148
0.154464 0.237583 1.429 28 79 82
-0.57071 0.245915 1.118 161 169 170
0.0407716 0.345319 0.914 184 190 190
-0.568553 0.0481599 1.724 168 168 164
0.975543 -0.742147 2.365 127 128 117
-0.428076 -1.06238 2.78 138 131 121
0.0400289 -0.054614 2.615 46 21 14
-0.563659 0.238301 1.294 182 188 188
-0.00670916 -0.179978 2.582 48 19 7
-0.273217 0.259298 0.744 116 107 88
1.02215 0.662227 2.449 71 65 67
0.933196 -0.461196 2.365 124 124 118
-0.788073 -0.0448881 2.805 29 15 9
-0.140056 -0.570267 2.561 56 24 4
0.436137 -0.294252 2.449 48 26 16
-1.4821 -0.0311942 2.805 58 94 88
-0.379808 0.199864 1.409 189 189 189
-0.342489 0.20882 1.294 189 189 191
1.12261 0.109226 2.383 99 96 91
0.0400289 -0.918473 2.615 139 131 130
0.875449 -0.907638 2.365 132 128 119
-0.402853 0.247889 1.064 144 159 143
-0.106493 0.322777 0.877 166 169 172
-0.141089 0.203382 1.559 172 171 171
1.16742 -0.0453708 2.356 102 104 95
-0.122851 -0.0574062 2.55 168 158 156
-0.322729 -0.639231 2.731 97 89 86
0.287621 0.237973 1.505 103 117 108
0.625183 -0.860978 2.44 134 135 126
-0.156316 0.200845 1.559 175 171 172
-0.373263 -0.811663 2.743 136 129 123
-0.827332 -0.989278 2.911 32 35 36
-0.0480589 0.182263 1.893 165 156 159
-0.113139 0.302691 1.147 196 196 198
-0.492425 0.225945 1.359 181 181 181
-0.553668 -0.832293 2.844 135 130 126
-0.207302 -1.01281 2.793 136 131 127
-0.521537 -0.643968 2.871 130 123 115
0.396319 0.156008 1.911 166 158 155
-0.40179 0.178262 1.607 150 151 145
-0.200964 0.294009 1.068 199 199 201
0.657586 0.227128 2.078 118 117 119
0.162786 0.0939305 2.604 53 29 15
-1.03987 -0.567806 3.266 34 36 27
0.359449 0.0626861 2.244 166 151 139
-0.641713 0.0525913 1.779 140 137 132
0.245379 -0.905243 2.626 141 133 130
0.42877 -0.393794 2.499 121 112 107
0.91053 0.351371 2.449 94 91 86
-1.46145 -0.627494 2.818 112 116 95
0.990726 -0.181618 2.383 115 116 105
0.729794 0.809948 2.499 25 14 18
-0.343389 -0.514669 2.684 47 26 13
-0.158262 -0.0403113 2.519 169 159 157
0.706723 0.00459247 2.42 70 71 60
0.912606 -0.409779 2.402 127 125 115
0.639211 -0.269618 2.479 101 99 91
-0.263597 0.274748 0.721 99 90 71
1.08402 -0.711694 2.392 125 127 116
0.532567 0.303107 1.978 128 128 128
0.384137 -0.0264011 2.374 128 97 68
0.727642 -0.654571 2.411 134 130 121
0.335204 -0.0596005 2.469 89 70 45
-1.18747 -0.813099 3.248 40 41 37
-0.215706 0.134896 1.686 138 139 128
-0.765731 -0.529774 2.911 48 43 39
-0.0214065 0.326477 1.044 194 197 198
-0.632121 0.0651815 1.729 122 121 106
-0.303165 0.2956 1.037 112 114 103
1.14108 -0.59205 2.365 126 127 118
-0.218957 0.245199 1.286 196 196 192
-0.710092 -0.377625 2.768 41 25 22
-0.493346 0.165187 1.607 110 108 96
1.18407 0.518321 2.374 77 82 72
0.46343 0.0976312 2.057 171 168 163
-0.633699 -1.11585 2.871 138 130 118
-0.110976 0.312555 1.072 196 196 198
0.332439 -0.84253 2.54 135 131 124
-1.16227 -0.404252 3.507 29 33 26
-0.54432 0.125646 1.509 122 127 113
-0.0445361 -0.272416 2.582 58 23 6
-1.51474 -1.02827 3.055 107 112 102
-0.129653 0.288374 1.196 194 194 194
-0.785575 -0.334022 2.78 32 21 12
0.482197 -0.213757 2.44 61 27 7
0.694652 -0.882967 2.392 135 131 122
-0.422105 -0.782419 2.831 136 127 120
0.0650289 0.202305 1.513 1 117 111
0.15176 -0.211855 2.561 54 23 10
-0.272485 0.308104 1.017 182 189 181
1.08746 0.0701809 2.374 101 103 92
1.06635 -0.331468 2.459 124 122 112
-0.399753 0.240345 0.848 86 91 81
0.184697 -0.316526 2.499 59 24 9
-0.667917 -0.148539 2.78 38 20 11
-0.116394 0.296037 1.18 192 195 194
-1.37646 -0.271752 3.102 104 99 95
-0.325041 0.276886 0.749 109 102 94
1.04982 -0.473872 2.43 127 122 118
-0.287266 0.312646 1.005 173 176 177
-0.368364 -0.347277 2.707 61 26 9
0.0435819 0.343683 0.977 190 193 194
-0.218254 0.000552668 2.044 162 159 154
0.741288 -0.117975 2.43 94 92 84
0.127824 0.315024 1.165 190 190 192
-1.15017 -0.979884 3.631 41 45 38
-0.633662 0.179202 1.278 142 155 142
1.13755 0.735236 2.44 66 67 56
-0.494727 0.123038 1.603 136 138 127
-0.398253 -1.08099 2.793 136 131 127
0.506093 -0.32172 2.54 111 107 100
-0.0478074 0.336009 0.901 149 149 153
0.246579 -0.0574062 2.55 58 25 10
-0.287131 0.239882 1.237 189 189 189
-1.21172 -0.631357 3.133 137 137 133
0.45787 0.280309 1.81 134 133 133
0.441561 -0.0421715 2.392 129 106 87
-0.367232 0.237033 0.804 125 114 91
0.994291 0.193623 2.42 97 98 87
0.87217 0.102343 2.499 104 105 96
0.075079 0.299351 1.201 144 144 140
-0.125805 0.300694 0.817 192 198 198
1.15543 0.44793 2.411 81 85 78
-0.781093 0.0631973 1.607 145 158 143
1.18134 -0.0488289 2.338 102 103 92
-0.342845 0.236371 0.793 74 64 52
0.849048 0.274992 2.479 99 95 88
-1.3342 -1.1291 3.086 121 122 118
0.810313 0.633538 2.509 67 68 59
0.205298 0.293233 1.208 17 59 58
0.0285025 0.135342 2.365 161 150 154
1.05461 0.000667582 2.469 106 107 96
1.21822 0.589175 2.411 72 80 69
-0.323159 0.206902 1.336 134 135 126
1.19075 0.36946 2.411 86 87 81
0.173031 0.35955 0.999 184 190 188
-0.0739289 0.289301 1.208 186 189 190
-0.578038 -0.875656 2.805 138 131 125
-0.135888 -0.578602 2.561 46 22 8
1.12907 -0.658809 2.356 125 126 117
-1.34606 -0.204127 3.149 96 94 84
0.914242 0.857909 2.261 55 32 27
-0.603132 0.232408 1.262 128 141 128
0.679077 -0.0810972 2.392 36 27 20
-0.201752 -0.0359246 2.499 167 157 155
-0.0660633 0.289301 1.208 183 186 185
-0.400925 -1.02167 2.78 134 130 123
-0.353571 -0.179083 2.695 60 26 6
-0.393349 0.282542 0.778 166 180 184
0.826814 -0.278311 2.449 120 120 114
-0.63779 -0.723997 2.911 133 129 120
-0.189533 0.150191 1.673 136 137 128
-1.28592 -0.503893 3.165 75 77 68
0.146103 0.268307 1.257 19 129 128
-1.18063 -0.92517 3.215 54 51 48
0.76962 -0.623702 2.383 133 131 123
-0.917214 -0.0422157 2.638 97 85 85
0.830932 -0.890752 2.392 135 131 124
0.352112 0.358109 1.357 136 139 138
-0.900085 -0.167418 2.871 86 68 59
-0.509187 -0.116156 2.66 158 149 142
0.941375 -0.430951 2.347 126 124 114
-1.3908 -0.511617 3.181 113 111 99
-1.36434 -0.913158 3.086 122 121 106
0.0844268 0.335182 1.029 190 193 192
1.06387 0.334194 2.356 90 92 83
-1.19109 0.000744912 2.755 40 38 28
-0.0109122 -0.192583 2.582 54 23 10
0.0570557 0.0815609 2.615 45 20 13
-0.421457 0.255483 1.025 185 193 190
-0.197285 0.250405 0.75 121 119 100
0.913947 0.177454 2.469 104 102 94
-0.0555797 0.295663 1.194 197 197 197
-0.773377 -0.242286 2.818 28 17 12
1.00629 -0.47409 2.411 128 124 115
1.01414 0.412618 2.411 86 88 77
1.05863 -0.0475469 2.469 111 109 99
0.315928 0.191014 1.774 162 157 153
-0.521778 0.0494577 1.673 138 140 129
0.150995 0.217047 1.463 0 88 103
0.950273 0.148724 2.459 104 102 90
-0.164322 0.265051 0.75 103 83 73
0.929645 -0.735488 2.356 131 132 123
-0.525036 0.219686 1.449 190 193 192
1.10188 -0.513445 2.449 127 119 116
0.0934332 0.332405 1.036 188 191 190
-0.000987133 0.324654 1.017 193 196 197
-0.0585787 0.312902 1.104 188 191 192
-0.170877 0.158737 1.677 174 171 166
-1.42696 -0.322232 3.102 108 104 95
-1.07613 -0.0680252 2.818 144 144 140
-1.23297 -0.422912 3.215 136 137 131
-0.562894 0.0672458 1.642 166 166 166
0.274852 0.306758 1.247 143 142 142
-1.23004 -0.74267 3.41 31 33 24
0.295709 -0.109562 2.509 59 24 7
0.0226238 -0.020232 2.572 43 21 13
-0.116061 0.210051 1.498 171 163 162
1.10048 -0.0856649 2.411 105 107 91
0.967212 -0.260155 2.392 118 119 110
0.223359 0.325384 1.189 137 136 138
-0.48717 -0.0697097 2.402 159 154 152
-1.57163 -0.939123 3.04 105 106 100
0.270899 -0.417191 2.469 51 24 16
0.328563 0.195172 1.734 169 164 162
-0.0947415 -0.806231 2.695 135 126 121
0.318551 0.180887 1.911 159 150 143
-0.0549898 0.152152 2.166 167 158 161
-1.21636 -0.744897 3.055 106 104 96
-0.824601 -0.140746 2.805 29 18 9
-0.361751 0.252828 0.792 104 98 85
0.219313 0.358059 1.083 179 185 185
-0.491984 0.223318 1.442 189 190 184
-0.506294 0.221808 1.463 188 189 183
0.199311 0.257849 1.297 163 170 162
-0.0553081 -0.519861 2.499 39 19 9
0.822414 0.821319 2.212 56 26 21
0.487732 0.163697 1.966 165 161 162
0.998347 0.141293 2.469 106 104 94
0.800624 0.686475 2.479 61 62 53
0.856525 0.349009 2.489 90 82 79
0.897629 -0.278566 2.383 120 121 110
-0.185577 -0.531226 2.615 62 25 9
0.594026 -0.371484 2.459 128 121 115
1.13448 -0.795983 2.32 118 120 109
0.092294 -0.801091 2.649 137 128 123
-1.20468 -0.61564 3.266 39 45 47
-0.486563 0.0915169 1.646 121 123 114
0.597222 -0.574487 2.489 132 128 129
0.0259453 -0.546134 2.489 29 20 13
-0.154292 0.287254 1.002 195 195 195
-0.0910497 0.236275 1.283 144 147 146
-0.790313 0.054557 1.953 163 169 167
-0.230964 0.275358 1.112 174 180 180
-0.68468 -0.194685 2.793 42 20 10
-0.403038 0.263898 1 181 181 185
-0.462089 0.157507 1.664 137 137 131
0.487373 0.121205 2.004 174 171 168
1.05194 -0.859229 2.338 99 107 94
0.125166 0.32865 1.062 185 188 187
-1.32198 -0.36998 3.165 113 110 94
-1.30908 -0.898092 3.086 120 121 108
-1.16413 -1.06165 3.982 40 47 39
-0.16996 0.1606 1.668 178 173 169
-0.302469 0.197992 1.412 182 178 179
0.322322 -0.92661 2.626 137 132 128
-0.237041 0.271684 1.09 194 197 196
0.968311 -0.879042 2.32 129 127 119
0.911377 0.297238 2.43 91 92 83
-0.107283 0.183047 1.753 151 146 142
0.887644 -0.102158 2.43 115 113 105
-0.184015 -0.417046 2.593 61 24 8
-0.152471 0.287806 0.95 195 195 197
0.0116726 0.231422 1.327 17 104 101
0.09524 0.241665 1.348 140 158 154
1.07097 -0.223845 2.338 115 113 103
-1.47935 -0.593432 2.898 109 110 97
-0.592942 -0.418165 2.768 36 17 11
1.04156 -0.271077 2.42 118 119 106
-0.366731 -0.828159 2.695 137 130 124
0.680979 -0.507661 2.499 132 127 123
-0.165627 0.299677 0.92 192 195 194
-1.4196 -0.611842 3.086 115 116 107
0.365516 -0.859064 2.54 139 130 125
-0.147335 0.22044 1.339 123 115 112
1.01027 -0.501553 2.43 125 123 115
-0.575874 0.229262 1.327 147 155 142
0.830734 0.453888 2.509 75 76 65
-0.312088 0.276356 1.022 126 132 132
-0.052737 -0.275547 2.572 59 24 7
0.945896 0.37988 2.479 88 90 81
-0.241164 0.253925 0.746 88 83 63
0.926004 0.707814 2.469 59 62 65
0.571146 -0.32466 2.499 120 118 108
1.1682 -0.375613 2.312 121 119 109
0.558942 -0.536128 2.499 134 126 123
0.652986 -0.297141 2.44 94 84 82
1.10292 0.224712 2.374 92 97 87
-0.572886 -0.184731 2.78 53 24 12
-0.459977 0.235797 1.072 155 165 153
0.0255414 0.267956 1.265 138 138 134
0.754201 0.643213 2.499 62 63 59
-0.224438 -0.795468 2.78 135 126 117
-0.582227 0.198552 1.416 184 190 188
0.428164 -0.63699 2.449 134 129 125
1.07538 0.42621 2.356 84 85 81
0.0707337 -0.727808 2.649 130 121 116
1.09546 -0.414294 2.383 122 120 112
1.20577 0.357198 2.356 85 89 82
-0.106246 0.249429 1.265 179 173 175
1.20553 0.797728 2.449 67 69 60
1.04634 -0.515542 2.459 122 123 114
-0.574919 -0.976716 2.768 134 132 124
-0.478323 -0.265916 2.731 56 22 10
-1.24064 -0.454675 3.181 128 125 122
-0.888446 -0.284805 2.925 36 34 22
0.628594 -0.565853 2.469 132 127 125
-0.243033 -0.308375 2.638 61 26 9
0.844598 -0.393159 2.42 128 126 118
-0.723385 0.109534 1.524 169 173 168
0.359142 0.369438 1.342 132 138 136
1.07126 -0.100588 2.489 111 109 99
-1.44974 -0.541535 3.086 114 110 101
-0.17189 -0.0275688 2.479 168 158 156
1.13723 -0.776784 2.365 124 128 123
-0.408944 0.224726 1.265 174 174 174
-0.226798 -0.296729 2.649 61 26 9
-0.45099 0.137796 1.758 53 56 57
0.584385 -0.336834 2.469 125 117 114
-0.959866 -0.218166 2.925 87 69 75
0.416464 0.340453 1.595 133 136 135
0.818182 0.792982 2.459 11 21 9
-0.1551 0.28997 1.029 196 196 198
-0.215185 0.0263787 1.985 135 131 124
0.129008 0.264882 1.27 130 150 145
-0.119724 -0.468079 2.572 57 20 6
0.530493 0.0863605 2.196 155 156 147
0.294971 0.237973 1.505 102 121 111
0.662176 -0.723 2.43 133 130 125
0.389316 0.318482 1.539 143 143 143
0.173184 -0.338208 2.509 59 24 9
1.11247 -0.464046 2.42 122 123 112
-0.292412 0.237977 0.769 112 104 92
-0.758896 0.0577944 1.853 142 149 143
-0.44478 0.302087 0.847 41 56 51
0.549718 -0.876861 2.44 134 132 122
-0.453695 0.128411 1.673 122 122 118
0.359318 -0.276566 2.469 58 24 12
1.1324 -0.182694 2.347 108 113 99
-0.386141 0.146353 1.724 73 74 63
0.260909 0.185931 1.899 139 130 123
-0.778528 0.0561097 1.629 134 145 126
-0.360543 -0.0772046 2.392 163 158 156
-0.157928 0.288498 0.984 193 196 197
-0.198347 -0.569525 2.615 64 29 12
0.929755 0.726817 2.479 62 59 54
-0.793191 0.0530485 1.899 140 149 140
0.126533 0.35667 0.932 180 188 187
0.118963 0.329292 1.053 188 191 190
0.793376 0.354241 2.469 80 78 70
0.0569749 0.135107 2.43 159 151 150
-0.961035 -0.790802 3.631 42 46 39
0.169817 -0.00770539 2.582 56 25 12
-0.371158 0.238341 0.804 131 123 111
0.465732 0.177409 1.941 162 159 156
-1.53377 -1.00836 2.939 110 114 107
-1.45577 -0.541556 2.898 106 105 90
0.66759 0.833915 2.286 62 45 27
1.22546 0.753889 2.449 72 69 64
-0.120031 0.305581 0.823 184 192 193
0.678006 -0.898385 2.402 135 131 120
-0.0566803 -0.391061 2.561 62 30 10
0.35576 0.186168 1.729 163 159 160
-0.478039 0.0907813 1.682 105 101 92
-0.481538 0.106477 1.629 136 137 131
-0.611459 0.199864 1.409 160 163 162
-1.25627 -0.947693 3.117 102 104 88
0.856525 0.579883 2.489 67 68 59
1.1619 0.514466 2.392 77 84 78
-0.0108699 -0.254619 2.572 58 25 10
-0.400542 0.230897 1.152 182 189 181
0.36628 -0.764857 2.489 138 131 123
-0.141205 -0.490908 2.582 67 32 17
0.0565757 0.0682157 2.593 46 24 14
-0.0181781 0.345026 0.963 195 198 197
0.0944549 0.256152 1.278 166 165 167
0.441561 -0.0460641 2.392 130 105 85
-0.67576 -0.868227 2.871 119 120 109
1.08792 -0.00324581 2.392 104 104 98
0.938265 0.740961 2.459 40 36 39
-1.0789 -0.113448 2.925 129 126 121
-0.541209 -0.202827 2.78 50 25 7
-0.741632 -0.332581 2.768 41 30 21
-0.511396 0.278607 0.983 172 182 185
0.863323 -0.659979 2.374 130 130 124
1.07973 0.0894973 2.374 105 103 93
-1.28312 -0.697637 3.133 109 106 92
1.12371 -0.692949 2.329 124 125 119
0.60434 0.342491 2.166 90 90 84
0.537018 0.217309 1.959 129 124 122
-0.150845 0.149591 1.729 166 165 167
0.363337 -0.232369 2.469 46 22 10
-0.762827 -0.568888 3.071 44 44 38
-0.154469 0.299865 0.916 190 193 192
-0.482152 -0.871091 2.805 138 131 123
0.909928 0.739956 2.469 42 39 36
-0.339015 -0.322268 2.719 57 23 11
-0.053654 0.197531 1.682 170 165 163
-0.562927 -0.582375 2.844 123 119 112
-0.593169 0.21471 1.372 137 150 135
-0.419751 0.221214 1.305 176 176 176
-0.0467667 0.339484 0.939 192 195 196
0.109679 0.227229 1.452 12 74 68
1.12242 -0.501574 2.303 123 124 115
-0.288779 0.258758 0.753 95 94 68
-1.14432 -0.539441 3.354 26 27 18
-0.448821 0.240291 1.046 183 191 188
0.668773 -0.160211 2.411 26 15 8
0.60357 -0.0670884 2.449 59 55 48
0.135678 0.224866 1.452 0 82 75
-1.28592 -0.576 3.165 96 98 85
0.264084 -0.819167 2.519 141 134 126
-0.262678 0.260004 1.116 110 111 102
0.905387 -0.596556 2.383 128 126 118
-0.197114 0.275566 0.714 130 122 98
-0.156342 0.278734 1.222 163 158 154
-0.0511654 0.309847 1.139 191 194 197
0.89608 0.12725 2.509 105 101 92
-0.777964 -0.228529 2.818 24 11 17
0.060559 0.229672 1.409 146 164 160
-0.290207 0.168324 1.612 111 106 102
-0.157928 0.286897 0.984 195 195 197
1.05654 0.425603 2.374 90 89 74
0.729421 -0.280106 2.43 91 89 79
-0.103858 0.08716 2.312 131 121 119
1.1344 0.716951 2.459 69 65 66
0.5562 0.335342 2.017 100 106 104
1.11783 -0.74858 2.449 129 127 117
0.345262 0.357717 1.339 137 138 134
-1.29179 -0.207125 3.117 107 95 93
-0.548686 0.107335 1.528 141 146 134
-0.939739 -0.275797 2.982 32 32 28
0.0511182 0.330506 1.068 190 193 194
-0.333027 0.180979 1.52 147 148 137
0.994444 -0.0309782 2.43 111 107 96
0.870665 0.319488 2.449 97 92 88
-0.23668 -1.06773 2.818 136 132 125
1.17753 -0.585291 2.338 121 119 109
0.136193 0.0217069 2.582 54 25 15
-0.377499 -0.0182562 1.923 185 181 182
0.609377 -0.278806 2.489 113 111 101
-0.222054 0.260946 0.735 97 90 80
0.699741 0.71068 2.479 78 77 77
0.908732 0.855107 2.303 59 32 26
0.263533 0.0915723 2.236 153 144 135
0.393551 -0.541094 2.561 129 124 120
-0.377134 -0.647423 2.805 128 118 116
0.786512 -0.568254 2.411 132 127 123
-0.441226 0.254925 0.966 157 171 160
0.246785 -0.300673 2.469 56 23 8
1.24938 0.0166035 2.449 97 104 96
1.16742 -0.582129 2.356 123 124 113
-0.515593 0.180296 1.579 93 89 78
-0.322862 -0.398366 2.695 61 26 11
0.319804 0.10558 2.017 179 174 170
0.306714 0.29737 1.342 141 142 133
0.686865 -0.0577418 2.392 48 37 28
0.160734 0.282603 1.213 58 100 99
0.233434 0.287625 1.201 125 124 124
-0.63526 -0.836098 2.857 136 129 123
-0.4903 0.0501377 1.696 129 131 122
1.10853 0.611065 2.42 73 76 75
-0.290903 0.275667 0.749 85 74 69
-0.211369 -0.264519 2.672 60 25 8
0.0975544 0.302165 1.189 157 157 159
0.660643 0.848401 2.189 43 41 33
0.198731 0.247581 1.381 154 160 158
0.387451 -0.228351 2.469 55 35 13
0.432838 -0.78013 2.499 137 133 126
1.09718 -0.272254 2.329 116 118 109
0.479725 -0.40842 2.489 122 118 111
1.19498 0.370108 2.365 82 87 77
0.918251 -0.0353495 2.459 112 110 100
-0.103339 0.137882 2.22 149 142 136
-0.321087 0.243895 0.784 123 117 104
0.914248 0.460849 2.459 69 76 68
0.0925333 0.273352 1.252 167 167 163
0.782962 -0.162736 2.449 100 95 91
-0.293132 -0.0122657 1.966 176 172 173
0.765634 -0.866356 2.347 130 131 120
0.678947 0.136071 2.312 89 87 77
1.16678 -0.171236 2.347 107 109 98
0.39147 -0.0957614 2.469 52 23 9
0.188466 -0.177747 2.55 59 24 9
-0.564741 -0.384214 2.719 48 24 12
-0.32031 0.295015 0.758 70 65 73
0.954846 -0.0906659 2.44 113 111 101
0.892477 -0.583948 2.411 129 125 116
-0.979594 -0.980663 3.507 44 51 43
-1.20064 -0.960026 2.967 102 105 104
-0.400018 0.246953 1.075 132 145 132
0.235136 -0.0368158 2.561 56 26 10
-0.33749 0.149383 1.664 147 148 135
-0.197966 0.268674 0.73 84 69 57
1.02176 0.376803 2.383 86 88 77
-0.139757 0.176462 1.664 173 172 172
1.03903 -0.117728 2.509 110 111 102
0.284555 0.229177 1.528 6 81 76
-0.886715 -0.491683 2.967 33 33 27
0.906283 0.856946 2.278 55 30 23
-1.13433 -0.547986 3.373 25 26 15
0.64206 -0.63559 2.459 132 128 121
-1.20684 -0.622238 3.301 31 31 31
-1.02591 -0.0922131 2.857 130 130 132
-0.419375 -0.358895 2.695 60 25 10
0.508023 -0.91139 2.469 135 133 123
-1.5217 -1.01784 2.925 107 115 104
1.20585 0.594794 2.402 76 77 71
-0.177162 0.110047 1.923 125 121 112
-1.24273 -1.17359 3.071 106 106 100
0.147063 -0.943704 2.626 141 134 128
0.562402 0.440799 2.004 90 86 91
0.0612668 0.32609 1.094 191 194 195
0.757993 0.218337 2.347 86 84 74
1.09656 -0.1249 2.411 108 110 101
0.597222 -0.70005 2.489 136 132 123
0.340933 0.0862892 2.107 175 170 166
0.766713 -0.833826 2.374 132 132 126
-0.549313 0.11636 1.516 135 145 133
0.508318 0.175866 1.959 162 159 156
-0.0126991 0.326175 1.027 194 197 196
-0.273485 -0.283178 2.684 57 24 7
0.186975 0.191667 1.655 103 125 124
-0.566991 0.184093 1.466 181 188 180
-0.262562 0.277324 1.064 109 104 100
-0.0412079 -0.956602 2.638 136 132 125
1.04946 -0.740888 2.411 132 130 120
0.874917 -0.760424 2.374 132 130 120
-0.405519 -0.0628423 2.294 151 144 136
0.818481 0.609041 2.509 69 69 63
-0.0369137 -0.840694 2.638 137 129 126
0.72151 -0.758589 2.43 132 133 124
-0.463159 0.295911 0.882 31 29 43
-1.19774 -0.983682 3.071 129 130 124
0.10664 0.167384 2.228 161 153 152
0.591611 -0.126868 2.449 66 52 44
0.259983 0.0703682 2.519 59 28 17
-0.368242 0.232784 0.812 107 117 105
-0.238533 -0.173984 2.684 54 25 11
-0.579425 -0.305554 2.768 57 23 11
0.505965 -0.923705 2.459 135 131 120
1.05906 -0.883535 2.312 125 130 135
-0.777407 -0.487315 2.884 47 39 36
-1.48958 -0.824186 3.149 114 116 105
1.01442 0.12924 2.469 102 104 93
-1.18957 -0.58679 3.283 27 28 17
-0.20609 -0.137799 2.66 58 34 20
0.609377 -0.40842 2.489 131 124 118
0.873757 0.358258 2.469 90 87 84
0.654265 -0.628094 2.43 133 129 122
-0.334034 0.246138 1.162 144 149 139
0.313832 -0.359479 2.459 48 20 3
-0.200108 0.282153 1.132 199 199 201
0.781569 -0.223819 2.42 108 101 95
0.968118 -0.633376 2.347 125 127 114
-1.27042 -0.196032 3.102 121 111 109
0.762964 -0.791893 2.411 136 132 121
0.166946 0.33967 1.075 183 189 189
1.06409 0.435535 2.365 86 88 75
-0.0842926 0.174789 1.947 167 159 158
0.749051 -0.591352 2.509 133 131 123
-1.25766 -0.841966 3.011 124 122 112
-0.340263 0.23379 0.793 81 63 54
-0.386574 0.253444 0.798 105 106 97
1.10183 -0.343106 2.347 121 117 106
-0.00250617 -0.205188 2.582 57 22 7
0.29834 0.378922 1.187 140 146 148
1.16284 -0.619073 2.294 121 122 116
-1.0074 -1.02244 2.911 65 65 67
-0.359852 0.219804 0.808 108 105 102
-0.443451 0.255966 0.964 148 160 150
0.846136 -0.640401 2.402 131 129 117
0.536674 -0.652596 2.509 135 131 124
-1.39926 -0.400883 3.165 108 106 98
1.19883 0.123796 2.365 97 98 89
-0.433903 0.296241 0.85 107 120 117
-0.104437 -0.800137 2.719 136 125 129
-1.45812 -0.257967 3.181 100 96 87
0.867866 -0.208927 2.43 121 114 106
-0.18975 0.260946 0.735 124 105 88
-1.21547 -0.772144 3.741 41 41 37
-1.4127 -1.02366 3.071 113 118 108
-0.182518 0.268674 0.73 130 118 102
0.0779534 0.33616 1.032 187 190 189
-0.015574 0.336116 0.997 194 197 198
0.155597 -0.388167 2.489 58 23 8
0.289595 0.347175 1.232 151 157 157
0.171224 0.19483 1.659 73 112 119
-0.174001 0.288978 1.167 193 193 195
1.0831 -0.0316029 2.479 105 106 97
-1.23773 -0.154093 3.071 117 110 104
0.448975 0.0791301 2.099 168 164 157
-1.16343 -0.986834 3.41 35 44 37
-0.262866 0.276326 0.719 100 92 78
0.538603 -0.381594 2.499 123 119 110
0.905832 -0.559533 2.374 127 128 119
-1.17061 -1.03573 3.982 43 49 47
0.75107 -0.250414 2.449 102 97 93
-0.388107 0.25883 1.012 177 181 176
-0.456109 -0.751426 2.871 131 123 122
-0.329889 0.228197 0.796 136 122 105
0.554958 -0.0974353 2.411 44 23 20
-0.086566 -0.276618 2.582 61 25 6
0.784736 -0.759414 2.347 135 131 122
-0.494377 0.250996 1.007 176 184 181
-0.341926 -0.276794 2.707 62 29 12
0.0123411 0.210428 1.403 126 152 152
-0.452089 0.297206 0.869 45 47 57
-0.726253 -0.998946 2.831 117 115 107
0.52008 -0.509602 2.469 134 127 119
0.956069 0.83511 2.374 59 32 26
0.126724 -0.467291 2.479 61 26 9
0.574424 0.180791 1.978 165 165 159
-0.527373 -0.895913 2.755 139 132 124
0.358951 -0.902681 2.582 138 131 123
-0.14568 0.28765 0.736 106 97 78
-1.33789 0.0485529 2.672 50 42 41
0.607194 0.841276 2.189 37 42 49
-0.837597 -0.187256 2.818 35 20 19
-0.761406 0.119108 1.459 170 178 179
0.596442 -0.899336 2.469 134 131 126
0.302292 0.394649 1.165 138 144 142
-0.121304 0.168954 1.882 156 148 145
0.0789053 0.34797 0.925 191 194 195
-0.616778 0.196135 1.432 181 189 186
0.413233 -0.935252 2.479 134 132 124
0.240889 0.368344 1.077 169 176 170
0.0559601 0.250368 1.302 158 164 162
-0.412029 -0.729164 2.857 131 124 116
1.04587 0.24583 2.43 96 96 90
1.18915 -0.260155 2.392 114 112 102
-0.0343421 0.175499 1.991 167 156 160
-0.115118 0.20991 1.551 170 161 164
0.913561 -0.60203 2.374 131 129 119
-1.49268 -0.953697 3.071 115 115 109
0.857155 -0.63103 2.411 133 131 121
-0.0782249 -0.750337 2.731 130 120 118
-0.588004 -0.533643 2.831 121 114 106
0.198564 0.355348 1.039 178 184 184
-0.656022 -0.246996 2.768 44 22 12
-0.320998 0.25045 1.098 165 173 160
0.311144 -0.978173 2.604 135 128 120
1.03368 -0.160809 2.42 116 111 107
0.884886 0.101934 2.489 103 104 93
0.428101 -0.921648 2.519 134 130 119
0.572912 -0.695999 2.489 133 129 120
-0.938685 -0.0465085 2.638 134 131 126
0.0276006 0.265898 1.265 138 137 137
1.18343 0.162282 2.365 95 97 88
0.499985 -0.51362 2.469 132 128 121
-0.16126 -0.840657 2.707 138 129 122
-0.401804 -0.824181 2.755 138 130 129
-1.422 -0.454201 2.768 135 122 109
-0.0549828 0.246282 1.27 105 115 120
-0.522334 0.226443 1.362 140 153 140
-0.39744 -0.503621 2.695 41 18 15
0.630051 -0.643593 2.459 134 130 123
-0.374896 -1.01248 2.755 136 131 129
0.330445 0.198001 1.686 165 162 157
-0.423328 0.28182 0.84 144 164 161
-0.151951 0.302336 0.884 185 185 185
-1.41686 -0.94818 3.102 121 119 107
-0.533077 0.203685 1.505 124 134 122
1.25662 0.0329435 2.479 97 105 94
0.172016 0.26724 1.252 29 122 117
0.23778 -0.479527 2.459 86 59 51
-0.62538 0.17967 1.509 76 84 85
-0.116385 0.309285 0.798 164 171 175
-0.368662 0.253147 0.793 111 104 98
0.459544 0.285409 1.805 134 133 133
0.0506306 0.307037 1.178 193 196 197
-0.133994 0.288847 0.758 138 126 126
-0.572699 0.233956 1.305 180 188 185
0.0375937 0.2379 1.327 18 109 105
0.116005 -0.603601 2.509 59 49 47
1.14758 0.192903 2.411 96 98 89
1.06209 0.655822 2.44 69 65 56
0.0443527 0.257221 1.273 171 167 168
0.743527 -0.389549 2.374 125 123 113
1.09638 -0.116616 2.402 111 109 97
1.17248 0.0933606 2.374 96 97 93
0.0955846 -0.472946 2.509 56 26 10
1.11028 -0.399618 2.365 120 121 112
0.219231 -0.999369 2.672 137 130 122
0.0317189 0.267956 1.265 133 133 129
-0.404514 0.243001 1.073 133 145 135
0.994444 -0.0467959 2.43 110 109 94
0.266496 0.268 1.275 165 169 164
-1.25379 -0.562839 3.149 105 106 93
0.130944 0.359317 0.931 181 189 188
-0.62394 -0.100587 2.707 103 91 91
-1.23773 -0.149095 3.071 114 106 103
-1.04833 -0.722234 3.527 41 42 36
1.05404 -0.314179 2.449 120 119 104
-0.196279 0.244552 0.77 171 174 175
0.14733 0.359791 0.969 188 194 192
0.556706 -0.659546 2.489 135 131 124
0.224939 -0.780529 2.54 137 130 124
-1.18963 -0.902749 3.102 138 138 134
-0.0580524 0.337068 0.924 191 194 195
0.00589519 0.322343 1.064 193 196 197
0.628594 -0.284602 2.469 113 112 97
-0.0616162 0.292755 1.198 195 195 195
-0.574802 -0.598984 2.857 126 122 115
-0.527373 -0.277219 2.755 55 24 13
0.640652 -0.505585 2.469 134 126 125
-0.269725 0.242939 1.222 188 188 188
-0.233611 0.305797 1.043 195 195 195
0.663503 -0.754512 2.392 130 131 122
-0.0326196 -0.969481 2.638 137 133 126
-0.34041 -0.411522 2.695 56 26 10
-1.46983 -1.19941 3.086 112 113 102
-0.730492 0.0659502 1.677 168 170 161
-0.633494 -0.242492 2.768 52 23 11
0.104621 -0.621004 2.53 100 89 95
-0.353494 0.192812 1.442 183 184 180
0.66093 -0.340819 2.44 92 80 78
0.295013 -0.364959 2.469 52 22 4
0.865005 -0.493708 2.411 128 125 111
-1.3727 -1.13861 3.071 114 116 107
-0.19074 0.299306 1.05 199 199 199
0.599584 -0.772491 2.449 137 132 128
-0.158303 0.286418 0.739 78 63 62
-0.737126 -1.07131 2.768 135 139 134
-1.47485 -1.14417 3.086 110 118 107
-0.378342 -0.829147 2.684 138 131 123
-0.594384 0.139295 1.524 56 57 48
-0.778745 -0.610667 3.055 47 47 41
0.411699 -0.511724 2.519 130 123 117
0.846136 0.0201937 2.402 113 109 102
0.0605401 0.198816 1.524 3 114 108
0.568861 -0.392218 2.489 126 122 113
-0.166248 0.129041 1.837 133 131 123
0.629635 -0.400319 2.489 127 123 116
-0.157379 0.144796 1.739 167 167 167
0.457236 0.324961 1.719 122 125 124
-0.147761 0.0297142 2.236 164 156 155
1.06387 0.33036 2.356 89 91 80
1.17196 -0.319178 2.312 114 115 109
1.08096 -0.290768 2.42 119 116 111
-0.868473 -0.147331 2.844 36 21 22
-0.0550442 0.337068 0.924 190 193 194
-0.299334 0.288847 0.758 67 60 50
0.595597 -0.358017 2.449 123 119 110
-0.481538 0.17275 1.629 122 123 112
0.285162 -0.766144 2.561 139 130 123
1.04503 0.454361 2.383 84 86 77
1.0952 -0.781954 2.479 131 128 123
-0.25214 0.074986 1.831 97 95 87
0.680789 -0.440086 2.44 129 127 119
-0.552616 0.105123 1.532 140 142 129
1.00631 -0.200249 2.374 116 117 106
-0.0512429 0.192629 1.789 166 158 157
0.725052 0.0850429 2.469 90 82 79
0.363914 0.083411 2.121 173 168 164
-1.20459 -0.998746 2.953 115 113 103
-1.22386 -0.701035 3.318 49 53 48
0.234801 0.310301 1.198 134 142 127
0.844001 -0.806783 2.374 133 131 121
-0.215545 0.280826 1.098 196 195 195
0.837687 0.408281 2.53 75 76 65
-0.107305 0.320937 0.872 160 165 170
0.375257 -0.692308 2.55 138 128 126
-1.19354 -0.993509 3.086 136 137 131
1.21367 0.825415 2.402 67 67 63
0.316715 -0.909962 2.615 138 131 125
0.150156 0.327867 1.106 188 188 190
0.308515 -0.671584 2.582 137 128 123
0.655715 -0.0655269 2.392 38 23 11
-0.00825997 0.312902 1.104 194 194 198
-0.032111 0.335511 0.873 190 188 180
-1.29332 -0.651751 3.133 113 111 99
0.479496 -0.656679 2.509 135 128 122
-1.51962 -1.04254 2.996 103 110 102
-0.385677 -0.589334 2.768 90 71 67
0.124042 0.3248 1.114 188 191 190
0.786905 -0.672871 2.365 132 130 122
-0.498115 -0.748987 2.844 132 127 123
-0.73262 -0.377625 2.768 42 35 29
-0.0199915 -1.02111 2.672 136 132 123
-1.47959 -0.391677 2.871 80 78 66
-0.315624 0.263771 1.012 130 134 127
-0.170503 0.260859 0.745 115 91 79
1.09905 -0.621346 2.374 124 125 112
0.834406 -0.933564 2.402 133 130 125
1.0334 -0.220397 2.383 118 119 110
1.08239 -0.223845 2.338 115 113 103
0.165239 0.268202 1.247 113 150 153
0.15468 -0.885928 2.684 138 130 129
0.300949 -0.91379 2.626 139 132 124
-0.447883 0.259534 1.002 180 188 187
0.0768739 0.194116 1.859 164 156 155
-0.629828 0.174902 1.192 177 190 189
0.663503 -0.832363 2.392 136 129 119
1.02951 0.413259 2.392 85 90 78
-0.412888 -0.980519 2.831 137 130 122
-0.928325 -0.483992 3.04 37 37 31
-0.28974 0.201726 1.406 152 152 154
0.121065 0.269277 1.252 157 160 161
-0.333078 -0.762562 2.743 135 127 124
1.07292 0.825415 2.402 8 9 3
-0.182915 -0.123781 2.638 116 100 93
0.793764 -0.876322 2.374 132 128 119
-0.030259 0.206513 1.603 171 166 162
-0.347867 -0.552353 2.719 38 19 15
0.770813 0.0124224 2.411 95 88 78
-0.554785 -0.795468 2.78 135 127 126
0.731567 0.0163459 2.411 88 84 75
0.277676 0.0658148 2.356 133 94 72
0.39772 -0.541094 2.561 132 124 121
-0.226526 0.256026 1.247 193 192 192
-0.073957 -0.276618 2.582 60 24 5
1.10459 0.768591 2.42 30 33 36
0.99823 0.311767 2.42 94 95 89
-0.74646 -0.646995 3.086 87 82 78
1.0455 -0.75153 2.42 131 129 121
0.148802 -0.801839 2.582 138 130 129
-0.25455 0.267891 1.089 146 147 143
-0.88809 -0.0390471 2.44 130 131 127
-0.0652972 -0.208579 2.572 58 23 8
0.253651 0.391575 1.05 147 155 156
0.18801 -0.371966 2.489 53 22 9
0.745735 0.238703 2.286 84 84 80
-1.54228 -0.271581 3.283 74 73 73
0.760845 -0.820686 2.392 132 130 120
1.01027 0.186514 2.43 103 101 93
1.09519 -0.35478 2.374 122 118 107
-0.624236 0.188071 1.357 138 150 140
-0.698079 0.0493531 1.876 145 147 136
-1.25948 -0.877891 3.674 35 43 30
0.516535 0.208488 1.966 139 135 136
0.317835 -0.343473 2.459 59 26 9
0.217336 0.332555 1.147 184 187 188
-0.0532488 0.239514 1.278 99 121 122
-1.18414 -0.984063 3.011 110 115 105
0.731567 -0.705576 2.411 134 130 123
0.250804 0.0930787 2.469 84 68 63
-1.43706 -1.12991 3.102 112 116 109
-0.57399 0.128695 1.516 115 114 114
-0.0230293 0.282248 1.22 159 154 150
-1.47086 -0.569621 2.996 107 110 92
-0.21185 0.24633 1.281 200 199 199
-0.257639 0.247302 0.748 68 63 43
0.289442 -0.750543 2.638 137 128 121
-1.16049 -1.06283 3.026 90 91 82
-0.567836 0.241027 1.275 174 178 173
0.98344 -0.882452 2.329 126 127 118
-0.280211 0.30915 1.015 174 183 176
0.23852 0.240243 1.445 55 95 64
-0.533435 -0.341352 2.695 51 22 12
-0.00951048 0.323079 1.044 196 196 198
0.457717 0.346267 1.7 123 126 125
-0.112945 0.313583 0.83 142 149 155
-0.24506 -0.549025 2.66 64 29 12
0.142406 0.167433 2.278 164 155 158
0.203438 0.335575 1.132 181 187 185
0.7899 -0.891775 2.374 131 132 121
-0.842185 -0.0863685 2.818 28 21 15
0.560757 -0.712201 2.489 135 131 124
0.286695 0.360538 1.203 148 156 153
0.00461708 0.297957 1.18 190 190 190
0.752257 -0.89994 2.365 132 130 122
0.795751 0.705446 2.489 38 39 33
-0.364051 0.000505621 1.87 141 141 137
0.323507 0.202902 1.637 152 156 151
-0.207118 -0.0225378 2.374 160 149 142
-0.161953 0.284843 0.825 164 153 148
-0.168322 0.0869134 1.966 150 143 137
-0.113242 0.317406 0.874 166 166 168
-1.55467 -0.204184 3.231 70 66 55
-1.14123 -0.520702 3.41 27 28 19
-1.51785 -0.65035 3.102 109 111 100
-0.792639 -0.305074 2.805 35 20 8
0.520338 -0.362706 2.509 120 116 109
0.124338 0.34151 1.013 184 187 186
-1.08864 -1.05419 3.102 46 54 53
-0.0925736 0.302108 1.124 185 188 187
1.0179 -0.56726 2.374 128 126 116
0.120964 0.189456 1.935 164 154 154
-0.318213 0.00358099 1.887 171 168 163
-0.351383 0.26581 0.983 138 148 132
0.794498 0.0712342 2.55 90 85 81
1.20194 0.590885 2.402 74 79 69
0.896966 -0.351146 2.402 126 122 111
0.169952 0.262194 1.267 34 113 113
-0.473207 0.239729 1.051 184 190 192
