ply
format ascii 1.0
comment Created by Open3D
element vertex 1300
property double x
property double y
property double z
property uchar red
property uchar green
property uchar blue
end_header
0.740664 -0.343789 1.734 255 255 255
-0.279941 0.297722 2.402 255 255 255
0.409387 0.0648091 2.32 255 255 255
-0.96357 -0.523198 2.037 255 255 255
0.716939 0.184756 1.887 255 255 255
-0.498159 -0.344201 1.826 255 255 255
-0.212491 -0.522193 2.53 255 255 255
0.411666 0.30418 1.985 255 255 255
0.468872 -0.775128 2.037 255 255 255
-0.384872 -0.301043 1.853 255 255 255
0.696544 0.644165 1.758 255 255 255
-0.208966 -0.165137 2.755 255 255 255
0.0878706 0.324567 2.212 255 255 255
0.257433 -0.160654 2.755 255 255 255
0.316839 0.625914 1.763 255 255 255
0.271022 0.34712 2.151 255 255 255
-0.535517 -0.646997 2.128 255 255 255
-0.640003 0.00823734 1.215 255 255 255
0.744096 0.40926 1.769 255 255 255
0.19164 -0.821476 2.383 255 255 255
-0.252595 -0.670385 2.44 255 255 255
0.719386 -0.289011 1.744 255 255 255
-0.254263 0.217136 0.932 255 255 255
-0.218122 0.442883 2.107 255 255 255
-0.226668 0.247419 0.878 255 255 255
0.154094 0.380354 2.181 255 255 255
0.399681 -0.178736 2.204 255 255 255
-1.00304 -0.717703 2.196 255 255 255
-0.225438 0.230786 0.932 255 255 255
0.0754658 0.377739 2.166 0 0 0
0.063072 0.538225 1.899 255 255 255
-0.960259 -0.514794 2.03 255 255 255
0.271689 -0.714063 2.44 255 255 255
-0.0775243 -0.453575 2.561 255 255 255
-0.0269087 0.548157 1.923 255 255 255
0.236119 -0.201952 2.768 255 255 255
0.764572 -0.584638 1.543 255 255 255
0.0867382 0.550024 1.876 0 0 0
-0.390396 0.182675 0.942 255 255 255
0.531007 -0.218306 1.769 255 255 255
-0.10582 -0.147204 2.755 255 255 255
0.099824 0.463353 2.017 0 0 0
0.757078 -0.207285 1.484 255 255 255
0.209991 -0.239019 2.78 255 255 255
-0.922078 -0.445808 2.078 255 255 255
-0.326058 0.246406 0.809 255 255 255
-0.493622 -0.754448 2.22 255 255 255
0.655698 0.20007 2.01 255 255 255
0.33655 -0.252466 2.509 255 255 255
-1.00958 -0.458533 1.959 255 255 255
0.0918511 0.134051 2.411 255 255 255
0.712893 0.595388 1.837 255 255 255
0.42181 -0.374931 1.972 255 255 255
-0.399362 -0.0101789 1.294 255 255 255
0.365482 -0.169922 2.329 255 255 255
0.445485 -0.179513 1.784 255 255 255
0.348112 -0.832363 2.392 255 255 255
0.0716745 -0.509842 2.53 255 255 255
0.299688 -0.446117 2.615 255 255 255
-0.0266182 -0.785989 2.479 255 255 255
-0.478482 0.0391178 1.192 255 255 255
-0.0609739 -0.205486 2.755 255 255 255
-0.0193167 0.615275 1.799 255 255 255
-0.213831 0.338411 1.244 255 255 255
-0.243533 0.387453 2.181 0 0 0
-0.144222 -0.550184 2.489 255 255 255
-0.0230474 -0.538661 2.53 255 255 255
-0.408577 0.229947 0.816 255 255 255
0.322165 0.000719225 2.66 255 255 255
0.702839 0.220497 1.959 255 255 255
-0.38724 -0.0145684 1.31 255 255 255
-0.143634 -0.0345095 2.707 255 255 255
-0.408928 0.239856 0.796 255 255 255
0.375927 -0.856119 2.212 255 255 255
-0.470412 -0.703408 2.196 255 255 255
0.562402 0.277741 2.004 255 255 255
-0.0425287 0.334249 2.253 255 255 255
-0.401815 -0.6041 2.173 0 0 0
0.484507 0.121299 1.953 255 255 255
0.0897558 0.150163 2.356 255 255 255
0.101681 0.566523 1.87 0 0 0
0.0878738 0.660646 1.719 255 255 255
0.164744 0.213542 2.181 255 255 255
-0.176871 0.299245 2.383 255 255 255
0.771362 0.530829 1.567 255 255 255
0.127747 0.0982764 2.499 255 255 255
-0.161975 -0.202801 2.719 255 255 255
-0.153596 -0.798208 2.383 255 255 255
0.769595 -0.529397 1.543 255 255 255
-0.0177365 0.507472 1.947 255 255 255
-0.27318 0.184882 0.978 255 255 255
-0.374013 -0.295967 1.859 255 255 255
-0.823606 -0.349792 1.905 255 255 255
0.332488 -0.489533 2.449 255 255 255
-0.275381 0.274768 0.76 255 255 255
-0.417089 0.225249 0.833 255 255 255
0.104166 -0.483029 2.519 255 255 255
-0.689885 -0.367982 1.887 255 255 255
0.331551 0.28292 2.253 255 255 255
-0.348233 0.0207458 1.254 255 255 255
-0.245005 0.49626 1.991 255 255 255
0.442244 0.157967 1.935 255 255 255
0.280625 -0.0390872 2.719 255 255 255
0.0614969 0.51064 1.947 255 255 255
-0.610982 -0.0614651 1.357 255 255 255
0.248914 0.20989 2.338 255 255 255
-0.373489 0.167046 0.995 255 255 255
-0.280084 -0.0798548 1.763 255 255 255
0.4213 0.33829 1.87 255 255 255
-0.277051 -0.242624 2.719 255 255 255
-0.0159874 -0.190364 2.731 255 255 255
0.287544 0.297853 2.312 255 255 255
-0.372712 0.105449 1.077 255 255 255
-0.471827 -0.0795306 1.403 255 255 255
0.401959 0.3647 1.865 255 255 255
-0.12692 0.101854 2.392 255 255 255
-0.21817 0.297397 1.201 255 255 255
-0.52107 -0.178829 1.62 255 255 255
-0.334617 0.220753 2.459 255 255 255
-0.284411 0.118472 1.068 255 255 255
-0.775093 -0.613847 2.261 255 255 255
0.722656 0.444799 1.87 255 255 255
-0.218112 0.315355 1.257 255 255 255
0.412382 0.591065 1.779 255 255 255
-0.266897 0.247234 0.834 255 255 255
-0.755557 -0.159869 1.539 255 255 255
-0.175925 -0.539905 2.479 255 255 255
-1.03892 -0.503175 1.997 255 255 255
0.436115 0.670984 1.724 255 255 255
0.00174085 -0.00359454 2.649 255 255 255
0.0823357 -0.588315 2.479 255 255 255
0.430278 -0.559735 1.579 255 255 255
0.561385 -0.184281 1.774 255 255 255
0.450293 0.126086 1.929 255 255 255
0.47773 0.207899 1.991 255 255 255
0.417612 0.614766 1.789 255 255 255
-0.135778 0.181132 2.411 255 255 255
0.391965 -0.12288 1.805 255 255 255
-0.37082 0.0812163 1.13 255 255 255
-0.263053 -0.0415296 1.516 255 255 255
-0.154835 -0.452202 2.53 255 255 255
0.766658 -0.114169 1.498 255 255 255
-0.106239 0.293135 2.365 255 255 255
0.0840296 -0.485139 2.53 255 255 255
0.176561 -0.597128 2.499 255 255 255
-0.221756 0.287348 1.278 255 255 255
-0.29686 -0.153899 1.664 255 255 255
-0.121845 0.366797 2.228 0 0 0
0.761064 -0.0637329 1.516 255 255 255
-0.205279 0.415857 1.12 255 255 255
0.392108 0.129612 2.143 255 255 255
-0.365071 -0.240764 1.744 255 255 255
0.0106858 -0.274804 2.731 255 255 255
-0.387059 0.268984 0.744 255 255 255
0.0538938 0.606492 1.799 255 255 255
-0.809333 -0.22673 1.682 255 255 255
0.687848 0.597008 1.842 255 255 255
0.251846 -0.0572872 2.743 255 255 255
-0.0955852 -0.0789095 2.719 255 255 255
-0.218776 0.65997 1.71 255 255 255
-0.31122 -0.671672 2.402 255 255 255
-0.582895 -0.112035 1.47 255 255 255
0.0618081 0.618272 1.774 255 255 255
-0.613265 -0.176872 1.579 255 255 255
-0.321111 0.337958 2.278 255 255 255
0.737948 0.0295966 1.789 255 255 255
0.022495 0.365808 2.158 255 255 255
0.196453 0.173019 2.303 255 255 255
-0.0189291 -0.538661 2.53 255 255 255
0.764887 -0.522202 1.559 255 255 255
0.751393 0.452064 1.595 255 255 255
0.69986 -0.0303895 1.899 255 255 255
0.25439 0.651879 1.748 255 255 255
-0.41963 0.185151 0.909 255 255 255
-0.434521 0.195035 0.9 255 255 255
-0.779899 -0.733731 2.212 255 255 255
0.774617 0.0648884 1.65 255 255 255
-0.819258 -0.602809 2.261 255 255 255
0.347463 0.467148 1.899 255 255 255
-0.641996 -0.746292 2.196 255 255 255
-0.234813 0.578317 1.859 255 255 255
-0.0869902 0.273892 2.365 255 255 255
-0.837789 -0.273386 1.753 255 255 255
0.0494473 0.148119 2.449 255 255 255
-0.227058 0.251981 0.874 255 255 255
-0.442583 -0.829021 2.236 255 255 255
-0.286735 0.542595 1.882 255 255 255
0.0646662 0.507472 1.947 255 255 255
-0.477141 0.0763034 1.112 255 255 255
-0.768683 -0.699668 2.253 255 255 255
-0.31485 0.284507 0.731 255 255 255
-0.351696 0.206292 0.898 255 255 255
0.490863 -0.276862 1.739 255 255 255
-0.30631 0.0925284 2.173 255 255 255
0.245735 0.607255 1.81 255 255 255
0.671791 -0.175167 1.799 255 255 255
-0.315067 -0.203744 1.719 255 255 255
0.691492 -0.341807 1.724 255 255 255
0.159267 0.447279 2.064 255 255 255
0.758106 0.172814 1.655 255 255 255
0.409338 -0.464075 1.65 255 255 255
-0.424379 0.125256 1.024 255 255 255
-0.481041 -0.733731 2.212 255 255 255
0.399842 -0.447063 2.166 255 255 255
0.375927 -0.852519 2.212 255 255 255
-0.160745 -0.764287 2.374 255 255 255
0.554071 -0.549834 1.595 255 255 255
0.649843 -0.239805 1.779 255 255 255
-0.669823 -0.167878 1.567 255 255 255
-0.432871 0.170231 0.941 255 255 255
-0.205213 0.571078 1.865 255 255 255
-0.444621 0.13724 1.002 255 255 255
0.230607 0.0430797 2.604 255 255 255
0.372726 -0.0940018 2.236 255 255 255
-0.362421 0.269723 2.329 255 255 255
-0.317083 0.243655 0.813 255 255 255
-0.279359 -0.0062026 1.345 255 255 255
-0.96014 -0.767733 2.196 255 255 255
0.385738 -0.767819 2.166 255 255 255
-0.130814 -0.793438 2.392 255 255 255
0.400684 -0.233451 1.917 255 255 255
0.22613 -0.790911 2.42 255 255 255
-0.281932 0.631543 1.739 255 255 255
-1.08348 -0.832901 2.143 255 255 255
-0.540094 0.107726 1.048 255 255 255
0.2009 0.653744 1.753 255 255 255
-0.246857 0.25696 0.826 255 255 255
-0.345772 -0.857991 2.294 255 255 255
0.279786 -0.451627 2.55 255 255 255
-0.218195 0.185056 2.411 255 255 255
-0.651561 -0.366391 1.848 0 0 0
-0.197531 0.3196 0.857 255 255 255
-0.561326 -0.361015 1.763 255 255 255
-0.0542015 -0.597137 2.449 255 255 255
0.241887 -0.712148 2.42 255 255 255
0.578553 0.568284 1.917 255 255 255
0.406325 -0.380011 1.682 255 255 255
0.465173 -0.35432 1.677 255 255 255
0.488227 -0.588632 1.567 255 255 255
0.367018 0.658862 1.729 255 255 255
-0.381663 0.251536 0.78 255 255 255
0.737702 -0.194783 1.714 255 255 255
0.227324 -0.399307 2.615 255 255 255
0.362814 -0.781951 2.312 255 255 255
-0.543254 -0.375871 1.779 255 255 255
0.716648 -0.165922 1.794 255 255 255
0.74655 -0.554545 1.624 255 255 255
-0.597435 -0.522805 2.01 255 255 255
-0.261366 -0.748735 2.411 255 255 255
0.0719578 -0.458122 2.54 255 255 255
0.588454 0.116669 1.929 255 255 255
-0.978654 -0.63856 2.158 255 255 255
0.750024 0.3775 1.655 255 255 255
-0.153123 -0.224925 2.719 255 255 255
0.54768 0.452715 1.865 255 255 255
0.398125 0.320464 1.966 255 255 255
0.381743 -0.0890699 2.204 255 255 255
0.197309 0.323289 2.228 255 255 255
0.0151313 -0.248139 2.731 255 255 255
-0.537524 -0.0951565 1.432 255 255 255
-0.225201 -0.890567 2.402 255 255 255
-0.100865 -0.345433 2.626 255 255 255
-0.430483 -0.0438633 1.359 255 255 255
-0.525216 -0.0364343 1.33 255 255 255
0.351661 0.539926 1.905 255 255 255
-0.352112 0.226581 0.843 255 255 255
-0.165858 0.284804 2.392 255 255 255
0.385018 -0.141811 2.244 255 255 255
0.775871 -0.534936 1.516 255 255 255
-0.276929 0.18526 0.98 255 255 255
-0.244795 0.079479 1.247 255 255 255
-0.231482 -0.614067 2.469 255 255 255
0.406935 -0.222149 2.244 255 255 255
0.679066 0.593443 1.859 255 255 255
-0.992635 -0.790883 2.181 255 255 255
-0.492404 -0.605412 2.092 255 255 255
0.0228141 0.564249 1.893 255 255 255
0.762107 -0.158615 1.629 255 255 255
0.0556619 0.178353 2.374 255 255 255
0.584234 0.0687164 1.905 255 255 255
0.698356 0.00993892 1.929 255 255 255
-0.576707 0.044714 1.137 255 255 255
0.761159 -0.583532 1.567 255 255 255
-0.564196 -0.369622 1.763 255 255 255
-0.641793 -0.0424755 1.316 255 255 255
-0.263773 -0.132006 2.719 255 255 255
0.333791 -0.122296 2.519 255 255 255
-0.54507 0.0280094 1.215 255 255 255
0.241568 0.318161 2.269 255 255 255
-0.0358363 -0.486915 2.561 255 255 255
0.421848 -0.0297494 1.859 255 255 255
-0.251519 0.117424 2.392 255 255 255
0.00546567 -0.890752 2.392 255 255 255
0.119407 0.347234 2.196 255 255 255
-0.253526 0.247753 2.449 255 255 255
0.770518 0.0105424 1.555 255 255 255
0.381759 0.526871 1.758 0 0 0
-0.560992 0.0873704 1.092 255 255 255
0.233045 0.609652 1.826 255 255 255
0.479819 -0.486069 1.616 255 255 255
-0.277222 0.282681 0.745 255 255 255
0.538402 0.15214 1.941 255 255 255
-0.231993 0.167721 1.083 255 255 255
-0.0524901 0.635371 1.734 255 255 255
0.193001 0.572609 1.87 0 0 0
0.0618517 0.000713277 2.638 255 255 255
0.194537 -0.642192 2.469 255 255 255
0.703948 0.220461 2.017 255 255 255
0.712167 0.349403 1.985 255 255 255
-0.29384 0.214833 0.891 255 255 255
-0.0980529 -0.676844 2.449 255 255 255
0.550716 -0.0450203 1.865 255 255 255
0.767561 -0.433596 1.524 255 255 255
0.35905 -0.785713 2.312 255 255 255
-0.306558 0.201483 0.916 255 255 255
-0.242343 0.279468 0.773 255 255 255
-0.394886 0.0750298 1.12 255 255 255
0.404995 -0.630769 1.865 255 255 255
-0.591774 -0.033265 1.291 255 255 255
0.331141 0.171477 2.499 255 255 255
-0.54508 -0.704373 2.166 255 255 255
-0.272121 0.30163 2.402 255 255 255
-0.229164 0.262683 0.84 255 255 255
-0.257251 0.284869 0.754 255 255 255
0.688445 -0.262227 1.774 255 255 255
0.00142344 0.381263 2.166 255 255 255
-0.29686 -0.0383418 1.991 255 255 255
-1.02591 -0.477622 1.972 255 255 255
0.200919 -0.422579 2.55 255 255 255
-0.260393 0.188901 0.966 255 255 255
-0.298297 0.215312 0.887 255 255 255
0.258371 0.601367 1.837 255 255 255
0.396685 -0.605119 2.312 255 255 255
0.404773 0.669233 1.734 255 255 255
0.208644 -0.88118 2.356 255 255 255
0.623153 -0.18664 1.769 255 255 255
-0.496491 0.0412643 1.198 255 255 255
-0.211964 0.440914 2.114 255 255 255
0.534764 -0.250564 1.753 255 255 255
-0.454857 0.163439 0.955 255 255 255
0.253876 -0.419478 2.582 255 255 255
0.671031 0.305171 2.057 255 255 255
-0.265593 0.286759 0.743 255 255 255
-0.310322 0.173523 0.995 255 255 255
-0.233844 0.154243 1.1 255 255 255
0.772969 -0.56603 1.52 255 255 255
0.757896 0.514511 1.62 255 255 255
-0.505068 0.130375 1.012 255 255 255
0.337374 0.397542 2.085 255 255 255
0.357863 0.512025 1.905 255 255 255
-0.419635 0.0921073 1.085 255 255 255
0.654395 0.559284 1.929 255 255 255
0.726795 0.0429938 1.865 255 255 255
0.743906 0.587137 1.624 255 255 255
-0.202616 0.286394 0.999 255 255 255
-0.321957 -0.638556 2.338 255 255 255
0.537618 0.645186 1.753 255 255 255
-0.456039 0.177702 0.932 255 255 255
-0.270988 -0.820686 2.392 255 255 255
0.664083 -0.1776 1.794 255 255 255
-0.293042 0.240737 0.835 255 255 255
0.258951 -0.603601 2.509 255 255 255
0.0688416 -0.802088 2.43 255 255 255
-0.512185 -0.0207558 1.297 255 255 255
0.725135 0.564388 1.853 255 255 255
-1.13881 -0.722539 2.189 255 255 255
0.570124 -0.248563 1.739 255 255 255
-0.699416 -0.0842767 1.406 255 255 255
-0.9457 -0.630651 2.204 255 255 255
0.421994 -0.289548 2.286 255 255 255
-0.373235 0.267413 0.743 255 255 255
0.101083 0.572266 1.859 255 255 255
0.204633 0.196311 2.269 255 255 255
-0.390225 -0.757167 2.228 255 255 255
-0.249569 0.271569 0.772 255 255 255
-0.600817 -0.604899 2.114 255 255 255
0.138903 0.48363 1.966 0 0 0
-0.126959 0.608944 1.789 255 255 255
-0.30178 0.474842 2.024 255 255 255
0.506124 -0.491329 1.616 255 255 255
-0.0443636 0.0258084 2.572 255 255 255
-0.10905 0.573221 1.882 255 255 255
-1.06647 -0.803613 2.158 255 255 255
-0.251478 -0.424085 2.071 255 255 255
0.416622 -0.591549 1.81 255 255 255
0.367458 -0.77213 2.294 255 255 255
0.597645 0.3537 1.991 0 0 0
0.196045 0.575652 1.87 255 255 255
-0.47155 0.153364 0.98 255 255 255
-0.628415 -0.262722 1.758 255 255 255
0.76226 -0.347165 1.682 255 255 255
0.568729 0.366322 1.905 255 255 255
0.212189 0.458373 2.024 255 255 255
-0.223111 0.167683 1.118 255 255 255
-0.697805 -0.305043 1.859 255 255 255
-0.463735 0.204602 0.897 255 255 255
-0.352043 -0.512993 2.01 255 255 255
-0.214926 0.228463 1.104 255 255 255
0.373554 -0.25624 2.356 255 255 255
-0.401746 0.0928713 1.094 255 255 255
-0.361974 -0.0436051 1.351 255 255 255
-0.314088 0.0226569 2.695 255 255 255
0.387648 0.0221455 1.899 255 255 255
0.397724 -0.0745792 2.099 255 255 255
0.707776 0.0162172 1.929 255 255 255
0.316385 -0.640759 2.479 255 255 255
0.442412 -0.52092 1.978 255 255 255
-0.29435 0.140779 2.392 255 255 255
0.720237 -0.591363 1.595 255 255 255
0.711625 -0.379659 1.705 255 255 255
-0.386708 0.21766 0.862 0 0 0
-0.723134 -0.0765317 1.39 255 255 255
-0.572181 -0.0313573 1.299 255 255 255
-0.439082 -0.601459 2.114 0 0 0
0.666953 0.572725 1.911 255 255 255
-0.547051 0.0730764 1.118 255 255 255
-0.639572 -0.014068 1.265 255 255 255
0.260611 -0.854669 2.411 255 255 255
0.690695 -0.599326 1.575 255 255 255
0.41232 -0.36981 1.673 255 255 255
0.779072 0.464125 1.532 255 255 255
-0.0460787 0.603025 1.815 255 255 255
-0.454976 -0.24011 1.719 255 255 255
-0.46495 -0.705971 2.204 255 255 255
0.400064 0.4423 1.763 255 255 255
0.0753574 -0.0165956 2.66 255 255 255
-0.264923 0.200527 0.954 255 255 255
-0.303483 -0.308638 2.604 255 255 255
-0.278829 0.0663041 1.686 255 255 255
-0.98568 -0.642071 2.158 0 0 0
-0.46974 0.162732 0.96 255 255 255
0.77159 -0.543357 1.547 255 255 255
0.418279 -0.623899 1.612 255 255 255
0.524262 0.115295 1.959 255 255 255
-0.305874 0.260755 0.781 255 255 255
-0.22191 0.276627 1.267 255 255 255
-0.0315823 0.599402 1.831 255 255 255
-0.341421 0.383971 2.085 255 255 255
-0.564898 -0.475287 1.911 255 255 255
0.126698 -0.749848 2.402 255 255 255
-0.572595 0.0291721 1.182 255 255 255
-0.417291 -0.0368452 1.345 255 255 255
0.761778 -0.1579 1.595 255 255 255
-0.707228 -0.205306 1.642 255 255 255
-0.621735 -0.117375 1.477 255 255 255
-0.272136 0.053713 1.215 255 255 255
-0.569936 -0.363884 1.763 255 255 255
-0.211444 0.307734 0.794 255 255 255
-0.210938 0.246258 1.057 255 255 255
-0.673242 -0.173861 1.575 255 255 255
0.57413 -0.304284 1.734 255 255 255
-0.347368 0.0922567 1.108 255 255 255
0.670009 0.532819 1.947 255 255 255
-0.3904 -0.321202 1.865 255 255 255
0.214292 0.0507035 2.561 255 255 255
-0.357537 0.209073 0.873 255 255 255
0.725986 0.404018 1.81 255 255 255
-0.410506 -0.678582 2.22 255 255 255
0.107407 -0.625595 2.499 255 255 255
0.430953 -0.777204 2.078 255 255 255
-0.234659 0.256127 0.85 255 255 255
-0.504301 -0.61427 2.099 255 255 255
-0.42703 -0.708533 2.212 255 255 255
-0.289502 0.00670839 1.302 255 255 255
-0.299491 -0.691216 2.402 255 255 255
0.721365 -0.249189 1.784 255 255 255
-0.0157051 0.640124 1.724 255 255 255
-0.355519 -0.823572 2.261 255 255 255
-0.251875 0.284663 0.76 255 255 255
0.0289769 0.555008 1.893 255 255 255
-0.269805 0.0278319 1.299 255 255 255
-0.56707 0.0712571 1.118 255 255 255
0.433269 -0.22267 1.758 255 255 255
-0.283401 0.275418 0.755 255 255 255
-0.391626 -0.698027 2.236 255 255 255
0.503657 0.246779 1.991 255 255 255
0.72124 -0.576069 1.603 255 255 255
-0.847505 -0.731403 2.173 255 255 255
0.758624 0.301827 1.583 255 255 255
0.669073 0.387722 2.051 255 255 255
0.531223 -0.346363 1.705 255 255 255
-0.584239 0.0178101 1.194 255 255 255
-0.350846 0.217512 0.867 255 255 255
-0.377434 -0.448264 1.876 255 255 255
-0.229206 0.223814 0.954 255 255 255
-0.0141668 -0.881488 2.42 255 255 255
-0.236282 0.257521 0.841 255 255 255
0.48339 -0.444435 1.637 255 255 255
-0.305116 -0.250627 1.882 255 255 255
-0.781529 -0.608634 2.269 255 255 255
0.384456 -0.0413103 1.978 255 255 255
-0.287331 0.204783 0.931 255 255 255
0.211466 -0.616554 2.479 255 255 255
-0.131006 0.229686 2.469 255 255 255
0.705129 0.647026 1.758 255 255 255
-0.319609 0.251856 0.793 255 255 255
0.371893 -0.864654 2.253 255 255 255
-0.276546 0.0478601 1.217 255 255 255
-0.701515 -0.787334 2.181 255 255 255
-0.190011 0.0944617 2.402 255 255 255
0.0370307 -0.193096 2.707 255 255 255
-0.243776 -0.204591 2.743 255 255 255
0.189957 0.575652 1.87 255 255 255
-1.08849 -0.751841 2.181 255 255 255
0.150927 -0.266796 2.695 255 255 255
0.719128 -0.159004 1.815 255 255 255
-0.355315 0.187906 0.994 255 255 255
-0.263547 0.117924 1.112 255 255 255
0.433476 -0.480305 1.87 255 255 255
-0.426049 -0.039034 1.345 255 255 255
-0.0423588 0.340217 2.244 255 255 255
0.75588 0.284061 1.599 255 255 255
0.732203 0.0245581 1.848 255 255 255
-0.304094 0.332917 2.347 255 255 255
0.760905 0.142023 1.673 255 255 255
0.390969 -0.235627 1.748 255 255 255
0.782651 0.464694 1.559 255 255 255
-0.313825 -0.119487 1.535 255 255 255
-0.271419 0.205399 0.955 255 255 255
0.50363 -0.269144 1.744 255 255 255
-0.201789 0.309909 0.942 255 255 255
0.761615 -0.348615 1.532 255 255 255
-0.214246 0.248084 0.923 255 255 255
0.385806 -0.0246169 2.593 255 255 255
-0.486894 0.109745 1.051 255 255 255
-0.26935 0.257271 0.782 255 255 255
0.660266 0.247576 2.024 255 255 255
0.742745 -0.17936 1.7 255 255 255
-0.285972 0.171547 1.012 255 255 255
0.77159 0.206851 1.547 255 255 255
0.389215 0.6287 1.779 255 255 255
-0.323122 0.203463 0.925 255 255 255
0.63882 0.480144 1.978 255 255 255
-0.437772 0.183596 0.916 255 255 255
-0.622808 -0.806396 2.204 255 255 255
-0.363323 -0.336381 1.882 255 255 255
0.462253 0.175328 1.953 255 255 255
-0.196793 -0.408521 2.54 255 255 255
-0.408359 -0.742664 2.228 255 255 255
0.056822 0.426519 2.128 255 255 255
0.692887 0.466889 2.004 255 255 255
-0.237002 0.185786 1 255 255 255
-0.0578332 0.334251 2.278 255 255 255
0.456163 0.438184 1.758 255 255 255
-0.495849 0.133405 1.01 255 255 255
-0.214849 0.274784 1.132 255 255 255
0.445559 -0.802137 2.099 255 255 255
0.454539 0.606725 1.774 255 255 255
-0.276084 -0.106548 1.686 255 255 255
0.303902 0.348175 2.136 255 255 255
0.371313 0.204143 2.085 255 255 255
-0.361395 -0.215324 1.7 255 255 255
-0.200136 -0.415147 2.53 255 255 255
0.140994 -0.383288 2.593 255 255 255
0.33643 -0.763344 2.42 255 255 255
-0.249275 0.180361 0.997 255 255 255
0.737619 0.561574 1.682 255 255 255
-0.529401 -0.420306 1.821 255 255 255
-0.0996545 -0.582588 2.489 255 255 255
0.627252 0.50757 1.972 255 255 255
0.444716 0.418159 1.758 255 255 255
0.660824 -0.344596 1.71 255 255 255
-0.789703 -0.163218 1.547 255 255 255
-0.36253 0.270882 0.736 255 255 255
-0.273287 0.257308 0.786 255 255 255
-0.0297014 -0.824117 2.402 255 255 255
0.268994 0.433304 2.03 0 0 0
0.756784 -0.119981 1.682 255 255 255
-0.332236 -0.751916 2.278 255 255 255
-0.426028 -0.291112 1.81 255 255 255
0.22884 -0.69677 2.449 255 255 255
-0.212962 0.276897 0.863 255 255 255
0.66237 -0.334246 1.714 255 255 255
0.308452 0.649035 1.748 255 255 255
0.173657 0.298286 2.204 255 255 255
0.374932 0.038191 1.929 255 255 255
0.115041 0.369707 2.181 255 255 255
-0.475092 -0.233447 1.691 255 255 255
0.68248 0.658902 1.744 255 255 255
-0.417495 -0.613423 2.181 255 255 255
-0.29126 0.0108535 1.291 255 255 255
0.466963 -0.509579 1.599 255 255 255
-0.158495 0.220753 2.459 255 255 255
-0.430958 0.178258 0.927 255 255 255
-0.332394 -0.0811745 1.432 255 255 255
-0.847101 -0.421882 2.044 255 255 255
0.466069 0.448038 1.763 255 255 255
-0.116585 0.549226 1.905 255 255 255
0.735376 0.0302087 1.826 255 255 255
0.327073 -0.495461 2.499 255 255 255
-0.29583 0.282091 0.734 255 255 255
-0.138401 0.486187 2.044 255 255 255
0.738529 -0.320289 1.729 255 255 255
0.0876992 0.477231 1.966 255 255 255
-0.87327 -0.803613 2.158 255 255 255
0.382274 -0.297533 2.411 255 255 255
0.65549 0.563803 1.923 255 255 255
0.449626 -0.407688 1.65 255 255 255
0.431807 -0.0592914 1.837 255 255 255
-0.377382 -0.074804 1.4 255 255 255
-0.461329 0.201908 0.898 255 255 255
0.687717 0.328723 2.037 255 255 255
0.691078 0.0572031 1.935 255 255 255
0.67989 -0.0899622 1.853 255 255 255
0.550029 -0.162094 1.784 255 255 255
-1.02091 -0.710555 2.196 255 255 255
-0.511312 0.0397085 1.21 255 255 255
0.0988743 -0.550184 2.489 255 255 255
-0.977989 -0.46657 1.966 255 255 255
0.356707 0.579142 1.805 255 255 255
-0.676742 -0.204732 1.659 255 255 255
0.147603 0.615275 1.799 255 255 255
0.449537 -0.52387 1.953 255 255 255
0.192888 0.649887 1.758 255 255 255
-0.956566 -0.771307 2.196 255 255 255
-0.637004 -0.553645 2.064 255 255 255
0.631728 -0.5942 1.575 255 255 255
-0.221634 -0.692785 2.449 255 255 255
0.349446 0.481075 1.893 255 255 255
-0.446755 0.189797 0.91 255 255 255
0.427959 -0.229938 1.748 255 255 255
-0.269787 -0.0352196 1.459 255 255 255
-0.137169 0.64948 1.734 255 255 255
0.731428 0.152457 1.831 255 255 255
0.65668 0.626933 1.774 255 255 255
0.333922 0.300452 2.22 255 255 255
-0.122101 0.131993 2.374 255 255 255
-0.227318 0.249421 0.875 255 255 255
0.0377317 0.323289 2.228 255 255 255
0.483492 0.326012 1.887 255 255 255
-0.406987 -0.0904959 1.432 255 255 255
-0.330656 0.193706 0.951 255 255 255
-0.255842 0.615385 1.774 255 255 255
0.131097 -0.764429 2.411 255 255 255
0.0661944 -0.552008 2.479 255 255 255
-0.368039 0.217408 0.861 255 255 255
-0.367095 -0.392055 1.87 255 255 255
-0.148697 -0.0700601 2.719 255 255 255
0.2224 0.55939 1.887 255 255 255
-0.978459 -0.686917 2.189 255 255 255
0.766011 0.303298 1.551 255 255 255
0.624498 -0.509737 1.616 255 255 255
0.154632 0.595946 1.848 255 255 255
-0.283161 0.199976 0.974 255 255 255
-0.385374 0.190227 0.905 255 255 255
0.761331 0.250783 1.853 255 255 255
0.539949 -0.316557 1.724 255 255 255
-0.528089 -0.0208838 1.305 255 255 255
-0.439395 0.192959 0.904 255 255 255
-0.896504 -0.743913 2.189 255 255 255
-0.393847 0.249601 0.774 0 0 0
-0.289851 -0.425072 1.923 255 255 255
0.097959 0.218584 2.196 255 255 255
-0.266198 0.140531 1.051 255 255 255
0.551891 -0.283335 1.744 255 255 255
-0.167198 0.462277 2.071 255 255 255
0.0593249 -0.176253 2.719 255 255 255
-0.291671 0.297722 2.402 255 255 255
0.593888 -0.298641 1.734 255 255 255
0.443615 0.114236 1.941 255 255 255
0.237064 0.0637246 2.582 255 255 255
0.16773 -0.914955 2.374 255 255 255
-0.284907 0.56348 1.87 255 255 255
0.748571 -0.24589 1.682 255 255 255
0.773719 0.327336 1.62 255 255 255
-0.104437 -0.0789095 2.719 255 255 255
0.592924 -0.357278 1.691 255 255 255
0.461837 0.0406873 1.899 255 255 255
-0.853279 -0.525242 2.244 255 255 255
0.72768 0.507322 1.899 255 255 255
0.255883 -0.581411 2.519 255 255 255
0.26846 -0.854669 2.411 255 255 255
0.752152 0.211538 1.642 255 255 255
-0.172338 -0.783604 2.374 255 255 255
0.753452 0.301306 1.744 255 255 255
0.172895 -0.735049 2.392 255 255 255
-0.949416 -0.617641 2.196 255 255 255
-0.199888 0.298695 0.886 255 255 255
-0.598212 -0.190426 1.629 255 255 255
0.745512 -0.370246 1.7 255 255 255
-0.124004 -0.752658 2.411 255 255 255
0.633721 0.62113 1.799 255 255 255
-0.300176 -0.250608 1.929 255 255 255
0.549872 0.320986 2.03 255 255 255
-0.543529 0.071512 1.122 255 255 255
0.487786 -0.530396 1.599 255 255 255
-0.294099 0.238702 0.862 255 255 255
0.754538 0.127336 1.659 255 255 255
-0.217905 0.22194 0.98 255 255 255
0.0862599 -0.101479 2.731 255 255 255
0.558237 -0.361709 1.686 255 255 255
0.713545 0.384869 1.831 255 255 255
-0.335754 -0.31456 1.917 255 255 255
-0.527187 0.0970451 1.081 255 255 255
-0.503398 0.00235127 1.239 255 255 255
0.633955 -0.492545 1.62 255 255 255
0.0935134 -0.274443 2.684 255 255 255
0.455043 0.217619 1.991 255 255 255
0.0346094 -0.493373 2.53 255 255 255
-0.238936 -0.864133 2.383 255 255 255
0.417769 0.650891 1.753 255 255 255
-0.0940664 -0.656917 2.449 255 255 255
0.773403 -0.579342 1.516 255 255 255
-0.53613 -0.117057 1.473 255 255 255
0.763778 -0.483872 1.583 255 255 255
0.614664 -0.25627 1.753 255 255 255
-0.898448 -0.478971 2.151 255 255 255
0.633672 0.517197 1.972 255 255 255
0.0612545 -0.86919 2.294 255 255 255
-0.459038 -0.330304 1.848 0 0 0
-0.432666 0.0404032 1.173 255 255 255
-0.272954 0.128417 1.064 255 255 255
0.189746 -0.691612 2.459 255 255 255
0.372836 -0.791518 2.173 255 255 255
0.37687 0.375997 1.972 255 255 255
0.521617 -0.527819 1.607 255 255 255
-0.354715 0.233382 0.833 255 255 255
0.740718 0.0387804 1.81 255 255 255
-0.507118 -0.459003 1.87 255 255 255
0.288796 0.458528 1.941 255 255 255
0.20357 -0.279953 2.695 255 255 255
-0.586344 0.034174 1.156 255 255 255
-0.240841 0.110097 2.402 255 255 255
0.743095 -0.254102 1.682 255 255 255
-0.113689 -0.366799 2.626 255 255 255
-0.387379 0.213335 0.873 255 255 255
-0.167816 0.361192 2.261 255 255 255
-0.233858 0.152552 1.299 255 255 255
-0.260878 0.276368 0.761 255 255 255
0.365797 0.481342 1.882 255 255 255
-0.694562 -0.73825 2.204 255 255 255
-0.107902 -0.0387422 2.695 255 255 255
0.77261 0.213295 1.539 255 255 255
-0.0663889 -0.416328 2.615 255 255 255
-0.24592 0.189318 1.366 255 255 255
-0.289579 -0.0710279 1.463 255 255 255
-1.0454 -0.673677 2.158 255 255 255
0.108267 -0.47893 2.519 255 255 255
0.545763 -0.383423 1.673 255 255 255
0.708145 -0.372424 1.71 255 255 255
-0.228571 0.158586 1.118 255 255 255
-0.33529 0.159269 0.997 255 255 255
-0.644216 -0.011905 1.254 255 255 255
-0.349162 0.111102 1.064 255 255 255
0.387097 -0.0485098 2.519 255 255 255
0.677464 0.169528 1.997 255 255 255
0.668167 0.667303 1.729 255 255 255
-0.144908 -0.119256 2.731 255 255 255
-0.171859 0.553677 1.899 255 255 255
0.106144 -0.303653 2.672 255 255 255
-0.367173 -0.0299412 1.33 255 255 255
0.76751 0.165187 1.607 255 255 255
0.483049 -0.114068 1.805 255 255 255
-0.279713 0.568341 1.876 255 255 255
0.76371 0.115175 1.567 255 255 255
-0.0988537 0.225669 2.469 255 255 255
0.266531 0.653744 1.753 255 255 255
-0.381877 0.151612 1 255 255 255
-0.306734 -0.836401 2.338 255 255 255
0.424462 0.584863 1.769 255 255 255
-0.844712 -0.704934 2.212 255 255 255
0.240625 -0.201952 2.768 255 255 255
0.700756 -0.168419 1.821 255 255 255
0.398176 0.344622 1.905 255 255 255
0.767646 -0.0997415 1.664 255 255 255
0.721498 0.352807 1.899 255 255 255
-0.197226 0.31924 0.887 255 255 255
0.192105 -0.0479366 2.719 255 255 255
0.0519308 -0.350886 2.572 255 255 255
-0.181432 0.29259 2.392 255 255 255
-0.924394 -0.785601 2.196 255 255 255
-0.285175 -0.0484481 1.429 255 255 255
-0.177366 -0.300649 2.684 255 255 255
0.368899 -0.156782 2.303 255 255 255
-1.07074 -0.709251 2.181 255 255 255
-0.160255 0.507686 1.985 255 255 255
0.410261 -0.0884086 1.821 255 255 255
-0.238936 -0.836987 2.383 255 255 255
0.246234 0.300887 2.278 255 255 255
-0.313709 0.482302 1.935 255 255 255
-0.138602 -0.890752 2.392 255 255 255
0.141881 0.19138 2.212 255 255 255
-0.338242 -0.156316 1.579 255 255 255
-0.300293 0.197723 0.948 255 255 255
0.733828 -0.263126 1.705 255 255 255
-0.807301 -0.641144 2.228 255 255 255
-0.401428 0.0896372 1.098 255 255 255
0.723082 0.353649 1.887 255 255 255
0.382273 -0.104543 2.228 255 255 255
-0.650547 -0.213985 1.668 255 255 255
-0.28598 0.0398726 1.215 255 255 255
-0.28403 -0.562856 2.278 255 255 255
0.0848794 0.294283 2.228 255 255 255
0.249636 -0.219969 2.768 255 255 255
-0.232578 0.191334 0.995 255 255 255
-0.236569 0.247118 0.862 255 255 255
0.450028 -0.164535 1.779 255 255 255
-0.130814 -0.79733 2.392 255 255 255
0.606009 -0.388314 1.659 255 255 255
-0.267368 0.160388 1.004 255 255 255
-0.313136 -0.840761 2.329 255 255 255
0.634825 -0.540347 1.629 255 255 255
0.496172 -0.111438 1.81 255 255 255
0.729572 0.506806 1.748 255 255 255
-0.110744 0.581342 1.859 255 255 255
0.336475 -0.652932 2.449 255 255 255
0.389264 -0.827741 2.166 0 0 0
-0.133718 0.594011 1.842 255 255 255
-0.298141 0.499458 1.978 255 255 255
-0.793821 -0.499848 2.181 255 255 255
-0.455823 -0.227943 1.691 255 255 255
-0.259031 0.287531 0.745 255 255 255
-0.645906 -0.552152 2.071 255 255 255
-0.833356 -0.82688 2.173 255 255 255
-0.611547 0.0100716 1.198 255 255 255
-0.192658 -0.412655 2.54 255 255 255
0.579034 0.119808 1.929 255 255 255
-0.595901 -0.613805 2.121 255 255 255
-0.404107 0.168981 0.96 255 255 255
0.318042 -0.940492 2.43 255 255 255
0.406061 -0.825926 2.143 255 255 255
0.717832 0.588016 1.842 255 255 255
0.274148 -0.416328 2.615 255 255 255
0.0729233 -0.0925905 2.731 255 255 255
0.317835 0.00504792 2.66 255 255 255
0.460872 -0.0116668 1.87 255 255 255
0.0688823 0.655124 1.734 255 255 255
-0.911713 -0.564012 2.253 255 255 255
0.391677 0.0582444 2.085 255 255 255
-0.416228 -0.676136 2.212 255 255 255
0.423476 0.434085 1.753 255 255 255
-0.845167 -0.824684 2.158 255 255 255
0.74001 0.0471959 1.794 255 255 255
0.722096 0.0441926 1.917 255 255 255
-0.185073 0.207135 2.44 255 255 255
-0.329988 0.373728 2.143 255 255 255
0.34856 0.499625 1.905 0 0 0
-0.488931 0.0779725 1.11 255 255 255
-0.900068 -0.797346 2.189 255 255 255
-0.0589008 -0.806159 2.479 255 255 255
0.757958 -0.0718829 1.587 255 255 255
-0.595764 -0.37536 1.763 255 255 255
-0.293242 -0.705138 2.383 255 255 255
0.493669 -0.292152 1.729 255 255 255
-1.08697 -0.832901 2.143 255 255 255
-0.391822 0.0372404 1.194 255 255 255
-0.200919 -0.0697509 2.707 255 255 255
-0.208696 0.319533 1.072 255 255 255
0.33782 -0.845586 2.43 255 255 255
0.0749432 0.413627 2.151 255 255 255
-0.9479 -0.451179 1.997 255 255 255
-0.253123 0.133486 1.106 255 255 255
-1.02448 -0.703408 2.196 255 255 255
0.23002 0.35726 2.128 0 0 0
-0.202606 0.330868 0.991 255 255 255
0.243902 0.562461 1.887 0 0 0
-0.548938 -0.0572587 1.362 255 255 255
0.208808 -0.804572 2.402 255 255 255
-0.778917 -0.83653 2.189 255 255 255
-0.333567 0.240709 0.821 255 255 255
0.768536 0.106427 1.551 255 255 255
-0.34884 0.273463 0.753 255 255 255
0.637104 0.531283 1.953 255 255 255
-0.235898 -0.364474 1.917 255 255 255
-0.379048 0.261073 0.767 255 255 255
0.745053 -0.267561 1.539 255 255 255
-0.258821 0.284018 0.755 255 255 255
-0.0159874 -0.225918 2.731 255 255 255
-0.0495697 -0.345433 2.626 255 255 255
-0.334428 0.281767 0.727 255 255 255
-0.295278 -0.114236 1.959 255 255 255
-0.081695 0.571673 1.887 255 255 255
-0.434413 0.214883 0.851 255 255 255
0.762229 0.019405 1.664 255 255 255
-0.196685 0.588016 1.842 255 255 255
-0.289163 0.204754 0.952 255 255 255
-0.374732 0.160408 0.994 255 255 255
0.21786 0.275587 2.253 255 255 255
-0.179988 0.405114 2.143 255 255 255
0.194622 0.379855 2.158 255 255 255
0.296208 -0.697237 2.479 255 255 255
-0.487735 0.0162126 1.22 255 255 255
-0.360718 -0.4643 1.917 255 255 255
0.628192 -0.577722 1.579 255 255 255
0.214025 0.110919 2.509 255 255 255
0.668149 -0.115079 1.821 255 255 255
-0.126504 -0.524257 2.54 255 255 255
0.387482 -0.21981 1.758 255 255 255
0.738337 0.161688 1.769 255 255 255
-0.488906 0.160771 0.967 255 255 255
0.336561 -0.21314 2.479 255 255 255
-0.434269 -0.00372736 1.249 255 255 255
-0.476121 0.167925 0.954 255 255 255
0.445032 -0.247005 1.748 255 255 255
-0.34486 0.0951707 1.1 255 255 255
0.0871595 0.596129 1.821 255 255 255
0.656065 -0.491329 1.616 255 255 255
-0.20319 0.387154 1.171 0 0 0
0.697491 -0.0574973 1.876 255 255 255
-0.632823 -0.811595 2.189 255 255 255
-0.197007 -0.871289 2.392 255 255 255
-0.0648913 -0.839752 2.402 255 255 255
-0.961127 -0.566906 2.166 255 255 255
-0.426755 0.179027 0.931 255 255 255
0.713403 0.426403 1.953 255 255 255
0.149802 -0.16962 2.755 255 255 255
-0.15785 -0.708726 2.449 255 255 255
0.26499 0.16674 2.489 255 255 255
0.384898 0.0622857 1.997 255 255 255
0.0588271 -0.521941 2.509 255 255 255
0.323309 0.612347 1.799 255 255 255
-0.402167 -0.018832 1.31 255 255 255
-0.284362 0.150251 1.024 255 255 255
-0.580245 0.0290734 1.178 255 255 255
-0.418901 -0.128193 1.491 255 255 255
0.410376 -0.291331 1.758 255 255 255
-0.123947 0.541898 1.923 255 255 255
-0.297618 0.442026 2.136 255 255 255
0.219935 -0.427499 2.53 255 255 255
0.0291654 -0.830292 2.42 255 255 255
0.74545 0.179497 1.719 255 255 255
0.0152086 0.647607 1.729 255 255 255
-0.583059 0.00231521 1.22 255 255 255
0.509308 0.653226 1.744 255 255 255
0.677028 -0.585431 1.579 255 255 255
0.134852 0.013592 2.638 255 255 255
0.161194 0.273878 2.181 255 255 255
-0.221634 -0.593152 2.449 255 255 255
-0.363926 0.266544 0.772 255 255 255
0.544515 -0.36994 1.686 255 255 255
0.739469 0.192152 1.758 255 255 255
0.580334 -0.552591 1.603 255 255 255
0.566938 0.439336 1.899 255 255 255
-0.728732 -0.307074 1.853 255 255 255
0.456742 -0.455091 1.637 255 255 255
-0.311664 -0.305768 2.024 255 255 255
0.270153 0.641304 1.758 255 255 255
0.399381 -0.264801 1.941 255 255 255
-0.685165 -0.237456 1.7 255 255 255
-0.491759 0.126674 1.022 255 255 255
0.364486 -0.178874 2.347 255 255 255
-0.23627 0.225065 0.921 255 255 255
-0.521122 0.0617982 1.145 255 255 255
0.0100285 0.60431 1.81 255 255 255
-0.642587 -0.366001 1.831 0 0 0
-0.537355 -0.228254 1.714 255 255 255
0.54564 -0.506975 1.624 255 255 255
-0.424647 0.118865 1.041 255 255 255
-0.427703 0.181403 0.92 255 255 255
-0.942112 -0.752597 2.204 255 255 255
0.311874 0.450441 1.947 255 255 255
-0.285821 0.546971 1.876 255 255 255
0.377713 -0.744345 2.244 255 255 255
0.106621 -0.287546 2.684 255 255 255
0.549902 -0.566305 1.583 255 255 255
0.524629 -0.320289 1.729 255 255 255
-0.381288 -0.0797007 1.406 255 255 255
-0.41234 -0.461949 1.882 255 255 255
-0.233021 -0.894476 2.402 255 255 255
-0.547179 -0.0979634 1.439 255 255 255
-0.352846 -0.744345 2.244 255 255 255
-0.442801 0.210493 0.873 0 0 0
-0.130476 0.21275 2.459 255 255 255
-0.196512 -0.118208 2.707 255 255 255
-0.591409 0.0215326 1.185 255 255 255
0.278637 -0.164418 2.743 255 255 255
0.0471501 -0.462256 2.54 255 255 255
-0.893228 -0.794432 2.181 255 255 255
0.0983158 0.266007 2.204 255 255 255
-0.239443 0.11372 1.393 255 255 255
0.294863 0.359536 2.121 255 255 255
0.431053 0.197582 1.985 255 255 255
0.405304 -0.620157 1.799 255 255 255
-0.316033 -0.252567 2.638 255 255 255
-0.193161 0.589409 1.837 255 255 255
-0.520115 -0.0949572 1.429 255 255 255
-0.424084 -0.376429 1.853 255 255 255
0.749935 0.557774 1.47 255 255 255
0.220723 0.510412 1.899 255 255 255
-0.769956 -0.124839 1.48 255 255 255
0.322461 0.25653 2.347 255 255 255
0.669986 -0.546008 1.599 255 255 255
-0.445873 -0.363021 1.831 255 255 255
0.673175 0.00362653 1.911 255 255 255
-0.385756 0.15821 0.961 255 255 255
0.325792 0.462218 1.917 255 255 255
-0.485553 -0.12301 1.487 255 255 255
-0.357963 -0.422486 1.87 255 255 255
0.447209 0.197582 1.985 255 255 255
0.492889 -0.0239157 1.876 255 255 255
0.23431 -0.868011 2.383 255 255 255
0.715594 0.504224 1.959 255 255 255
-0.750059 -0.136108 1.498 255 255 255
0.197139 -0.885014 2.356 255 255 255
0.653496 0.620589 1.789 255 255 255
0.623418 -0.598832 1.567 255 255 255
-0.755343 -0.380853 1.953 255 255 255
0.742006 0.222102 1.724 255 255 255
0.513518 0.309084 2.017 255 255 255
-0.202422 0.300824 0.967 255 255 255
-0.423429 -0.647339 2.212 0 0 0
0.0690172 0.450313 2.078 0 0 0
0.522081 -0.438034 1.633 255 255 255
-0.407819 -0.216295 1.686 255 255 255
0.148004 0.197143 2.196 255 255 255
-0.344337 -0.485766 1.966 255 255 255
-0.281085 0.131632 1.062 255 255 255
-0.549757 -0.668995 2.143 255 255 255
-0.434665 -0.671246 2.196 0 0 0
0.474175 -0.435104 1.642 255 255 255
-0.31108 -0.096182 2.707 255 255 255
-0.946823 -0.463379 2.051 255 255 255
0.597276 0.0753885 1.917 255 255 255
-0.0710068 -0.572179 2.479 255 255 255
-0.960643 -0.683355 2.189 255 255 255
0.719761 0.486789 1.953 255 255 255
0.47496 -0.0474626 1.842 255 255 255
-0.455125 -0.872156 2.244 255 255 255
-0.291864 0.24427 0.824 255 255 255
0.754152 -0.524441 1.629 255 255 255
0.754824 -0.253403 1.642 255 255 255
-0.330055 -0.220264 1.739 255 255 255
-0.299158 0.580743 1.774 255 255 255
-0.200185 0.382398 0.995 255 255 255
0.709977 0.032012 1.935 255 255 255
-0.355909 0.192869 0.932 255 255 255
-0.554875 -0.189273 1.642 255 255 255
-0.391234 -0.0123607 1.302 255 255 255
-0.933641 -0.550804 2.244 255 255 255
0.248464 -0.120304 2.755 255 255 255
-0.410904 0.0691893 1.114 255 255 255
-0.133694 0.147446 2.374 255 255 255
0.545279 -0.419696 1.655 255 255 255
-0.237993 0.462277 2.071 255 255 255
-0.43824 -0.678393 2.196 0 0 0
0.406161 -0.719899 2.181 255 255 255
-0.0388804 -0.79321 2.489 255 255 255
-0.386246 0.243806 0.792 255 255 255
0.331551 0.279253 2.253 255 255 255
0.341692 0.413484 2.03 255 255 255
-0.189958 0.620015 1.779 255 255 255
0.425138 -0.564875 1.579 255 255 255
0.155597 -0.452974 2.489 255 255 255
-0.0232296 -0.476525 2.55 255 255 255
-0.434535 -0.341345 1.859 255 255 255
0.604701 -0.158299 1.774 255 255 255
0.21359 -0.256005 2.768 255 255 255
-0.314518 0.282899 0.733 255 255 255
-0.309981 -0.267495 1.893 255 255 255
-0.746847 -0.83653 2.189 255 255 255
0.365884 -0.194896 2.356 255 255 255
-0.176871 0.295367 2.383 255 255 255
-0.214785 0.200194 1.059 255 255 255
0.41202 0.101601 1.941 255 255 255
-0.477292 0.174824 0.941 255 255 255
0.405068 0.325973 1.923 255 255 255
0.724502 0.383997 1.799 255 255 255
-0.671783 -0.0317676 1.316 255 255 255
0.629958 -0.12288 1.805 255 255 255
0.429421 -0.27495 2.228 255 255 255
0.440208 -0.549658 1.587 255 255 255
0.69954 0.208995 1.941 255 255 255
0.131493 0.515125 1.905 255 255 255
-0.333982 -0.0892122 1.449 255 255 255
-0.316341 0.137054 1.025 255 255 255
-0.32911 -0.504883 2.03 255 255 255
-0.288482 0.502676 1.978 255 255 255
0.159903 0.510528 1.911 255 255 255
0.190341 0.458003 2.037 255 255 255
0.383527 0.636628 1.753 255 255 255
-0.318368 0.174795 0.975 255 255 255
0.198556 -0.64621 2.469 255 255 255
0.489192 0.436399 1.774 255 255 255
-0.549206 -0.170021 1.587 255 255 255
-0.570524 -0.135745 1.494 255 255 255
0.319045 -0.0609406 2.707 255 255 255
-0.0656161 0.469194 2.057 255 255 255
-0.421113 0.22882 0.812 0 0 0
0.772737 0.520724 1.575 255 255 255
-0.765419 -0.776686 2.181 255 255 255
-0.54834 0.100713 1.064 255 255 255
0.154068 -0.816299 2.402 255 255 255
0.140396 0.0469175 2.582 255 255 255
-0.383515 0.260269 0.761 255 255 255
-0.166762 0.660646 1.719 255 255 255
0.511296 0.340446 1.899 255 255 255
-0.0538523 0.61712 1.779 255 255 255
-0.427981 0.163267 0.954 255 255 255
0.533663 -0.0927267 1.848 255 255 255
-0.75116 -0.257792 1.744 255 255 255
-0.119431 -0.61252 2.479 255 255 255
0.0485423 0.00921799 2.615 255 255 255
0.180085 -0.0123222 2.672 255 255 255
0.407098 0.607726 1.794 255 255 255
0.497145 -0.551786 1.571 255 255 255
-0.75041 -0.775973 2.189 255 255 255
0.758081 0.0857634 1.691 255 255 255
-0.99729 -0.372662 1.911 255 255 255
-0.921863 -0.407104 2.004 255 255 255
0.771798 0.0766829 1.673 255 255 255
-0.482426 -0.063908 1.362 255 255 255
-0.23859 0.2164 0.942 255 255 255
-0.450966 0.110162 1.055 255 255 255
-0.268645 0.150583 1.015 255 255 255
-0.228512 0.121933 1.225 255 255 255
-0.211782 -0.790452 2.383 255 255 255
0.0531449 0.618272 1.774 255 255 255
0.758502 -0.131123 1.65 255 255 255
0.236345 0.476926 1.978 255 255 255
0.290353 -0.861404 2.43 255 255 255
-0.680213 -0.787334 2.181 255 255 255
0.484485 -0.420711 1.659 255 255 255
-0.390934 0.23923 0.807 255 255 255
0.576303 -0.404512 1.659 255 255 255
-0.423889 0.0805562 1.096 255 255 255
0.735263 -0.0109056 1.748 255 255 255
-0.216555 0.27433 0.855 255 255 255
-0.677742 -0.699835 2.196 255 255 255
-0.524749 -0.404863 1.805 255 255 255
0.742255 0.566495 1.821 255 255 255
-0.371452 0.235169 0.825 255 255 255
0.532194 0.0958733 1.953 255 255 255
0.714475 0.23302 1.905 255 255 255
-0.565815 -0.695995 2.151 255 255 255
0.766971 0.363814 1.595 255 255 255
0.696843 0.594011 1.842 255 255 255
-0.25651 0.234766 0.863 255 255 255
-0.203498 0.274732 0.902 255 255 255
0.109709 0.488284 1.959 255 255 255
-0.329623 -0.0277142 1.327 255 255 255
-0.392349 0.160834 0.958 255 255 255
0.722096 0.109704 1.917 255 255 255
0.293172 -0.351484 2.672 255 255 255
-0.52279 -0.0642364 1.369 255 255 255
-0.448665 0.168879 0.942 255 255 255
-0.406092 0.162902 0.961 255 255 255
-0.309925 0.277921 0.742 255 255 255
-0.37885 0.192105 0.9 255 255 255
-0.49339 0.0747618 1.116 255 255 255
0.137852 -0.828471 2.392 255 255 255
0.747624 0.436884 1.587 255 255 255
0.430131 -0.605892 1.882 255 255 255
-0.0510987 -0.0829665 2.707 255 255 255
0.72423 0.456841 1.882 255 255 255
0.126474 0.510605 1.923 255 255 255
0.520084 0.299237 2.017 255 255 255
-0.0533605 -0.835051 2.411 255 255 255
-0.535346 0.0123322 1.229 255 255 255
0.0179138 -0.548328 2.499 255 255 255
0.726551 0.646658 1.734 255 255 255
0.260939 -0.50563 2.489 255 255 255
0.221118 -0.306267 2.695 255 255 255
0.406421 -0.587586 1.729 255 255 255
0.770774 0.153817 1.571 255 255 255
0.347261 -0.111833 2.469 255 255 255
-0.435139 -0.106229 1.456 255 255 255
0.325824 0.566038 1.899 255 255 255
0.73078 -0.291307 1.724 255 255 255
0.178964 0.672054 1.734 255 255 255
0.572955 -0.214604 1.739 255 255 255
0.126556 0.325793 2.196 255 255 255
-0.218916 0.180282 1.106 255 255 255
0.661265 0.23359 2.017 255 255 255
-0.293279 0.0747626 1.173 255 255 255
-0.252998 0.0350681 1.333 255 255 255
-0.28517 -0.510258 2.121 255 255 255
-0.277214 -0.0884617 1.763 255 255 255
0.758655 -0.194166 1.616 255 255 255
-0.389935 -0.140581 1.52 255 255 255
-0.301696 0.235091 0.844 255 255 255
-0.164537 0.202332 2.43 255 255 255
0.656565 0.568284 1.917 255 255 255
-0.285013 0.00905787 1.758 255 255 255
-0.89797 -0.641144 2.228 255 255 255
0.752526 -0.204681 1.637 255 255 255
0.169452 0.297204 2.196 255 255 255
-0.563624 0.0977988 1.07 255 255 255
-0.199266 0.643836 1.734 255 255 255
0.73342 0.0893252 1.882 255 255 255
-0.0831964 0.384788 2.166 255 255 255
0.523893 0.618854 1.784 255 255 255
0.509953 0.0727213 1.929 255 255 255
0.755181 0.0602086 1.748 255 255 255
0.72423 0.0525736 1.882 255 255 255
-0.111831 -0.021113 2.684 255 255 255
-0.206909 0.579466 1.853 255 255 255
0.62837 0.621538 1.826 255 255 255
-0.184389 -0.404388 2.54 255 255 255
0.357494 0.326362 2.064 255 255 255
0.731477 0.419299 1.739 255 255 255
0.614469 -0.066265 1.865 255 255 255
-0.0270477 -0.548617 2.519 255 255 255
0.40267 -0.78805 2.107 255 255 255
0.421347 -0.105256 1.805 255 255 255
0.714965 0.366654 1.923 255 255 255
-0.221998 0.21644 0.984 255 255 255
0.734443 0.396063 1.7 255 255 255
-0.267016 -0.0785613 2.707 255 255 255
-0.316549 -0.292026 2.22 255 255 255
-0.396185 0.145409 0.991 255 255 255
-0.337043 0.133327 1.022 255 255 255
-0.226213 0.518543 1.941 255 255 255
0.0463372 0.589931 1.848 255 255 255
-0.20363 0.279658 1.004 255 255 255
-0.317175 -0.178352 2.684 255 255 255
0.0683033 -0.776199 2.411 255 255 255
0.63602 -0.027213 1.893 255 255 255
-0.203833 0.297177 0.997 255 255 255
-0.511445 -0.333224 1.831 255 255 255
0.243749 -0.656896 2.479 255 255 255
0.182118 -0.760505 2.411 255 255 255
0.438648 -0.506419 1.947 255 255 255
-0.258401 0.277607 0.761 255 255 255
0.0695646 0.597766 1.826 255 255 255
-0.29344 0.282044 0.737 255 255 255
-0.329098 0.24671 0.81 255 255 255
-0.434728 0.0954623 1.083 255 255 255
0.310131 0.42951 1.997 255 255 255
0.545582 -0.525516 1.616 255 255 255
-0.0601772 -0.242624 2.719 255 255 255
0.716725 0.429673 1.911 255 255 255
0.316385 -0.628657 2.479 255 255 255
-0.196378 0.330214 0.852 255 255 255
0.658864 -0.5614 1.591 255 255 255
0.362049 -0.647307 2.356 255 255 255
0.41856 -0.435218 1.899 255 255 255
0.180341 0.577148 1.865 255 255 255
-0.170503 0.224755 2.459 255 255 255
0.765807 0.267279 1.842 255 255 255
-0.547834 -0.338169 1.794 255 255 255
0.691078 0.0603519 1.935 255 255 255
0.730741 -0.337258 1.744 255 255 255
-0.0775375 -0.0697509 2.707 255 255 255
-0.354322 0.225744 0.845 255 255 255
-0.515916 -0.0523992 1.351 255 255 255
0.759995 -0.466211 1.677 255 255 255
-0.280989 0.114433 2.411 255 255 255
0.579476 -0.339815 1.7 255 255 255
0.765454 0.0850534 1.677 255 255 255
0.758662 -0.438034 1.633 255 255 255
0.312667 0.30419 2.303 255 255 255
-0.265357 0.116114 1.112 255 255 255
0.39202 -0.628518 2.329 255 255 255
-0.421209 0.0507069 1.147 255 255 255
0.25604 0.0812178 2.604 255 255 255
0.0650648 0.488284 1.959 255 255 255
0.741547 -0.397468 1.71 255 255 255
0.753394 0.489573 1.616 255 255 255
-0.389227 0.124542 1.046 255 255 255
0.185348 -0.718578 2.402 255 255 255
-0.560222 -0.66202 2.143 255 255 255
0.207156 -0.821476 2.383 255 255 255
0.467172 0.314199 1.947 255 255 255
-0.30147 0.279128 0.742 255 255 255
0.671093 -0.158128 1.805 255 255 255
-0.260678 0.555008 1.893 255 255 255
-0.116155 -0.819357 2.411 255 255 255
0.713545 0.36997 1.831 255 255 255
-0.127721 0.594011 1.842 255 255 255
-0.293104 0.127162 1.068 255 255 255
-0.0403114 0.486829 1.966 0 0 0
0.278937 -0.70246 2.469 255 255 255
0.10826 0.46386 1.991 0 0 0
-1.01401 -0.838315 2.166 255 255 255
-0.457592 0.0547722 1.154 255 255 255
0.0539684 0.533726 1.905 255 255 255
-0.301095 0.176662 1.013 255 255 255
-0.706572 -0.178987 1.575 255 255 255
-0.443498 -0.221782 1.686 255 255 255
0.74001 0.53766 1.794 255 255 255
0.600637 -0.447099 1.637 255 255 255
-0.274231 -0.283796 2.649 255 255 255
0.468427 -0.415743 1.65 255 255 255
0.112353 -0.813951 2.43 255 255 255
-0.287833 0.0970741 1.122 255 255 255
0.0621591 -0.56411 2.479 255 255 255
0.763916 0.200299 1.616 255 255 255
0.389834 -0.661982 2.189 255 255 255
0.0864874 0.0176543 2.604 255 255 255
0.595207 -0.409912 1.659 255 255 255
-0.279762 0.0110637 1.316 255 255 255
0.763486 -0.539714 1.551 255 255 255
0.210613 -0.642192 2.469 255 255 255
-0.425948 -0.372406 1.848 255 255 255
0.727271 0.422515 1.729 255 255 255
0.489862 0.528203 1.853 255 255 255
-0.0412589 0.097961 2.392 255 255 255
-0.525209 0.140997 0.994 255 255 255
-0.384272 0.147023 1.002 255 255 255
-0.548308 -0.688994 2.151 255 255 255
-0.322423 0.204525 0.923 255 255 255
-0.319066 0.280025 0.738 255 255 255
0.733308 0.404974 1.691 255 255 255
-0.666431 -0.300448 1.831 255 255 255
-0.378256 -0.312097 1.865 255 255 255
-0.276428 0.0834398 1.758 255 255 255
-0.0523424 0.123796 2.365 255 255 255
-0.275455 0.210677 0.937 255 255 255
-0.263911 0.0684987 1.232 255 255 255
0.19079 0.436787 2.078 255 255 255
