ply
format ascii 1.0
comment Created by Open3D
element vertex 1298
property double x
property double y
property double z
property uchar red
property uchar green
property uchar blue
end_header
0.00989934 -0.505724 2.53 255 255 255
0.509213 -0.6494 2.244 255 255 255
0.681823 0.266888 1.972 255 255 255
-0.18487 0.0182724 1.375 255 255 255
0.521981 0.584088 1.758 0 0 0
-0.862715 -0.676136 2.212 255 255 255
-0.264931 0.15348 1.046 255 255 255
0.560578 -0.423706 1.629 255 255 255
-0.447716 0.123589 1.024 255 255 255
0.685748 -0.48319 1.624 255 255 255
-0.120528 0.272386 2.42 255 255 255
-0.555256 -0.00165547 1.22 255 255 255
0.500369 -0.160408 1.978 255 255 255
0.646512 0.282933 1.972 255 255 255
0.257818 0.48878 1.899 255 255 255
0.817792 -0.40515 1.629 255 255 255
0.838924 0.44935 1.682 255 255 255
-0.269749 -0.0342699 1.33 255 255 255
0.0751638 -0.611767 2.509 255 255 255
0.324995 0.371282 2.071 255 255 255
0.499623 -0.445517 1.612 255 255 255
-0.352369 0.2545 0.766 0 0 0
0.326573 0.241621 2.244 255 255 255
0.300988 -0.483029 2.519 255 255 255
-0.114289 -0.204591 2.743 255 255 255
0.604437 0.60942 1.799 255 255 255
0.176886 0.51188 1.893 255 255 255
-0.524402 0.0517025 1.128 255 255 255
-0.050355 0.624139 1.758 255 255 255
0.821403 0.41606 1.714 255 255 255
0.658195 0.131235 1.959 255 255 255
-1.01761 -0.74361 2.22 255 255 255
0.207957 -0.0518991 2.695 255 255 255
0.223572 0.0692508 2.479 255 255 255
0.362494 0.0908644 2.519 255 255 255
0.564712 0.0724951 1.923 255 255 255
-0.761959 -0.685918 2.244 255 255 255
-0.224993 -0.0904506 1.509 255 255 255
-0.587741 -0.434022 1.935 0 0 0
-0.296487 0.215186 0.869 255 255 255
-0.643083 -0.0481942 1.297 255 255 255
-0.16795 0.302611 0.815 255 255 255
-0.915601 -0.555523 2.071 255 255 255
-0.133129 -0.542356 2.509 255 255 255
-0.382751 -0.623469 2.107 255 255 255
-0.418059 0.138178 0.997 255 255 255
-0.261687 0.259825 0.767 255 255 255
0.781334 0.183451 1.972 255 255 255
0.368899 0.247973 2.303 255 255 255
0.73559 -0.410452 1.629 255 255 255
-0.416871 -0.105207 1.442 255 255 255
0.728932 -0.0643108 1.81 255 255 255
-0.00259353 -0.0340633 2.672 255 255 255
0.806349 0.512131 1.917 255 255 255
-0.213516 0.152984 1.02 255 255 255
0.0746996 -0.815271 2.365 255 255 255
-0.767346 -0.238244 1.686 255 255 255
-0.383613 -0.557118 2.004 0 0 0
0.354293 -0.524022 2.519 255 255 255
-0.450028 -0.599994 2.085 255 255 255
0.609063 0.656048 1.729 255 255 255
-0.548204 0.0289006 1.171 255 255 255
-0.338545 0.248961 0.792 255 255 255
0.26329 0.431484 2.037 255 255 255
0.484266 0.149656 2.181 255 255 255
-0.159814 0.291078 1.027 255 255 255
-0.57136 -0.25203 1.724 255 255 255
-0.930797 -0.441685 1.941 255 255 255
-0.310309 0.161681 1.044 255 255 255
-0.235057 0.248831 2.383 255 255 255
-0.338534 0.214938 0.868 255 255 255
0.726763 0.212333 1.972 255 255 255
0.500112 -0.254163 2.269 255 255 255
0.179985 0.389124 2.151 255 255 255
-0.0982877 0.538516 1.911 255 255 255
0.652147 0.3385 1.941 0 0 0
0.585235 0.464674 1.794 255 255 255
0.474753 0.572082 1.774 255 255 255
-0.823282 -0.228477 1.655 255 255 255
0.397091 0.170104 2.479 255 255 255
0.491786 -0.349846 1.794 255 255 255
-0.218137 -0.168789 1.705 255 255 255
0.483555 0.178555 2.278 255 255 255
-0.243482 0.24971 0.847 255 255 255
-0.502544 0.163781 0.957 255 255 255
0.491641 -0.638379 1.826 255 255 255
-0.246261 0.0244311 1.234 255 255 255
-0.0787585 -0.70246 2.469 255 255 255
0.533728 -0.725039 1.947 255 255 255
-0.438557 0.167221 0.95 255 255 255
-0.862404 -0.806592 2.166 255 255 255
-0.34753 0.277116 0.715 255 255 255
0.815625 0.202536 1.853 255 255 255
0.761391 0.248391 2.004 255 255 255
-0.367961 -0.404875 1.859 255 255 255
0.181405 0.525601 1.876 255 255 255
-0.861287 -0.387989 1.941 255 255 255
-0.00668318 0.0299939 2.572 255 255 255
-0.687387 -0.838676 2.204 255 255 255
-0.0667326 0.449943 2.092 255 255 255
0.491864 0.39409 1.805 255 255 255
-1.01921 -0.460307 1.953 255 255 255
0.483245 -0.620168 2.312 255 255 255
0.100848 0.439454 2.107 255 255 255
0.112898 0.475532 1.959 255 255 255
-0.157707 0.319599 0.884 255 255 255
-0.154041 0.401892 1.132 255 255 255
-0.387243 -0.660991 2.151 255 255 255
-0.1942 0.231301 0.893 255 255 255
0.0349928 0.290784 2.286 255 255 255
0.549206 0.57191 1.81 255 255 255
0.631785 -0.159278 1.753 255 255 255
-0.00602837 0.287558 2.32 255 255 255
0.682948 0.144501 1.966 255 255 255
-0.205213 -0.0177055 1.865 255 255 255
-0.215119 -0.161754 2.078 255 255 255
0.774862 -0.0972987 1.821 255 255 255
-0.200539 0.253957 0.852 255 255 255
0.685054 0.633539 1.729 255 255 255
-0.452235 -0.784126 2.212 255 255 255
0.517992 -0.47175 1.612 255 255 255
0.82106 -0.361095 1.696 255 255 255
-0.314237 0.0483253 1.18 255 255 255
0.330764 -0.114812 2.731 255 255 255
0.600229 -0.32625 1.673 255 255 255
-0.190206 0.225553 0.923 255 255 255
-0.358527 0.161603 0.972 255 255 255
-0.0226408 0.602382 1.831 255 255 255
0.726271 -0.378152 1.65 255 255 255
-0.00899344 0.419593 2.128 0 0 0
-0.818849 -0.335295 1.859 255 255 255
-0.724937 -0.0822387 1.372 255 255 255
-0.359663 0.0930411 1.096 255 255 255
-0.455491 -0.37653 1.81 255 255 255
-0.402497 0.116158 1.032 255 255 255
0.817871 0.473959 1.865 255 255 255
-0.383161 0.217096 0.753 255 255 255
-0.407093 -0.175528 1.567 255 255 255
-0.63913 -0.592505 2.236 255 255 255
0.352138 0.62807 1.753 255 255 255
-0.841657 -0.526639 2.204 255 255 255
0.471248 0.211139 1.991 255 255 255
-0.159417 0.365102 2.196 255 255 255
-0.635633 -0.197821 1.603 255 255 255
0.507251 -0.204511 2.173 255 255 255
0.611649 -0.548977 1.563 255 255 255
-0.53784 0.0691893 1.114 255 255 255
0.531007 0.579106 1.769 255 255 255
0.822061 -0.141026 1.739 255 255 255
0.143407 0.213407 2.294 255 255 255
-0.554148 -0.184581 1.579 255 255 255
-0.809025 -0.663004 2.253 255 255 255
0.832402 -0.167403 1.691 255 255 255
0.455137 -0.27297 2.402 255 255 255
0.826327 0.0995526 1.646 255 255 255
0.311263 0.344407 2.092 0 0 0
0.789336 0.616421 1.705 255 255 255
-0.340048 -0.0946914 1.425 255 255 255
0.278025 -0.898537 2.392 255 255 255
-0.178263 0.0834944 1.31 255 255 255
-0.486851 0.187915 0.93 255 255 255
-0.264062 -0.276611 1.831 255 255 255
0.11099 -0.0647905 2.684 255 255 255
-0.156323 0.318852 0.974 255 255 255
0.0477441 -0.422039 2.572 255 255 255
0.759155 0.58588 1.826 255 255 255
0.276519 0.619169 1.744 255 255 255
0.815908 -0.223735 1.744 255 255 255
-0.597474 -0.00957324 1.217 255 255 255
-0.774011 -0.457787 2.071 255 255 255
-0.195532 0.290414 0.772 255 255 255
-0.173648 0.195075 1.05 255 255 255
-0.204787 0.281776 0.769 255 255 255
0.33303 0.442735 1.941 255 255 255
0.615875 -0.534163 1.587 255 255 255
-0.159363 -0.321351 2.604 255 255 255
-0.221529 0.275491 0.762 255 255 255
-0.221727 -0.10586 1.555 255 255 255
-0.542342 0.113236 1.036 255 255 255
-0.829522 -0.227235 1.646 255 255 255
0.321987 0.584367 1.859 255 255 255
0.806748 0.612372 1.607 255 255 255
0.659342 -0.136845 1.758 255 255 255
-0.519583 0.0416266 1.154 255 255 255
0.805851 -0.204921 1.753 255 255 255
0.00759471 0.509067 1.941 255 255 255
-0.39677 0.140617 1.039 255 255 255
0.58781 -0.0175441 1.848 255 255 255
0.837683 0.452024 1.642 255 255 255
0.41523 -0.310358 2.731 255 255 255
0.491613 -0.0353761 1.837 255 255 255
0.448993 0.165438 2.411 255 255 255
0.25519 -0.0614809 2.731 0 0 0
-0.213036 0.361529 2.196 255 255 255
-0.227199 0.285037 0.748 255 255 255
-0.15267 0.206286 2.43 255 255 255
-0.30578 -0.24499 1.714 255 255 255
-0.330361 0.238616 0.823 255 255 255
-0.10477 -0.739715 2.42 255 255 255
0.62054 0.000504269 1.865 255 255 255
-0.530976 -0.669125 2.166 255 255 255
-0.196164 -0.0257225 1.459 255 255 255
-0.462028 -0.172536 1.563 255 255 255
0.799952 0.326873 1.947 255 255 255
-0.642846 -0.194238 1.595 255 255 255
0.701896 -0.425787 1.637 255 255 255
-0.284818 0.171874 1.044 255 255 255
-0.157886 0.309932 0.877 255 255 255
0.386868 -0.576902 2.572 255 255 255
0.140994 0.00492077 2.593 255 255 255
0.82551 -0.305198 1.677 255 255 255
0.648628 0.112107 1.959 255 255 255
-0.916726 -0.780526 2.212 255 255 255
0.447056 0.541307 1.826 255 255 255
-0.0915048 0.477892 2.037 255 255 255
0.528309 -0.578955 1.528 255 255 255
0.23028 -0.322593 2.649 255 255 255
-0.206176 0.232226 0.864 255 255 255
-0.293055 -0.16575 1.571 255 255 255
0.506808 -0.176502 1.978 255 255 255
0.0986088 0.512198 1.929 255 255 255
0.527157 -0.32697 2.212 255 255 255
-0.204375 0.218222 0.893 255 255 255
-0.0163427 0.607726 1.794 255 255 255
-0.203254 -0.640662 2.374 255 255 255
-0.460971 -0.476971 1.893 255 255 255
0.821392 0.237113 1.691 255 255 255
0.26499 -0.50968 2.489 255 255 255
0.657467 -0.239153 1.753 255 255 255
0.192364 -0.925785 2.392 255 255 255
-0.333317 -0.0339092 1.316 255 255 255
-0.0664311 0.0486841 2.459 255 255 255
0.236813 -0.868139 2.449 255 255 255
0.328915 0.538225 1.899 255 255 255
-0.716632 -0.760792 2.228 255 255 255
0.0052623 0.292946 2.303 255 255 255
0.491659 -0.455033 2.121 255 255 255
0.727089 -0.47818 1.616 255 255 255
-0.56596 0.0433161 1.149 255 255 255
0.650774 0.30741 1.985 255 255 255
0.414395 -0.570267 2.561 255 255 255
-0.317892 -0.125176 1.484 255 255 255
0.603453 0.314199 1.947 0 0 0
-0.275275 0.137371 1.053 255 255 255
-0.920586 -0.78129 2.204 255 255 255
-0.236421 -0.335325 1.947 0 0 0
0.638987 -0.572084 1.543 255 255 255
-0.211782 -0.646969 2.383 255 255 255
-0.172682 0.201909 1.024 255 255 255
-0.377039 -0.371597 1.859 255 255 255
0.0580376 -0.0295816 2.66 255 255 255
-0.421046 -0.723448 2.181 255 255 255
-1.05266 -0.816271 2.173 255 255 255
-0.00644153 -0.596384 2.479 255 255 255
0.415503 0.256467 2.312 255 255 255
0.470224 0.00914044 2.593 255 255 255
0.146708 0.43662 1.985 255 255 255
-0.170638 0.239629 0.931 255 255 255
-0.359774 0.213858 0.858 255 255 255
-0.715223 -0.414865 2.01 255 255 255
0.0749573 0.622007 1.744 255 255 255
-0.496995 0.145835 0.983 255 255 255
0.802678 0.520147 1.784 255 255 255
0.455996 0.290394 2.024 255 255 255
0.548878 -0.518687 1.595 255 255 255
-0.0550868 -0.461075 2.489 255 255 255
-0.196048 -0.0157499 1.659 255 255 255
0.117341 0.376343 2.158 255 255 255
-0.352856 0.27789 0.714 255 255 255
-0.390668 0.0103154 1.227 255 255 255
0.394941 0.62807 1.753 255 255 255
0.660708 0.648523 1.739 255 255 255
-0.216294 -0.521641 2.057 255 255 255
0.788356 -0.525153 1.591 255 255 255
-1.10434 -0.725546 2.22 255 255 255
0.675288 0.100345 1.917 255 255 255
-0.40123 0.0347653 1.176 255 255 255
-0.683799 -0.662931 2.204 255 255 255
0.114156 -0.473442 2.469 255 255 255
0.799231 0.504115 1.629 255 255 255
-0.187232 0.289471 0.79 255 255 255
0.579215 -0.216949 1.758 255 255 255
-0.535157 -0.259136 1.734 255 255 255
0.551418 0.517663 1.837 255 255 255
-0.327523 -0.395098 1.87 255 255 255
-0.352108 0.273954 0.722 255 255 255
0.534618 0.0656164 1.905 255 255 255
0.613753 -0.582399 1.524 255 255 255
-0.567667 -0.159869 1.539 255 255 255
0.41523 -0.1237 2.731 255 255 255
-0.158656 0.295536 0.95 255 255 255
-0.257641 0.277546 0.741 255 255 255
0.608935 -0.290872 1.705 255 255 255
0.804504 0.142734 1.821 255 255 255
-0.0135796 0.605979 1.815 255 255 255
0.357387 -0.659945 2.402 255 255 255
0.606142 0.10291 1.966 255 255 255
-0.0405106 0.65804 1.705 255 255 255
-0.248107 0.398243 2.071 0 0 0
0.16628 -0.288137 2.731 255 255 255
0.501942 -0.450359 1.799 255 255 255
0.112393 -0.382285 2.615 255 255 255
-0.5611 -0.575466 2.107 255 255 255
-0.173007 0.172194 1.089 255 255 255
0.477065 0.110047 1.923 255 255 255
-0.222516 -0.131521 1.655 255 255 255
-0.202835 0.00366069 1.929 255 255 255
-0.267416 -0.0166747 1.308 255 255 255
0.612684 -0.290018 1.7 255 255 255
-0.164473 0.239205 0.966 255 255 255
0.81665 0.0193467 1.659 255 255 255
0.608791 -0.582399 1.524 255 255 255
0.454539 0.595177 1.774 255 255 255
0.589107 -0.403039 1.642 255 255 255
0.655006 0.147175 1.959 255 255 255
0.453301 0.526871 1.758 0 0 0
0.216574 0.493413 1.917 255 255 255
-0.151943 -0.470466 2.244 255 255 255
0.674272 0.501216 1.923 255 255 255
0.43337 -0.177747 2.55 255 255 255
0.77495 -0.319552 1.71 255 255 255
-0.0369434 -0.830665 2.365 255 255 255
0.823096 0.4617 1.629 255 255 255
-0.284941 0.211458 0.877 255 255 255
0.697416 -0.216332 1.753 255 255 255
-0.322466 -0.417736 1.876 255 255 255
-0.536546 0.0139474 1.196 255 255 255
0.246512 0.361121 2.151 255 255 255
0.746631 0.322213 2.017 255 255 255
0.512158 -0.466717 2.051 255 255 255
0.501924 -0.129451 1.997 255 255 255
-0.00641554 0.0569178 2.469 255 255 255
0.344448 -0.621049 2.449 255 255 255
-0.927968 -0.782028 2.196 255 255 255
0.825343 -0.103937 1.734 255 255 255
-0.482271 0.0292955 1.187 255 255 255
0.822996 0.185812 1.7 255 255 255
0.810985 0.558272 1.664 255 255 255
-0.390617 0.108857 1.059 255 255 255
0.513385 -0.581442 1.528 255 255 255
0.0462501 -0.372577 2.731 255 255 255
-0.496526 0.00632196 1.227 255 255 255
0.653882 -0.375945 1.664 255 255 255
-0.386995 -0.037786 1.302 255 255 255
-0.169459 0.444617 2.099 255 255 255
-0.33197 0.160595 1.048 255 255 255
-0.307735 -0.0762014 1.384 255 255 255
-0.260209 0.166863 1.034 255 255 255
0.58241 -0.446623 1.616 255 255 255
0.494001 -0.34984 2.42 255 255 255
0.7576 -0.28171 1.734 255 255 255
-0.774495 -0.584024 2.303 255 255 255
-0.0218722 0.471262 2.037 255 255 255
-0.390357 0.232695 0.748 255 255 255
-1.08804 -0.664215 2.173 255 255 255
0.298858 -0.056055 2.684 255 255 255
-0.416034 0.149715 0.977 255 255 255
-0.94426 -0.527909 2.017 255 255 255
0.0626697 -0.889272 2.347 255 255 255
-0.407247 0.152582 0.975 255 255 255
0.777326 -0.0506245 1.848 255 255 255
0.481532 -0.527632 2.286 255 255 255
-0.736034 -0.405041 1.978 255 255 255
0.551768 -0.791703 2.037 255 255 255
0.455401 0.264229 2.051 255 255 255
0.823647 -0.302235 1.646 255 255 255
-0.743892 -0.755329 2.212 255 255 255
-0.303582 0.0917709 1.147 255 255 255
-0.19827 0.272504 0.793 255 255 255
0.521365 -0.0321928 1.826 255 255 255
-0.200145 0.116982 2.383 255 255 255
0.422083 0.651346 1.724 255 255 255
0.505237 -0.706714 1.923 255 255 255
0.742866 -0.519987 1.599 255 255 255
0.496224 -0.0587749 1.821 255 255 255
0.500661 -0.249225 1.724 255 255 255
0.108397 0.135107 2.43 255 255 255
-0.133476 -0.432413 2.181 0 0 0
-0.20675 -0.0630317 1.774 255 255 255
0.471265 0.175438 2.107 255 255 255
0.837044 0.195982 1.646 255 255 255
0.703865 0.385087 1.953 255 255 255
0.585235 0.598968 1.794 255 255 255
-0.152943 0.584275 1.821 255 255 255
-0.200325 -0.463371 1.966 255 255 255
0.542834 0.381863 1.789 255 255 255
-0.279982 -0.0522829 1.348 255 255 255
0.611829 0.433144 1.821 255 255 255
-0.700884 -0.268373 1.739 255 255 255
-0.311994 0.244854 0.817 255 255 255
-0.163525 0.00507069 2.672 0 0 0
-0.249579 -0.105571 1.48 255 255 255
0.68191 0.314819 1.991 255 255 255
0.0760373 -0.291914 2.684 255 255 255
-0.218383 0.556851 1.848 255 255 255
-0.247217 0.392068 2.092 0 0 0
-0.738506 -0.17732 1.583 255 255 255
-0.23558 -0.864723 2.312 255 255 255
0.824724 0.446684 1.769 255 255 255
0.756452 0.35046 1.991 255 255 255
-0.0827775 -0.674335 2.469 255 255 255
0.666432 -0.325268 1.682 255 255 255
-1.00329 -0.790883 2.181 255 255 255
-0.453047 0.135203 0.999 255 255 255
0.513851 -0.0293013 1.831 255 255 255
-0.57583 -0.054234 1.342 255 255 255
0.482524 -0.261136 1.848 255 255 255
-0.296461 0.253777 0.783 255 255 255
0.80015 0.642216 1.664 255 255 255
0.478244 -0.36953 2.42 255 255 255
-0.242035 -0.695627 2.338 255 255 255
0.820148 -0.292152 1.729 255 255 255
-0.111762 0.362128 2.244 255 255 255
-0.339972 0.0462477 1.176 255 255 255
-0.196181 0.202332 2.43 255 255 255
-0.207192 0.268448 2.42 255 255 255
0.739615 -0.13848 1.779 255 255 255
-0.260341 -0.00807317 1.294 255 255 255
-0.441106 -0.00368259 1.234 255 255 255
0.19534 0.491828 1.923 255 255 255
0.464546 -0.2047 2.294 255 255 255
-0.271615 0.191341 1.039 255 255 255
-0.372154 0.0889706 1.112 255 255 255
-0.229844 0.102145 1.098 255 255 255
0.216069 0.607242 1.784 255 255 255
-0.337013 -0.701334 2.212 255 255 255
0.80303 0.23873 1.978 255 255 255
-0.330209 0.020266 1.225 255 255 255
-0.367492 0.115427 1.072 255 255 255
-0.902084 -0.641096 2.143 255 255 255
0.111444 -0.354509 2.695 255 255 255
-0.208551 0.0783123 1.169 255 255 255
0.57183 0.0594162 1.905 255 255 255
-0.275801 -0.838121 2.212 255 255 255
-0.181617 0.173102 1.516 255 255 255
-0.185388 0.535407 1.911 255 255 255
0.277676 0.127159 2.356 255 255 255
0.196224 -0.805389 2.44 255 255 255
0.676078 0.564249 1.893 255 255 255
0.120034 0.634373 1.739 255 255 255
-0.34205 0.00638379 1.239 255 255 255
-0.221306 -0.128127 1.646 255 255 255
0.330226 0.278138 2.244 255 255 255
0.488918 -0.466182 1.62 255 255 255
0.749199 -0.480747 1.607 255 255 255
-0.165738 -0.291203 2.638 255 255 255
-0.0624284 -0.647595 2.459 255 255 255
0.0226815 0.564033 1.882 255 255 255
0.518393 -0.0351643 1.826 255 255 255
-0.773529 -0.426157 2.017 255 255 255
0.183553 -0.833723 2.43 255 255 255
0.527266 -0.430825 2.071 255 255 255
-0.0897489 -0.737887 2.44 255 255 255
-1.00662 -0.62622 2.128 255 255 255
0.258079 -0.406873 2.582 255 255 255
0.810954 0.283684 1.642 255 255 255
-1.07182 -0.729159 2.22 255 255 255
0.424004 0.533407 1.882 0 0 0
-0.0721854 -0.381921 2.672 255 255 255
-0.820955 -0.219586 1.629 255 255 255
0.793118 0.245863 2.01 255 255 255
0.510941 -0.479108 1.842 255 255 255
0.5675 -0.0263217 1.831 255 255 255
0.511662 0.0624544 2.374 255 255 255
0.690821 -0.216949 1.758 255 255 255
0.518111 -0.605985 1.972 255 255 255
0.00932416 0.148005 2.383 255 255 255
0.630308 0.0401945 1.876 255 255 255
0.767069 0.608944 1.789 255 255 255
-0.190831 0.152084 1.06 255 255 255
-0.5144 0.0160531 1.208 255 255 255
0.140146 -0.896092 2.365 255 255 255
-0.962344 -0.584986 2.092 255 255 255
-0.230514 0.213408 0.916 255 255 255
-0.184348 0.471262 2.037 255 255 255
0.0395945 -0.840205 2.338 255 255 255
0.466893 -0.0148043 1.882 255 255 255
0.419308 -0.225385 2.672 255 255 255
-0.953582 -0.769587 2.181 255 255 255
0.825747 0.329154 1.629 255 255 255
-0.214138 -0.135829 2.707 255 255 255
-0.419126 0.204283 0.883 0 0 0
-0.28219 0.100541 1.1 255 255 255
-0.897229 -0.586944 2.099 255 255 255
-0.164259 -0.270075 2.684 255 255 255
0.650584 -0.0839437 1.789 255 255 255
-0.3883 -0.157774 1.543 255 255 255
-0.216902 0.0671271 1.173 255 255 255
0.0185876 -0.412826 2.593 255 255 255
-0.322466 -0.408577 1.876 255 255 255
-0.273803 -0.0166747 1.308 255 255 255
-0.198749 -0.0184496 1.659 255 255 255
0.425986 -0.910215 2.392 255 255 255
0.819144 -0.295254 1.637 255 255 255
0.0833321 -0.587269 2.509 255 255 255
-0.317771 0.255016 0.779 255 255 255
-0.0293551 0.124267 2.374 255 255 255
0.511184 -0.542731 1.567 255 255 255
-0.356926 -0.585241 2.057 255 255 255
0.205297 0.18254 2.236 255 255 255
0.441144 -0.897827 2.411 255 255 255
-0.204728 0.650707 1.686 255 255 255
-0.940977 -0.524626 2.017 255 255 255
-0.204594 0.260854 0.813 255 255 255
0.682235 -0.18548 1.758 255 255 255
-0.245005 0.43794 1.991 0 0 0
0.466018 0.658877 1.7 255 255 255
0.494253 -0.322807 1.929 255 255 255
-0.201751 -0.245075 2.604 255 255 255
0.403501 0.633775 1.753 255 255 255
0.791471 0.598688 1.734 255 255 255
-0.163975 0.323879 1.205 255 255 255
0.0724975 -0.731839 2.42 255 255 255
-0.365157 0.240923 0.791 255 255 255
-0.44076 -0.305839 1.81 255 255 255
-0.700684 -0.802124 2.212 255 255 255
-0.150355 0.40926 1.132 255 255 255
0.629759 -0.47555 1.616 255 255 255
0.234065 0.524219 1.882 255 255 255
-0.422191 0.0257751 1.203 255 255 255
-0.478089 0.0779725 1.11 255 255 255
-0.174233 0.242258 0.918 255 255 255
0.614793 0.590202 1.821 255 255 255
0.0869054 -0.763307 2.383 255 255 255
-0.195458 0.181627 1.004 255 255 255
0.147806 0.432921 2.092 255 255 255
-0.844279 -0.469479 2.078 255 255 255
0.734881 -0.341691 1.682 255 255 255
0.823822 -0.0338335 1.62 255 255 255
-0.265432 0.261073 0.767 255 255 255
0.374384 0.154589 2.489 255 255 255
-0.108634 0.524754 1.929 255 255 255
0.286309 -0.168142 2.731 255 255 255
-0.218046 0.324264 2.286 255 255 255
-0.298712 0.0486119 1.187 255 255 255
0.606103 -0.167836 1.753 255 255 255
-0.0502115 -0.36722 2.66 255 255 255
0.695319 -0.559906 1.551 255 255 255
-0.470472 0.00233798 1.232 255 255 255
0.80858 0.487236 1.893 255 255 255
-0.138995 0.590209 1.794 255 255 255
0.660936 -0.303136 1.696 255 255 255
0.820827 0.230061 1.959 255 255 255
0.181438 -0.902293 2.402 255 255 255
-0.58285 -0.0855797 1.39 255 255 255
-0.22387 -0.0270238 2.43 255 255 255
0.511936 -0.176394 1.753 255 255 255
0.814315 0.114219 1.705 255 255 255
-0.690974 -0.688037 2.204 255 255 255
-0.237275 -0.0978176 1.509 255 255 255
-0.777442 -0.730776 2.236 255 255 255
-0.556975 -0.0381053 1.313 255 255 255
-0.159538 0.343155 1.145 255 255 255
0.652746 -0.147445 1.748 255 255 255
-0.197341 0.181984 0.997 255 255 255
0.55597 -0.174985 1.739 255 255 255
0.751198 0.608435 1.779 255 255 255
0.568397 -0.561694 1.563 255 255 255
-0.300248 0.237332 0.814 255 255 255
-0.591737 0.0114492 1.141 255 255 255
-0.403365 0.151924 0.981 255 255 255
0.231642 0.366753 2.143 255 255 255
0.478126 -0.785844 2.092 255 255 255
-0.92477 -0.430874 1.935 255 255 255
0.23102 -0.734863 2.43 255 255 255
0.277592 -0.456319 2.53 255 255 255
0.36515 0.247973 2.303 255 255 255
-0.434712 -0.189995 1.603 255 255 255
-0.00524105 0.483047 2.017 255 255 255
0.752443 0.173824 1.972 255 255 255
-0.127091 -0.41999 2.638 255 255 255
-0.377042 0.119893 1.05 255 255 255
0.120759 0.139634 2.44 255 255 255
0.562045 0.418159 1.758 255 255 255
-0.713006 -0.706407 2.228 255 255 255
-0.179247 0.265662 0.863 255 255 255
-0.206615 -0.13173 1.935 255 255 255
0.124887 0.585496 1.853 255 255 255
0.82182 0.236035 1.664 255 255 255
0.545763 -0.307193 1.673 255 255 255
-0.29516 0.0166644 1.254 255 255 255
0.506555 -0.0758825 1.805 255 255 255
-0.502586 -0.00570455 1.237 255 255 255
0.137006 0.431598 2.136 255 255 255
0.119132 -0.627142 2.489 255 255 255
-0.391156 0.187947 0.759 255 255 255
-0.436352 -0.566292 2.037 255 255 255
-1.11157 -0.725546 2.22 255 255 255
0.0865839 0.509067 1.941 255 255 255
0.0249342 0.238094 2.392 255 255 255
-0.902504 -0.373132 1.882 255 255 255
-0.391792 0.172741 0.938 255 255 255
0.405369 -0.266796 2.695 255 255 255
-0.236421 -0.319483 1.947 255 255 255
-0.252017 -0.0533301 1.375 255 255 255
-0.0895834 -0.399314 2.672 255 255 255
0.163101 -0.786973 2.42 255 255 255
0.722535 0.245168 1.978 255 255 255
-0.186011 0.15555 1.072 255 255 255
-0.449119 0.0645519 1.128 255 255 255
0.74387 0.0313172 1.893 255 255 255
0.117894 -0.244765 2.743 255 255 255
0.813069 0.0515567 1.744 255 255 255
-0.276699 0.241736 0.811 255 255 255
-0.886563 -0.435368 1.941 255 255 255
0.659769 0.641873 1.744 255 255 255
0.286972 0.137601 2.338 255 255 255
-0.69599 -0.790574 2.22 255 255 255
0.679705 -0.086855 1.789 255 255 255
0.551886 -0.210626 1.753 255 255 255
0.228687 0.597118 1.815 255 255 255
0.835155 -0.0518272 1.691 255 255 255
-0.350714 0.00635803 1.234 255 255 255
0.617622 0.279724 1.972 255 255 255
0.670114 -0.11532 1.779 255 255 255
-0.152594 -0.391868 1.929 255 255 255
0.266344 -0.758404 2.392 255 255 255
0.57778 -0.104323 1.789 255 255 255
0.790435 -0.408923 1.655 255 255 255
-0.888865 -0.447594 1.953 255 255 255
0.730398 0.596129 1.821 255 255 255
-0.161107 0.287752 0.879 255 255 255
0.727486 0.122565 1.923 255 255 255
0.480957 -0.0864306 1.842 255 255 255
-0.300485 0.246191 0.804 255 255 255
-0.307526 0.187825 1.029 255 255 255
0.517638 0.323939 1.911 255 255 255
0.411386 -0.443296 2.649 255 255 255
-0.178892 0.272084 0.848 255 255 255
0.411075 0.484156 1.893 255 255 255
0.450669 -0.168685 2.42 255 255 255
0.249383 0.524219 1.882 255 255 255
0.818963 -0.276655 1.686 255 255 255
-0.817357 -0.326234 1.842 255 255 255
0.0494073 0.627683 1.744 255 255 255
0.62391 -0.186007 1.763 255 255 255
0.210735 -0.114812 2.731 255 255 255
-0.0915314 -0.871889 2.383 255 255 255
-0.791386 -0.230962 1.673 255 255 255
-0.0570672 0.603121 1.789 255 255 255
-0.262143 0.244255 0.815 255 255 255
-0.25287 0.0475061 1.208 255 255 255
-0.338527 0.0536735 1.171 255 255 255
0.786904 -0.474091 1.62 255 255 255
0.317177 0.410332 2.064 255 255 255
-0.209647 0.244705 0.844 255 255 255
0.682907 0.00351646 1.853 255 255 255
-0.153224 0.410756 1.126 255 255 255
-0.862222 -0.754448 2.22 255 255 255
-0.313665 0.0991699 1.085 255 255 255
-0.341308 -0.136472 1.502 255 255 255
0.642668 0.335341 1.941 255 255 255
0.434325 0.574969 1.774 255 255 255
0.807762 0.133403 1.815 255 255 255
-0.327023 0.226312 0.842 255 255 255
-0.295038 0.241857 0.807 255 255 255
0.796618 0.608608 1.691 255 255 255
0.0306971 0.329262 2.244 255 255 255
-0.342969 -0.709557 2.204 255 255 255
0.819758 0.400081 1.682 255 255 255
-0.223252 0.242045 0.854 255 255 255
-0.346415 0.140502 1.077 255 255 255
-0.18276 0.275099 0.828 255 255 255
-0.483758 -0.224304 1.664 255 255 255
-0.257908 -0.15592 1.575 255 255 255
-0.186455 -0.566589 2.22 255 255 255
-0.151276 -0.396577 2.347 255 255 255
-0.293341 0.268354 0.749 255 255 255
-0.0524901 0.646658 1.734 255 255 255
-0.160765 -0.482311 2.166 255 255 255
0.614322 -0.535393 1.583 255 255 255
-0.379425 -0.251299 1.719 255 255 255
0.18248 -0.58996 2.469 255 255 255
0.618544 -0.00857297 1.859 255 255 255
-0.215671 0.251279 0.825 255 255 255
0.558559 -0.0173828 1.831 255 255 255
-0.102873 -0.710496 2.469 255 255 255
-0.734127 -0.271669 1.724 255 255 255
0.82551 -0.0241078 1.677 255 255 255
0.205955 0.0131952 2.561 255 255 255
-0.952565 -0.707483 2.22 255 255 255
0.503377 0.393527 1.763 255 255 255
0.78238 0.207899 1.991 255 255 255
-0.405866 0.193813 0.908 255 255 255
-0.287497 -0.331133 1.887 0 0 0
0.275635 -0.41013 2.55 255 255 255
0.238666 -0.22294 2.695 255 255 255
-0.271827 -0.708329 2.269 255 255 255
-0.167935 0.241427 0.95 255 255 255
0.500547 -0.272882 1.714 255 255 255
0.643199 -0.170688 1.753 255 255 255
-0.215406 -0.244423 2.469 255 255 255
0.0701297 0.519993 1.923 255 255 255
-0.192957 0.000735178 2.719 255 255 255
0.806162 -0.0600014 1.859 255 255 255
0.796352 0.0912712 1.923 255 255 255
0.525316 0.319821 1.905 255 255 255
0.39723 -0.871889 2.383 255 255 255
-0.656239 -0.833926 2.22 255 255 255
-0.478639 -0.0519338 1.339 255 255 255
-0.670694 -0.718321 2.22 255 255 255
0.0204399 0.660087 1.696 255 255 255
-0.498756 0.0487552 1.145 255 255 255
-0.146487 -0.715622 2.459 255 255 255
-0.343502 -0.0453968 1.339 255 255 255
0.0240675 0.484756 1.997 255 255 255
-0.271847 0.128803 1.053 255 255 255
0.490183 -0.560276 1.633 255 255 255
-1.07876 -0.74093 2.212 255 255 255
-0.568892 -0.0705572 1.362 255 255 255
-0.522057 0.130504 1.013 255 255 255
-0.386214 0.238588 0.759 255 255 255
0.107407 -0.515795 2.499 255 255 255
-0.346866 0.201181 0.882 255 255 255
-0.109251 -0.755595 2.347 255 255 255
-0.176585 0.286961 0.812 255 255 255
0.601529 -0.227093 1.748 255 255 255
0.357247 -0.478789 2.54 255 255 255
0.462079 -0.022809 2.051 255 255 255
0.820906 0.265438 1.893 255 255 255
0.786718 0.560568 1.821 255 255 255
-0.393635 -0.0613292 1.354 255 255 255
0.451233 0.524006 1.739 0 0 0
0.802602 0.170893 1.837 255 255 255
0.244912 0.106586 2.411 255 255 255
0.335172 0.640033 1.739 255 255 255
-0.186798 -0.768352 2.411 255 255 255
-0.621468 -0.665337 2.212 255 255 255
-0.683081 -0.628564 2.261 255 255 255
0.507631 -0.18158 1.748 255 255 255
-0.737614 -0.809983 2.204 255 255 255
-0.407838 -0.00982496 1.249 255 255 255
0.633877 -0.0234823 1.842 255 255 255
-0.531444 0.0690651 1.112 255 255 255
0.174401 -0.140855 2.719 255 255 255
-0.466543 -0.434145 1.842 255 255 255
0.814934 0.458448 1.748 255 255 255
-0.253926 0.161032 1.029 255 255 255
-0.100894 -0.061751 2.743 255 255 255
0.806509 0.521297 1.633 255 255 255
0.710713 0.22517 1.972 255 255 255
0.316962 -0.614379 2.392 255 255 255
0.468281 -0.794528 2.294 255 255 255
-0.305476 0.265129 0.74 255 255 255
-0.237709 0.248184 0.856 255 255 255
-0.443317 0.205181 0.906 255 255 255
0.341852 -0.807659 2.459 255 255 255
0.602742 0.657849 1.719 255 255 255
-0.965582 -0.618659 2.114 255 255 255
-0.319212 0.196424 0.893 255 255 255
-0.0927781 0.419063 2.143 255 255 255
-0.946352 -0.458893 1.947 255 255 255
-0.968179 -0.831266 2.166 255 255 255
0.572754 0.116669 1.929 255 255 255
-0.593933 -0.0179263 1.247 255 255 255
-0.971308 -0.830416 2.173 255 255 255
0.179597 -0.845586 2.43 255 255 255
0.720077 -0.389679 1.642 255 255 255
-0.367366 0.194384 0.897 0 0 0
-0.299958 0.00647653 1.257 255 255 255
0.834656 0.122598 1.668 255 255 255
-0.612788 -0.0395677 1.291 255 255 255
0.205161 0.362296 2.158 255 255 255
-0.470116 -0.402525 1.821 255 255 255
-0.290533 0.259677 0.774 255 255 255
-0.533012 0.0739579 1.104 255 255 255
0.452356 -0.499699 2.347 255 255 255
-0.357962 0.184682 0.914 255 255 255
-0.182191 0.121824 2.402 255 255 255
-0.427675 0.0927015 1.092 255 255 255
-0.201633 0.113305 1.12 255 255 255
0.696322 -0.477904 1.624 255 255 255
0.547001 0.263679 1.972 255 255 255
0.608598 0.610645 1.794 255 255 255
-0.986065 -0.586944 2.099 255 255 255
-0.310425 0.194863 1.022 255 255 255
0.320618 0.276155 2.228 255 255 255
0.267717 -0.749799 2.44 255 255 255
0.0618517 -0.00357962 2.638 255 255 255
-0.413772 -0.154458 1.535 255 255 255
0.649177 0.600737 1.826 255 255 255
0.449349 -0.170626 2.392 255 255 255
0.415915 0.476479 1.887 255 255 255
-0.396417 0.204342 0.871 255 255 255
-0.622023 -0.287734 1.789 255 255 255
-0.310251 -0.365837 1.876 255 255 255
-0.182891 0.32419 2.312 255 255 255
0.496586 -0.237705 2.253 255 255 255
-0.166401 -0.185102 2.719 255 255 255
-0.312185 0.239373 0.821 255 255 255
0.43568 0.141293 2.469 255 255 255
0.467119 0.422621 1.789 255 255 255
0.709217 0.456405 1.959 255 255 255
0.0553693 0.610953 1.753 255 255 255
0.134594 0.527525 1.905 255 255 255
-0.183434 0.169275 1.348 255 255 255
-0.0174252 0.277303 2.329 255 255 255
0.318775 -0.452202 2.53 255 255 255
-0.204515 0.186282 0.977 255 255 255
0.81023 -0.27482 1.744 255 255 255
-0.534576 0.124522 1.018 255 255 255
0.524184 0.540956 1.805 0 0 0
-0.494051 -0.61427 2.099 255 255 255
0.64401 -0.574595 1.543 255 255 255
-0.335337 0.156373 0.969 255 255 255
-0.390841 0.246257 0.756 255 255 255
0.623185 0.43396 1.837 255 255 255
-0.169219 0.270688 0.884 255 255 255
0.00117568 0.608944 1.789 255 255 255
-0.298544 0.26348 0.756 255 255 255
-0.596898 -0.130269 1.487 255 255 255
-0.493652 -0.849436 2.204 255 255 255
-0.456749 -0.395292 1.815 255 255 255
0.500248 -0.107529 2.143 255 255 255
-0.587855 0.0220949 1.116 255 255 255
-0.601282 -0.659344 2.204 255 255 255
-0.025684 0.144672 2.392 255 255 255
0.767119 0.567096 1.882 255 255 255
0.101331 0.657187 1.71 255 255 255
0.157066 0.340061 2.173 255 255 255
0.228172 0.0295041 2.53 255 255 255
-0.284476 -0.511155 1.929 255 255 255
0.535792 -0.503172 1.587 255 255 255
0.829097 -0.344914 1.62 255 255 255
-0.365993 -0.0596498 1.366 255 255 255
-0.373321 0.154303 0.986 255 255 255
-0.280608 -0.461949 1.882 255 255 255
-1.03363 -0.54682 2.051 255 255 255
-0.216615 -0.0802541 1.502 255 255 255
0.817375 -0.00493897 1.655 255 255 255
0.811826 0.486751 1.633 255 255 255
-0.503809 -0.195699 1.607 255 255 255
0.546213 0.417667 1.744 255 255 255
-0.363297 0.00633226 1.229 255 255 255
0.309206 0.598377 1.837 255 255 255
-0.369362 0.0804976 1.12 255 255 255
0.806841 -0.164073 1.774 255 255 255
-0.549283 -0.399472 1.848 255 255 255
-0.467236 0.123114 1.034 255 255 255
0.318802 0.618418 1.758 255 255 255
0.251826 -0.240482 2.695 255 255 255
0.592506 -0.361316 1.659 255 255 255
0.052366 0.620589 1.748 255 255 255
0.450422 0.147575 2.44 255 255 255
0.206172 0.603565 1.799 255 255 255
-0.133439 0.223018 2.44 255 255 255
0.545562 0.651346 1.724 255 255 255
0.130141 -0.0966084 2.719 255 255 255
0.485532 -0.161895 1.848 255 255 255
0.0444028 -0.789545 2.392 255 255 255
-0.121602 -0.272389 2.707 255 255 255
-0.588238 -0.044617 1.316 255 255 255
0.320618 0.250775 2.228 255 255 255
-0.482574 0.0161727 1.217 255 255 255
-0.19482 0.0648553 1.239 255 255 255
-0.286324 -0.269511 1.784 255 255 255
0.152154 0.049476 2.499 255 255 255
0.778273 -0.438263 1.624 255 255 255
0.404313 -0.526321 2.55 255 255 255
-0.603304 -0.0172651 1.201 255 255 255
-0.328959 -0.271651 1.779 255 255 255
-0.802855 -0.803469 2.196 255 255 255
-0.186447 -0.0113195 1.439 255 255 255
0.128157 0.638193 1.734 255 255 255
0.150721 0.153668 2.411 255 255 255
-0.21901 -0.341963 2.42 255 255 255
0.70954 -0.454119 1.624 255 255 255
0.57368 -0.527794 1.599 255 255 255
0.815908 0.298468 1.744 255 255 255
0.0351152 0.276869 2.294 255 255 255
0.129028 0.440562 2.064 0 0 0
0.597907 -0.355917 1.659 255 255 255
-0.396469 0.249617 0.755 255 255 255
-0.999735 -0.815727 2.181 255 255 255
-0.585604 0.0192237 1.162 255 255 255
0.472432 -0.032916 2.582 255 255 255
0.619725 -0.0982249 1.784 255 255 255
0.803851 -0.446006 1.633 255 255 255
-0.344607 -0.0250733 1.302 255 255 255
0.719103 0.579466 1.853 255 255 255
0.850079 0.442556 1.677 255 255 255
-0.214578 0.285247 0.755 255 255 255
-0.034269 0.211885 2.449 255 255 255
-0.0947415 -0.284339 2.695 255 255 255
-0.889378 -0.800908 2.189 255 255 255
0.328551 0.122737 2.42 255 255 255
0.24683 0.459593 1.959 0 0 0
0.417424 -0.142128 2.66 255 255 255
0.222102 -0.153449 2.707 255 255 255
0.816875 0.41245 1.734 255 255 255
-0.188265 0.210558 1.435 255 255 255
0.0556619 -0.81451 2.374 255 255 255
-0.0564292 0.619408 1.769 255 255 255
0.799032 0.637522 1.673 255 255 255
-0.283002 -0.84172 2.212 255 255 255
-0.387866 0.236102 0.755 255 255 255
0.784542 -0.194573 1.789 255 255 255
0.516285 -0.542731 1.567 255 255 255
0.452704 -0.458434 2.519 255 255 255
0.410444 0.31622 2.204 255 255 255
-0.294284 -0.19201 1.62 255 255 255
0.738634 0.212979 1.978 255 255 255
-0.0381175 0.587392 1.859 255 255 255
0.0252261 0.079417 2.42 255 255 255
-0.330458 0.264638 0.742 255 255 255
-0.657766 -0.530179 2.189 0 0 0
0.647132 -0.292096 1.696 255 255 255
-0.172914 0.610953 1.753 255 255 255
-0.0311766 0.35592 2.228 255 255 255
-0.168862 0.300545 0.813 255 255 255
0.21962 -0.746727 2.392 255 255 255
0.557926 -0.426357 1.629 255 255 255
-0.0524371 0.509067 1.941 255 255 255
-0.366378 0.233398 0.805 255 255 255
0.496226 -0.171175 1.758 255 255 255
0.250737 -0.400167 2.593 255 255 255
-0.27285 0.27225 0.743 255 255 255
-0.387261 -0.261202 1.729 255 255 255
0.695749 0.211687 1.966 255 255 255
-0.749201 -0.373033 1.929 255 255 255
0.367356 -0.766746 2.469 255 255 255
0.771897 0.587239 1.821 255 255 255
0.0393722 0.425116 2.121 255 255 255
-0.317242 0.264496 0.745 255 255 255
-0.196514 0.118984 1.122 255 255 255
-0.755343 -0.390387 1.953 255 255 255
0.385233 0.609612 1.774 255 255 255
-0.0553081 -0.540195 2.499 255 255 255
0.380673 0.625217 1.753 255 255 255
-0.668277 -0.84532 2.212 255 255 255
0.043269 0.387677 2.143 255 255 255
0.463525 -0.857606 2.365 255 255 255
-0.869449 -0.559364 2.22 0 0 0
0.102422 -0.836987 2.383 255 255 255
0.339683 0.655389 1.691 255 255 255
-0.490372 0.104372 1.066 255 255 255
0.133529 0.414218 2.136 255 255 255
-0.834693 -0.461157 2.071 255 255 255
-0.51182 0.110925 1.046 255 255 255
0.720343 0.420924 1.972 255 255 255
-0.922449 -0.824684 2.158 255 255 255
0.406732 0.195223 2.44 255 255 255
0.0853155 0.456002 1.985 255 255 255
-0.00626483 0.0751982 2.411 255 255 255
-0.131295 -0.387289 2.037 255 255 255
-0.159146 0.289389 0.884 255 255 255
-0.300312 -0.694793 2.261 255 255 255
0.106257 0.314903 2.22 255 255 255
-0.24899 0.388022 2.107 255 255 255
-0.422801 0.200893 0.9 255 255 255
0.322921 0.237969 2.244 255 255 255
0.485265 -0.0118103 2.561 255 255 255
0.489635 -0.171453 1.887 255 255 255
-0.386838 0.224448 0.753 255 255 255
0.505325 -0.301735 2.064 255 255 255
-0.175024 0.29099 2.411 255 255 255
-0.591639 -0.103748 1.422 255 255 255
-0.221123 -0.113204 1.587 255 255 255
-0.219656 0.552306 1.739 255 255 255
-0.534012 -0.468883 1.923 255 255 255
0.448696 0.539135 1.87 255 255 255
-1.08168 -0.68554 2.196 0 0 0
0.533094 -0.32892 1.659 255 255 255
-0.88828 -0.360657 1.865 255 255 255
-1.02122 -0.815157 2.189 255 255 255
-0.18806 0.201477 0.966 255 255 255
0.523719 -0.458471 2.044 0 0 0
-0.371748 0.201969 0.873 255 255 255
0.342548 0.000725715 2.684 255 255 255
-0.305752 -0.0123322 1.299 255 255 255
-0.20568 -0.194342 1.842 255 255 255
-0.246612 -0.216591 1.71 255 255 255
0.389158 0.271517 2.312 255 255 255
-0.223419 -0.294078 2.383 255 255 255
-0.134937 0.59396 1.779 255 255 255
-0.164162 0.299307 1.267 255 255 255
-0.590084 0.0152159 1.145 0 0 0
0.105874 0.324567 2.212 255 255 255
0.440075 0.662846 1.696 255 255 255
-0.286517 0.132799 1.044 255 255 255
-0.224641 0.210227 0.935 255 255 255
-0.930797 -0.451161 1.941 255 255 255
0.625956 -0.293987 1.691 255 255 255
0.44411 0.144134 2.449 255 255 255
0.715316 0.0746806 1.899 255 255 255
0.820625 0.0658978 1.748 255 255 255
-0.161168 0.312855 0.821 255 255 255
0.010926 0.491524 1.972 255 255 255
0.779372 0.166302 1.959 255 255 255
0.324157 0.595388 1.837 255 255 255
0.451914 0.100715 2.561 255 255 255
-0.511495 0.135609 1.002 255 255 255
-0.283024 0.0539943 1.178 255 255 255
0.550309 -0.177815 1.739 255 255 255
0.0745646 -0.457025 2.489 255 255 255
-0.171032 -0.84284 2.356 255 255 255
-0.912775 -0.415684 1.923 255 255 255
-0.126567 -0.255898 2.719 255 255 255
0.129671 0.607726 1.794 255 255 255
0.785621 0.214379 1.991 255 255 255
-0.177906 0.28564 0.812 255 255 255
-0.296636 0.268487 0.736 255 255 255
0.490949 -0.737042 2.244 255 255 255
-0.60417 -0.0808808 1.387 255 255 255
0.0253303 0.174651 2.43 255 255 255
0.255244 0.33294 2.196 255 255 255
0.6646 -0.48319 1.624 255 255 255
-0.197543 0.436025 2.107 255 255 255
-0.521461 0.0416266 1.154 255 255 255
-0.359519 -0.0337546 1.31 255 255 255
-0.0876523 -0.844743 2.383 255 255 255
-0.299304 -0.201523 1.633 255 255 255
-0.186198 0.18209 1.025 255 255 255
-0.851381 -0.685807 2.22 255 255 255
-0.364948 0.236859 0.799 255 255 255
0.649738 -0.220435 1.763 255 255 255
-0.761194 -0.296869 1.774 255 255 255
-0.198892 -0.0661999 1.516 255 255 255
-0.215901 -0.0195364 1.359 255 255 255
0.177053 0.584504 1.831 255 255 255
-0.0452917 0.610145 1.784 255 255 255
-0.480335 0.174398 0.947 255 255 255
-0.178019 -0.89691 2.347 255 255 255
0.830484 0.440926 1.769 255 255 255
-0.286154 0.27225 0.743 255 255 255
0.651255 0.192008 1.929 255 255 255
-0.050215 0.199929 2.449 255 255 255
0.436021 -0.852499 2.383 255 255 255
-0.1741 0.507412 1.959 255 255 255
-0.721141 -0.222129 1.668 255 255 255
0.514066 -0.366498 2.128 255 255 255
-0.922343 -0.562263 2.071 255 255 255
-0.23075 0.0365686 1.237 255 255 255
0.212147 -0.355597 2.638 255 255 255
0.743753 0.403647 1.966 255 255 255
0.361187 0.29718 2.278 255 255 255
-0.283626 0.0434663 1.205 255 255 255
0.853436 -0.14063 1.7 255 255 255
0.499355 -0.242903 1.739 255 255 255
-0.319616 0.1891 1.009 255 255 255
0.787275 0.418756 1.947 255 255 255
-0.202476 0.286535 0.765 255 255 255
0.0749573 0.627683 1.744 255 255 255
-0.307936 -0.0452951 1.336 255 255 255
0.081368 0.658877 1.7 255 255 255
-0.437288 -0.575199 2.057 255 255 255
-0.762612 -0.833952 2.173 255 255 255
0.678567 -0.270423 1.734 255 255 255
0.462039 -0.547244 2.338 255 255 255
0.652402 -0.0783395 1.794 255 255 255
-0.851064 -0.446583 1.991 255 255 255
0.809592 0.0638253 1.853 255 255 255
-0.204932 -0.706122 2.44 255 255 255
0.472685 -0.130855 2.244 255 255 255
-0.491131 -0.185048 1.583 255 255 255
-0.0188228 0.619511 1.753 255 255 255
0.336671 -0.29001 2.707 255 255 255
0.347818 -0.429705 2.593 255 255 255
0.545592 -0.13848 1.779 255 255 255
-0.527157 -0.0535066 1.324 255 255 255
-0.259622 0.25775 0.772 255 255 255
0.709019 0.528019 1.941 255 255 255
-0.238509 0.289083 2.136 255 255 255
0.00177897 -0.369303 2.707 255 255 255
0.614727 -0.333418 1.668 255 255 255
-0.317972 -0.160285 1.543 255 255 255
0.813033 -0.189205 1.714 255 255 255
-0.404069 0.200334 0.891 0 0 0
0.0593195 -0.43985 2.53 255 255 255
0.512522 -0.61467 2.136 255 255 255
-0.569821 -0.371943 1.876 255 255 255
-0.229969 0.239985 2.411 255 255 255
0.430221 0.610772 1.769 255 255 255
-0.436766 0.0965065 1.075 255 255 255
-0.0201636 -0.341352 2.695 255 255 255
-0.37977 0.246124 0.771 255 255 255
-0.314309 0.170501 1.046 255 255 255
0.195783 -0.0208377 2.649 255 255 255
-0.992316 -0.739997 2.22 255 255 255
0.341851 0.374652 2.071 255 255 255
-0.701701 -0.390976 1.972 255 255 255
-0.156435 -0.349706 2.626 255 255 255
0.130141 -0.101033 2.719 255 255 255
-0.200508 0.168419 1.013 255 255 255
-0.970173 -0.534615 2.03 255 255 255
-0.855879 -0.303371 1.682 255 255 255
-0.0588714 -0.306618 2.66 255 255 255
-0.0510293 0.487912 2.01 255 255 255
0.539914 -0.568532 1.547 255 255 255
-0.0591198 0.467432 2.064 255 255 255
0.0125716 0.325545 2.269 255 255 255
-0.697376 -0.44184 2.044 255 255 255
0.709133 0.559857 1.899 255 255 255
0.67103 -0.0114609 1.837 255 255 255
-0.189761 -0.486922 2.024 255 255 255
0.330764 -0.0881463 2.731 255 255 255
0.480716 -0.450159 2.181 255 255 255
0.0918651 0.0539712 2.519 255 255 255
-0.843874 -0.281998 1.607 255 255 255
-0.198479 0.144 1.064 255 255 255
-1.05076 -0.576243 2.085 255 255 255
-0.0275498 0.352294 2.228 255 255 255
-0.863434 -0.573481 2.151 255 255 255
0.321941 0.630521 1.744 255 255 255
0.0992715 -0.580862 2.499 255 255 255
-0.233825 0.140938 1.029 255 255 255
-0.485498 -0.193084 1.607 255 255 255
-0.614267 -0.672537 2.212 255 255 255
-0.432661 -0.82433 2.204 255 255 255
-0.300935 0.271865 0.729 255 255 255
0.444503 -0.109998 2.519 255 255 255
0.209675 0.498089 1.911 255 255 255
-0.137559 -0.911092 2.374 255 255 255
0.0831938 0.574113 1.865 255 255 255
0.489452 -0.425621 1.734 255 255 255
0.503519 -0.519936 1.583 255 255 255
-0.551356 0.0672555 1.112 255 255 255
0.15982 0.135107 2.43 255 255 255
0.827055 0.427738 1.774 255 255 255
-0.360154 0.253836 0.764 255 255 255
0.355329 0.0222702 2.649 255 255 255
-0.14199 0.634512 1.724 255 255 255
-0.350906 -0.0898639 1.422 255 255 255
0.424178 -0.700756 2.449 255 255 255
-0.758307 -0.693221 2.244 255 255 255
-0.00688326 -0.0165269 2.649 255 255 255
-0.325004 0.104764 1.07 255 255 255
0.0105919 -0.334062 2.707 255 255 255
-0.377439 -0.247201 1.71 255 255 255
0.116867 0.641015 1.734 255 255 255
-0.275392 -0.135277 1.516 255 255 255
-0.20034 -0.114228 1.719 255 255 255
-0.156186 0.415008 1.108 255 255 255
-0.183428 0.153193 1.381 255 255 255
-0.509846 -0.834521 2.212 255 255 255
-0.451275 0.167925 0.954 255 255 255
-0.194829 -0.406821 1.882 255 255 255
0.53208 -0.459826 1.607 255 255 255
0.325552 0.442294 1.953 255 255 255
0.702347 -0.308656 1.696 255 255 255
-0.208502 0.217978 0.892 255 255 255
0.18828 -0.801418 2.44 255 255 255
-0.737404 -0.679834 2.236 255 255 255
-0.431851 -0.107778 1.445 255 255 255
0.815908 0.460237 1.744 255 255 255
0.331782 0.425764 2.01 255 255 255
-0.555218 -0.295198 1.799 255 255 255
0.261761 0.424436 2.051 255 255 255
-0.467322 0.0938729 1.085 255 255 255
0.0664902 -0.90073 2.347 255 255 255
-0.190811 0.197983 0.972 255 255 255
-0.370784 -0.240929 1.705 255 255 255
-0.70485 -0.222129 1.668 255 255 255
-0.308143 0.00443098 1.257 255 255 255
0.435443 -0.291203 2.638 255 255 255
-0.533492 -0.213322 1.642 255 255 255
-0.385408 0.232416 0.755 255 255 255
-0.883808 -0.63856 2.158 255 255 255
0.503574 0.368193 1.837 255 255 255
-0.343707 0.154034 1.027 255 255 255
-0.275521 -0.704637 2.269 255 255 255
-1.13371 -0.757167 2.228 255 255 255
-0.21292 0.203053 0.937 255 255 255
0.473934 -0.0558084 1.923 255 255 255
0.515321 -0.311353 2.338 255 255 255
-0.38667 -0.265543 1.739 255 255 255
-0.238789 0.135153 1.036 255 255 255
-0.385097 0.022205 1.222 255 255 255
-0.510833 -0.0330589 1.283 255 255 255
-0.399945 -0.116501 1.466 255 255 255
0.49237 -0.583947 1.686 255 255 255
-0.203254 0.619169 1.744 255 255 255
0.758732 0.488006 1.997 255 255 255
0.217696 -0.259174 2.707 255 255 255
0.255283 0.353065 2.166 255 255 255
-0.438944 0.101578 1.055 255 255 255
0.739615 -0.16743 1.779 255 255 255
-0.39878 -0.154458 1.535 255 255 255
-0.320639 0.159193 1.05 255 255 255
-1.173 -0.707483 2.22 255 255 255
-0.0178293 0.144128 2.383 255 255 255
0.203307 0.612498 1.774 255 255 255
0.56045 -0.481139 1.591 255 255 255
0.457621 -0.358369 2.479 255 255 255
0.0329815 -0.674188 2.411 255 255 255
-0.193107 0.022152 1.339 255 255 255
0.468723 -0.807522 2.278 255 255 255
0.627303 -0.508245 1.603 255 255 255
-0.0796233 0.547846 1.911 255 255 255
0.839724 -0.251342 1.646 255 255 255
-0.238872 0.0402664 1.227 255 255 255
-0.201549 0.00930003 1.805 255 255 255
-0.693727 -0.767163 2.236 255 255 255
-0.502585 0.0522984 1.141 255 255 255
0.46542 0.417589 1.805 255 255 255
-0.553544 -0.00564921 1.225 255 255 255
0.31151 0.388133 2.071 255 255 255
0.26846 -0.897827 2.411 255 255 255
-0.159371 -0.44465 2.057 255 255 255
0.489357 0.181126 1.947 255 255 255
0.806945 0.0219473 1.882 255 255 255
-0.226464 -0.266573 1.865 255 255 255
0.484608 -0.773003 2.151 255 255 255
0.79015 0.476926 1.978 255 255 255
-0.689547 -0.319369 1.837 255 255 255
0.809243 0.188214 1.748 255 255 255
-0.167843 0.206054 1.09 255 255 255
0.230362 -0.481112 2.509 255 255 255
-0.15785 0.0763834 2.449 255 255 255
0.622426 -0.0589363 1.826 255 255 255
0.0210184 0.619169 1.744 255 255 255
-0.532777 -0.122182 1.477 255 255 255
-0.401995 0.0122921 1.225 255 255 255
-0.194982 0.177782 1.01 255 255 255
0.551474 -0.53426 1.595 255 255 255
0.533271 -0.314418 1.668 255 255 255
0.300597 -0.74858 2.449 255 255 255
-0.121972 0.243767 2.449 255 255 255
0.769982 -0.139258 1.789 255 255 255
-0.27325 0.0649959 1.169 255 255 255
-0.860699 -0.50499 2.085 255 255 255
0.808407 -0.180126 1.734 255 255 255
-0.209494 0.28946 0.75 255 255 255
-0.515105 -0.246478 1.705 255 255 255
0.459794 -0.405138 2.469 255 255 255
-0.23558 -0.755614 2.312 255 255 255
-0.148715 0.198377 2.43 255 255 255
-0.72933 -0.340322 1.87 255 255 255
0.147494 -0.542083 2.489 255 255 255
0.79174 -0.216645 1.779 255 255 255
0.178623 0.440377 2.017 0 0 0
-0.237616 0.262196 0.774 255 255 255
0.0590749 -0.831338 2.356 255 255 255
-0.15958 0.297963 0.863 255 255 255
0.364809 -0.814228 2.479 255 255 255
0.406796 0.138387 2.489 255 255 255
-0.88598 -0.498417 2.004 255 255 255
0.781441 0.558938 1.865 255 255 255
0.816302 -0.26951 1.595 255 255 255
-0.0886822 0.0673512 2.411 255 255 255
0.82382 0.088777 1.696 255 255 255
-0.759966 -0.211633 1.629 255 255 255
-1.07127 -0.74901 2.204 255 255 255
-0.288217 0.148089 1.044 255 255 255
0.235136 -0.46191 2.561 255 255 255
-0.273518 -0.53916 2.01 255 255 255
-0.10967 -0.800666 2.356 255 255 255
-0.854441 -0.417704 1.947 255 255 255
-0.186514 -0.691612 2.459 255 255 255
-0.700508 -0.0901036 1.39 255 255 255
0.522935 -0.682941 1.842 255 255 255
0.660468 0.313871 1.985 255 255 255
-0.976863 -0.541628 2.044 255 255 255
-0.942827 -0.775973 2.189 255 255 255
0.70692 -0.371218 1.655 255 255 255
0.81263 0.219147 1.947 255 255 255
-0.410009 0.138258 1.034 255 255 255
0.299594 0.603025 1.815 255 255 255
0.0972853 -0.672858 2.449 255 255 255
0.5878 -0.211227 1.758 255 255 255
0.70776 0.61133 1.779 255 255 255
-0.0981365 0.477892 2.037 255 255 255
0.464766 0.169019 1.991 255 255 255
-0.270552 -0.41163 1.876 255 255 255
0.245785 -0.847675 2.459 255 255 255
0.833707 -0.257323 1.65 255 255 255
0.668237 -0.489909 1.62 255 255 255
0.214448 0.334215 2.181 255 255 255
0.827775 0.0323307 1.633 255 255 255
-0.565162 -0.159869 1.539 255 255 255
0.0911357 0.0616761 2.499 255 255 255
-0.190517 -0.0567777 1.528 255 255 255
0.657149 -0.0727027 1.799 255 255 255
-0.439836 -0.831503 2.204 255 255 255
0.806017 0.0373595 1.887 255 255 255
-0.216766 -0.132951 1.673 255 255 255
-0.351147 -0.105207 1.442 255 255 255
0.528479 -0.526447 2.024 255 255 255
0.611346 -0.430844 1.616 255 255 255
-0.293975 -0.0616915 1.362 255 255 255
0.357387 -0.855387 2.402 255 255 255
0.0325742 0.405741 2.128 255 255 255
-0.39048 0.215434 0.837 255 255 255
0.312192 -0.631971 2.356 255 255 255
0.639719 -0.29949 1.691 255 255 255
0.807256 0.384092 1.696 255 255 255
-0.155881 0.326725 0.843 255 255 255
-0.26737 0.0720463 1.16 255 255 255
-0.717673 -0.794187 2.22 255 255 255
0.498851 0.228379 1.972 255 255 255
-0.0288193 -0.344327 2.684 255 255 255
-0.205113 0.0377806 1.278 255 255 255
0.438506 -0.805389 2.44 255 255 255
-0.0665093 0.458616 2.085 255 255 255
0.799656 0.167428 1.865 255 255 255
-0.19527 0.0113831 1.354 255 255 255
-0.39267 0.0400243 1.162 255 255 255
-0.142814 0.626906 1.734 255 255 255
