ply
format ascii 1.0
comment Created by Open3D
element vertex 1294
property double x
property double y
property double z
property uchar red
property uchar green
property uchar blue
end_header
-0.515693 -0.230611 1.339 255 255 255
-0.243167 -0.0803314 1.18 255 255 255
0.343824 -0.293159 0.954 255 255 255
-0.348156 -0.16114 1.225 255 255 255
-0.741508 -0.194238 1.595 255 255 255
0.0577051 0.116015 1.094 255 255 255
-0.780602 -0.128966 1.559 255 255 255
0.390345 -0.280639 0.928 255 255 255
-0.30955 0.234142 0.639 255 255 255
0.257991 0.365695 1.09 255 255 255
0.239494 -0.0456471 0.612 255 255 255
-0.16399 -0.0467487 1.112 255 255 255
-1.25127 -0.90213 2.499 255 255 255
0.266074 0.103252 0.745 255 255 255
0.0726083 0.230573 1.132 255 255 255
0.26718 -0.0462619 0.607 255 255 255
0.268096 -0.0290214 0.856 255 255 255
-0.457769 0.195887 1.668 255 255 255
0.21586 -0.206047 0.912 255 255 255
0.368683 -0.169308 0.847 255 255 255
-0.634077 -0.153351 1.524 255 255 255
-0.13907 -0.158908 1.087 255 255 255
-0.42261 -0.440557 1.348 255 255 255
0.288824 -0.289409 0.957 255 255 255
0.187654 -0.0858326 0.912 255 255 255
0.25454 0.168564 0.862 255 255 255
0.25518 -0.0213896 0.602 255 255 255
0.210952 -0.175487 0.923 255 255 255
0.462106 -0.30313 0.961 255 255 255
0.249462 0.286394 0.999 255 255 255
-0.0426597 0.260953 0.679 255 255 255
-0.463299 -0.287 1.308 255 255 255
0.223261 0.47651 1.289 255 255 255
0.258323 0.177727 0.808 255 255 255
0.0524304 -0.14693 0.994 255 255 255
-0.043281 -0.00674428 1.081 255 255 255
0.169528 0.324632 1.152 255 255 255
-0.527771 -0.259518 1.342 255 255 255
-0.315418 0.21615 0.632 255 255 255
0.0773402 -0.246967 1.07 0 0 0
-0.480269 0.0624133 1.524 255 255 255
0.14704 -0.101909 0.937 255 255 255
0.239758 0.15663 0.924 255 255 255
0.185074 0.294473 1.089 255 255 255
-0.656753 -0.0675346 1.491 255 255 255
-0.364987 0.380207 1.691 255 255 255
-1.09258 -0.947977 2.626 255 255 255
0.134818 0.235357 1.07 255 255 255
-0.242041 0.22419 0.665 255 255 255
-0.46066 0.125375 1.567 255 255 255
0.232435 0.122744 1.017 255 255 255
-0.143527 -0.200878 1.094 255 255 255
-0.0399088 0.000293368 1.085 255 255 255
0.307783 0.265671 0.854 255 255 255
-0.827662 0.311646 1.893 255 255 255
-0.140989 -0.0606748 1.102 255 255 255
-0.38782 0.369719 1.719 255 255 255
0.126245 0.523965 1.375 255 255 255
-0.1033 -0.00323197 1.083 255 255 255
0.244977 0.139379 0.994 255 255 255
-0.50111 0.307025 1.794 255 255 255
0.269984 0.255609 0.951 255 255 255
-0.230695 -0.131371 1.156 255 255 255
-0.48989 -0.605987 1.579 255 255 255
-0.0503173 -0.453719 1.31 255 255 255
0.295192 -0.149148 0.866 255 255 255
0.335292 -0.211926 0.875 255 255 255
-0.121711 -0.0174432 1.09 255 255 255
-0.00947951 0.258071 1.267 255 255 255
0.416885 -0.2223 0.888 255 255 255
0.0822936 0.355284 1.283 255 255 255
0.125368 0.181619 0.995 255 255 255
-0.131764 -0.367153 1.234 255 255 255
-0.256285 -0.493894 1.362 255 255 255
-0.19674 0.230161 1.412 255 255 255
-0.698242 0.302404 1.893 255 255 255
-0.280137 -0.25743 1.182 255 255 255
0.0731905 0.33515 1.27 255 255 255
0.241362 0.230196 0.942 255 255 255
-0.508911 -0.260936 1.327 255 255 255
-0.78661 -0.0788278 1.571 255 255 255
0.184887 -0.0576974 0.913 255 255 255
0.0419726 -0.0245016 1.015 255 255 255
0.235509 -0.0376797 0.612 255 255 255
-0.172729 -0.149626 1.11 255 255 255
-0.159348 -0.300768 1.171 255 255 255
-0.0651568 0.421657 1.505 255 255 255
0.184004 -0.0996247 0.916 255 255 255
-0.46819 -0.0876934 1.463 255 255 255
0.237912 0.000240373 0.889 255 255 255
-0.119166 -0.179472 1.083 255 255 255
-0.501301 -0.616265 1.599 255 255 255
-0.579922 -0.202395 1.416 255 255 255
0.186896 0.189531 0.938 255 255 255
0.17524 -0.186566 0.941 255 255 255
-0.28684 0.0935446 0.617 255 255 255
0.241633 0.249111 0.974 255 255 255
0.104673 -0.0727082 0.954 255 255 255
-0.14603 -0.438055 1.289 255 255 255
0.227099 0.187495 0.892 255 255 255
0.273228 -0.421033 1.116 255 255 255
0.0592685 0.0960793 1.09 255 255 255
0.0939901 -0.0376995 0.972 255 255 255
0.197795 -0.254932 0.939 255 255 255
-0.251321 -0.526669 1.396 255 255 255
-0.302593 0.174734 0.631 255 255 255
0.349612 -0.434739 1.128 255 255 255
-0.30503 -0.0552597 1.22 255 255 255
-0.0351647 0.462822 1.48 255 255 255
-0.628674 -0.284245 1.422 255 255 255
0.143438 0.0580459 1.044 255 255 255
-0.55355 -0.302168 1.357 255 255 255
0.143747 0.052442 1.034 255 255 255
-0.131886 0.328835 1.484 255 255 255
-0.24443 -0.430884 1.299 255 255 255
0.335436 -0.129717 0.868 255 255 255
0.0163061 -0.366295 1.192 255 255 255
-0.250234 0.164424 0.647 255 255 255
-0.109333 -0.14813 1.073 255 255 255
-0.0721691 0.439198 1.498 255 255 255
0.12271 -0.412494 1.208 255 255 255
-0.327683 -0.551946 1.463 255 255 255
0.0162097 0.346187 1.345 255 255 255
-0.259198 -0.0292088 1.21 255 255 255
-0.719106 0.205837 1.941 255 255 255
-0.152989 -0.160516 1.098 255 255 255
0.205923 -0.0437431 0.901 255 255 255
0.163142 0.131249 1.073 255 255 255
0.396685 -0.332884 0.989 255 255 255
-0.294441 0.127062 0.614 255 255 255
0.316931 -0.424189 1.11 255 255 255
0.164891 0.000257407 0.952 255 255 255
0.293566 -0.125497 0.878 255 255 255
0.254687 -0.159432 0.892 255 255 255
-0.321873 0.454962 1.587 255 255 255
-0.106591 0.45748 1.502 255 255 255
0.156142 -0.300901 0.995 255 255 255
-0.511652 -0.444906 1.375 255 255 255
0.699303 0.356225 1.384 255 255 255
-0.451615 -0.231127 1.305 255 255 255
0.189506 0.172608 0.921 255 255 255
0.139558 0.2908 1.137 255 255 255
-0.388129 0.554724 1.494 255 255 255
-0.322459 -0.372259 1.265 255 255 255
-0.331822 0.214782 0.628 255 255 255
-0.780493 -0.274522 1.673 255 255 255
-0.0748058 0.0795179 1.132 255 255 255
0.337474 -0.267048 0.928 255 255 255
0.139433 0.439722 1.33 255 255 255
-0.268323 0.21596 0.65 255 255 255
0.103531 -0.313378 1.089 0 0 0
-0.63789 -0.10198 1.498 255 255 255
-0.295296 0.357134 1.686 255 255 255
0.219119 -0.455546 1.187 255 255 255
0.131991 0.184415 0.984 255 255 255
-0.260736 0.0219506 1.208 255 255 255
-0.266123 0.224016 0.655 255 255 255
-0.507358 -0.0405434 1.48 255 255 255
-0.0393846 0.318108 1.375 255 255 255
0.328453 -0.337123 0.992 255 255 255
-0.335549 -0.401942 1.308 255 255 255
0.189462 -0.298871 0.983 255 255 255
-0.309192 0.201358 0.634 255 255 255
0.304179 -0.1536 0.844 255 255 255
-0.586682 -0.0849158 1.498 255 255 255
-0.631672 0.116994 1.705 255 255 255
-0.272039 0.147708 0.634 255 255 255
-0.445725 -0.336635 1.319 255 255 255
0.0617373 0.529647 1.384 255 255 255
-0.638582 0.0719663 1.466 255 255 255
-1.03268 0.0586812 1.985 255 255 255
-0.334718 -0.560513 1.473 255 255 255
0.342242 0.189172 0.769 255 255 255
-0.245089 0.454084 1.575 255 255 255
0.224665 0.141036 0.983 255 255 255
0.0658951 0.087161 1.112 255 255 255
0.235866 -0.155075 0.909 255 255 255
0.0505892 0.480057 1.452 255 255 255
-0.452591 -0.493801 1.393 255 255 255
-0.00760441 0.287842 1.299 255 255 255
-0.0261359 0.0110378 1.1 255 255 255
0.248094 0.0614725 0.753 255 255 255
0.176934 -0.0565195 0.918 255 255 255
-0.0591165 -0.466505 1.316 255 255 255
0.299826 0.0882782 0.694 255 255 255
-0.0725064 0.38492 1.505 255 255 255
0.232412 -0.0470241 0.617 255 255 255
0.187777 0.138959 0.991 255 255 255
-0.384625 -0.0820589 1.369 255 255 255
0.439993 0.0426103 0.868 255 255 255
0.166258 0.0254921 0.969 255 255 255
0.201678 0.261504 1.029 255 255 255
0.349958 0.227411 0.807 255 255 255
0.563144 0.494287 1.27 255 255 255
-0.200638 -0.228723 1.135 0 0 0
-0.18359 -0.340876 1.205 255 255 255
0.0235908 0.385744 1.393 255 255 255
0.171329 -0.0895798 0.92 255 255 255
-0.284554 -0.536159 1.403 255 255 255
-0.445761 -0.0846711 1.452 255 255 255
-0.29848 0.0865273 0.61 255 255 255
-0.10116 0.462337 1.494 255 255 255
-0.088776 -0.12184 1.057 255 255 255
0.148174 0.321826 1.176 255 255 255
-0.0210989 -0.148754 1.029 255 255 255
-0.316395 0.139595 0.612 255 255 255
-0.353122 0.077099 1.31 255 255 255
0.27496 0.0411275 0.68 255 255 255
0.43757 -0.122372 0.866 255 255 255
-0.302327 0.146937 0.622 255 255 255
-0.0227297 -0.0866282 1.027 255 255 255
-0.264741 0.199785 0.649 255 255 255
-0.593851 -0.281154 1.384 255 255 255
-0.00567162 0.32576 1.342 255 255 255
-0.0704868 -0.116608 1.041 255 255 255
0.213293 -0.0813197 0.895 255 255 255
0.1701 -0.147811 0.938 255 255 255
0.334663 -0.198472 0.866 255 255 255
-0.754618 -0.411627 1.563 255 255 255
0.235311 0.397415 1.162 255 255 255
-0.141941 0.28608 1.439 255 255 255
-0.033918 -0.477943 1.336 255 255 255
0.139155 0.167066 0.967 255 255 255
-0.337356 -0.325592 1.244 255 255 255
-0.758274 -0.231733 1.603 255 255 255
0.0469541 -0.103501 0.981 255 255 255
0.202389 -0.248482 0.932 255 255 255
0.00394017 -0.112799 1.007 255 255 255
0.253221 0.186355 0.817 255 255 255
-0.0879561 -0.483732 1.299 255 255 255
0.307291 -0.153782 0.845 255 255 255
-0.323105 -0.453535 1.354 255 255 255
-0.443551 0.259323 1.729 255 255 255
0.133859 -0.428504 1.22 255 255 255
0.254771 0.191508 0.822 255 255 255
-0.512226 -0.259362 1.33 255 255 255
0.130934 -0.263484 1.013 255 255 255
-0.303241 -0.146744 1.205 255 255 255
0.181518 0.0906717 1.048 255 255 255
-0.258622 0.136359 0.634 255 255 255
0.00270084 -0.357452 1.182 255 255 255
-0.41472 -0.166686 1.316 255 255 255
-0.00877621 -0.343277 1.173 255 255 255
-0.713186 -0.484081 1.567 255 255 255
-0.602501 0.0893312 1.477 255 255 255
0.122791 -0.11569 0.95 255 255 255
0.280036 -0.254661 0.938 255 255 255
0.231731 -0.0686561 0.882 255 255 255
-0.0418951 0.0781561 1.139 255 255 255
0.286291 0.0399032 0.678 255 255 255
0.263999 -0.0243285 0.602 255 255 255
-0.809626 -0.168306 1.571 255 255 255
-0.769303 -0.183178 1.567 255 255 255
-0.0796421 -0.0817335 1.05 255 255 255
-0.17843 0.341311 1.575 255 255 255
0.291964 0.0983631 0.942 255 255 255
0.342648 -0.150853 0.844 255 255 255
0.66516 0.428191 1.308 255 255 255
0.242878 -0.19008 0.886 255 255 255
-0.397187 0.466208 1.599 255 255 255
-0.29647 0.0937824 0.612 255 255 255
-0.105313 0.175803 1.185 255 255 255
-0.221559 -0.382552 1.265 255 255 255
-0.509932 0.238541 1.784 255 255 255
0.267284 -0.0185426 0.605 0 0 0
0.321373 0.192672 0.773 255 255 255
-0.312431 0.144048 0.614 255 255 255
0.208666 0.160708 0.913 255 255 255
0.172813 0.109782 1.068 255 255 255
0.276133 0.00718801 0.855 255 255 255
-0.0783456 -0.375079 1.247 255 255 255
-0.211144 -0.127167 1.152 255 255 255
-0.400288 -0.157948 1.297 255 255 255
0.327707 -0.104649 0.848 255 255 255
0.143985 -0.135359 0.947 255 255 255
-1.19025 -0.849263 2.499 255 255 255
0.167108 -0.247858 0.947 0 0 0
-0.136216 0.406916 1.591 255 255 255
-0.229019 0.258397 0.681 255 255 255
-0.25746 0.168902 0.644 255 255 255
-0.161888 -0.180333 1.11 255 255 255
-0.421989 0.0693154 1.412 255 255 255
-1.17303 -0.978637 2.55 255 255 255
0.413994 -0.223745 0.888 0 0 0
-0.38041 0.037824 1.354 255 255 255
-0.788855 -0.274012 1.591 255 255 255
-0.611096 0.19952 1.853 255 255 255
0.0261662 0.183728 1.116 255 255 255
-0.26172 0.203892 0.652 255 255 255
0.214854 0.11998 1.036 255 255 255
0.322632 0.17814 0.77 255 255 255
0.125855 0.107259 1.114 255 255 255
0.229973 0.154121 0.927 255 255 255
-0.0445824 -0.0327943 1.07 255 255 255
0.260713 0.0192155 0.65 255 255 255
-0.177932 -0.0817145 1.12 255 255 255
-0.271347 -0.241282 1.169 255 255 255
-0.839164 -0.0856506 1.603 255 255 255
0.489119 -0.389295 1.064 255 255 255
-0.141228 -0.0972636 1.09 255 255 255
0.0756204 -0.444315 1.242 255 255 255
0.398503 -0.119122 0.843 255 255 255
0.144126 -0.251944 1.013 255 255 255
0.404531 -0.148633 0.847 0 0 0
-0.289757 -0.176643 1.182 255 255 255
0.0104761 -0.122388 1.005 255 255 255
-0.0302464 -0.432618 1.273 255 255 255
0.298367 -0.162416 0.847 255 255 255
0.102648 0.131296 1.118 255 255 255
-0.155058 -0.130377 1.1 255 255 255
-0.0579131 -0.291043 1.126 255 255 255
0.154432 -0.254925 0.974 255 255 255
-0.124455 -0.0843022 1.083 255 255 255
-0.225288 -0.0189954 1.187 255 255 255
-0.586682 -0.0751649 1.498 255 255 255
0.164731 -0.0524347 0.925 255 255 255
0.211073 -0.132563 0.917 255 255 255
-0.306988 0.213011 0.638 255 255 255
0.0121 -0.120633 1.004 255 255 255
0.02645 0.324388 1.31 255 255 255
0.273234 0.15139 0.794 255 255 255
-0.861776 -0.405816 1.71 255 255 255
0.180626 -0.0875082 0.914 255 255 255
0.388402 -0.00764234 0.805 255 255 255
-0.132978 0.0950044 1.141 255 255 255
-1.0919 -0.93156 2.604 255 255 255
0.151131 0.144232 0.994 255 255 255
-0.517153 0.0924787 1.616 255 255 255
-0.124437 0.24203 1.375 255 255 255
0.248638 0.175374 0.861 255 255 255
0.038813 0.0655636 1.114 255 255 255
-0.808608 -0.320767 1.579 255 255 255
-0.119465 -0.300158 1.154 255 255 255
0.277974 -0.0632621 0.609 255 255 255
-0.558635 -0.564036 1.528 255 255 255
-0.111496 -0.364553 1.232 255 255 255
0.172578 -0.279844 0.978 255 255 255
-0.203169 -0.262077 1.16 255 255 255
0.283869 0.297803 0.983 255 255 255
-0.252586 0.261856 0.67 255 255 255
0.106095 0.178134 1.012 255 255 255
-0.0759713 0.0989 1.122 255 255 255
0.253548 0.00309499 0.878 255 255 255
0.347032 -0.143288 0.848 255 255 255
-0.896132 -0.024381 1.696 255 255 255
0.259174 0.165486 0.819 255 255 255
0.637378 0.405093 1.33 255 255 255
0.279273 0.0977553 0.951 255 255 255
-0.236998 0.196727 0.66 255 255 255
-0.629513 -0.0575577 1.484 255 255 255
0.285471 0.189275 0.785 255 255 255
-0.259561 0.366893 1.668 255 255 255
0.263819 0.000167639 0.62 255 255 255
-0.376583 -0.324852 1.281 0 0 0
0.065148 0.186602 1.07 255 255 255
0.24734 -0.0302064 0.602 255 255 255
0.210221 0.320718 1.1 255 255 255
-0.373595 0.533623 1.524 255 255 255
0.397214 -0.184073 0.858 255 255 255
0.28916 -0.143292 0.882 255 255 255
-0.424567 0.223986 1.655 255 255 255
0.304633 0.0523468 0.682 255 255 255
0.0231993 0.202249 1.149 255 255 255
0.145082 -0.401692 1.182 255 255 255
-0.476494 -0.201378 1.333 255 255 255
-0.469276 0.31112 1.784 255 255 255
0.147668 -0.122251 0.941 255 255 255
0.183509 -0.130144 0.921 255 255 255
-0.707255 0.364986 1.821 255 255 255
-0.351793 0.0623188 1.313 255 255 255
-0.62665 0.114908 1.466 255 255 255
0.180314 -0.0207112 0.92 255 255 255
0.159192 -0.190896 0.955 255 255 255
-0.383115 0.558256 1.484 255 255 255
0.0722083 -0.0241154 0.999 255 255 255
-0.251405 -0.210994 1.139 255 255 255
0.250648 0.242444 0.954 255 255 255
-0.587548 -0.0239083 1.494 255 255 255
-0.310404 0.193476 1.396 255 255 255
0.083543 0.133486 1.106 255 255 255
-1.19025 -0.88993 2.499 255 255 255
0.135548 -0.456771 1.254 255 255 255
-0.375104 0.444867 1.616 255 255 255
0.211524 0.350288 1.126 255 255 255
-0.526638 -0.150308 1.403 255 255 255
0.137394 -0.258283 1.012 255 255 255
0.246907 -0.414095 1.112 255 255 255
-0.112826 -0.071301 1.073 255 255 255
-0.463784 0.216243 1.7 255 255 255
0.168024 0.525812 1.351 255 255 255
0.481554 -0.411224 1.09 255 255 255
-0.0339423 -0.346789 1.185 255 255 255
0.278592 -0.452443 1.169 255 255 255
-0.464518 -0.186612 1.336 255 255 255
-0.0952055 -0.245804 1.112 255 255 255
0.319581 -0.121661 0.871 255 255 255
-0.432628 -0.0322375 1.432 255 255 255
-0.15527 0.14109 1.169 255 255 255
0.253887 -0.369291 1.037 255 255 255
-0.60952 0.220314 1.876 255 255 255
0.284484 0.239546 0.855 255 255 255
0.171382 0.489229 1.378 255 255 255
0.33452 -0.189139 0.862 255 255 255
-0.346959 0.00250308 1.319 255 255 255
-0.596014 0.296014 1.853 255 255 255
0.384801 -0.223714 0.871 255 255 255
-0.0456032 0.170832 1.139 255 255 255
-0.265629 -0.460435 1.342 255 255 255
0.19543 -0.156467 0.935 255 255 255
0.186041 -0.31349 0.999 255 255 255
0.338741 -0.21986 0.884 255 255 255
0.110617 0.150762 1.039 255 255 255
-1.06342 -1.02951 2.66 255 255 255
-0.00139965 0.4087 1.442 255 255 255
-0.839988 0.327048 1.893 255 255 255
0.098539 0.309123 1.201 255 255 255
-0.307127 0.506317 1.539 255 255 255
-0.290102 0.209123 0.642 255 255 255
-0.182622 0.388677 1.612 255 255 255
0.187531 0.231332 1.007 255 255 255
0.0555665 0.0604367 1.087 255 255 255
0.255902 0.0606574 0.928 255 255 255
0.00581762 -0.016803 1.05 255 255 255
0.361244 0.325759 0.897 255 255 255
0.0869386 0.165979 1.039 255 255 255
0.267133 0.327347 1.036 255 255 255
0.67084 0.398717 1.345 255 255 255
0.485454 0.156051 0.967 255 255 255
-0.488666 -0.240045 1.319 255 255 255
-0.33143 -0.331811 1.237 255 255 255
0.19728 -0.403761 1.139 255 255 255
-0.639694 0.203827 1.893 255 255 255
0.109104 0.335146 1.232 255 255 255
0.25424 0.106167 0.986 255 255 255
-0.118386 0.443021 1.528 255 255 255
0.454811 -0.257709 0.927 255 255 255
0.267003 0.320112 1.029 255 255 255
0.286665 -0.28725 0.955 255 255 255
0.111992 0.303203 1.178 255 255 255
0.245821 -0.22113 0.913 255 255 255
-0.564324 0.265142 1.848 255 255 255
-0.853425 -0.400251 1.71 255 255 255
-0.626263 0.141285 1.633 255 255 255
-0.239206 0.439466 1.587 255 255 255
0.487029 0.162345 0.967 255 255 255
0.314762 -0.346447 1.005 255 255 255
-0.70664 -0.101004 1.52 255 255 255
-0.387327 -0.34576 1.289 255 255 255
-0.0727353 0.255753 1.33 255 255 255
-0.577634 0.357443 1.769 255 255 255
-0.193573 0.484219 1.494 255 255 255
-0.124341 0.106703 1.147 255 255 255
-0.30553 -0.325799 1.222 255 255 255
0.293156 0.113458 0.725 255 255 255
0.110652 -0.100442 0.952 255 255 255
-0.0815838 -0.0733991 1.053 255 255 255
-0.199969 0.460799 1.563 255 255 255
-0.317475 0.213065 0.632 255 255 255
0.242895 -0.245016 0.942 255 255 255
0.0713736 0.153664 1.059 255 255 255
-0.00128803 -0.491999 1.327 255 255 255
-0.00606703 0.252706 0.666 255 255 255
-0.289591 0.498803 1.539 255 255 255
0.0698533 -0.0145481 1.012 255 255 255
-0.319599 -0.377864 1.27 255 255 255
-0.549607 -0.112568 1.477 255 255 255
0.159052 -0.0857358 0.927 255 255 255
0.397407 0.000219012 0.81 255 255 255
-0.351533 0.521536 1.547 255 255 255
-0.939447 -0.424565 1.789 255 255 255
-0.252305 -0.0522263 1.196 255 255 255
0.271331 0.176383 0.796 255 255 255
0.284193 0.176501 0.785 255 255 255
-0.182984 0.48437 1.487 255 255 255
0.164108 -0.0254766 0.93 255 255 255
-0.632749 -0.127285 1.509 255 255 255
-0.939429 0.20137 1.959 255 255 255
-0.0927227 -0.00146957 1.083 255 255 255
-0.108783 0.269757 0.714 255 255 255
0.359042 0.292289 0.867 255 255 255
0.264934 0.32335 1.034 255 255 255
-1.14174 0.135459 2.181 255 255 255
0.653233 0.439365 1.297 255 255 255
0.152605 -0.34229 1.037 255 255 255
0.485102 -0.418074 1.094 255 255 255
-0.286402 0.523459 1.509 255 255 255
-0.384913 -0.131072 1.324 255 255 255
0.346539 0.148644 0.773 255 255 255
0.105216 0.106582 1.126 255 255 255
-0.234788 -0.397814 1.281 0 0 0
-0.283535 -0.0292813 1.213 255 255 255
-0.0121119 0.112278 1.128 255 255 255
0.0307852 0.329404 1.313 255 255 255
0.23518 -0.0562424 0.619 255 255 255
0.27914 -0.250803 0.935 255 255 255
0.233213 0.431553 1.21 255 255 255
0.235546 0.175685 0.891 255 255 255
0.234826 0.0978122 0.999 255 255 255
0.0311613 -0.349118 1.167 255 255 255
0.356885 -0.432426 1.122 255 255 255
-0.762522 0.285291 1.923 255 255 255
0.26036 0.258336 0.967 255 255 255
0.177523 -0.193511 0.945 0 0 0
0.162259 -0.217289 0.983 255 255 255
0.0778255 0.187065 1.053 255 255 255
0.674884 0.374944 1.362 255 255 255
-0.132618 0.414125 1.579 255 255 255
0.236841 0.482643 1.283 255 255 255
0.43134 -0.290364 0.935 255 255 255
-0.61439 -0.286682 1.4 255 255 255
0.123997 -0.282036 0.997 255 255 255
0.12387 -0.474944 1.281 255 255 255
0.0725041 -0.0492234 0.981 255 255 255
-0.731879 -0.183394 1.591 255 255 255
0.137963 -0.372836 1.124 255 255 255
0.280049 0.194274 0.795 255 255 255
-0.460509 -0.00429437 1.439 255 255 255
0.186008 -0.224 0.957 255 255 255
-0.0502968 -0.164514 1.044 255 255 255
0.419436 0.110822 0.906 255 255 255
0.0152615 -0.106812 0.997 255 255 255
-1.27669 -0.938404 2.509 255 255 255
0.0819654 -0.0159869 0.999 255 255 255
0.0271041 0.109422 1.156 255 255 255
0.0786195 0.24312 1.139 255 255 255
-0.866325 -0.367525 1.753 255 255 255
-0.0148606 -0.2071 1.062 255 255 255
0.262542 -0.0018413 0.617 255 255 255
-0.00610692 0.40955 1.445 255 255 255
-0.252503 0.215265 1.39 255 255 255
-0.457552 -0.460145 1.354 255 255 255
0.0950306 0.00854995 1.017 255 255 255
0.106965 -0.299591 1.053 255 255 255
0.346897 0.178372 0.771 255 255 255
0.279293 0.0062514 0.623 0 0 0
-0.118816 0.464813 1.502 255 255 255
0.324008 -0.22205 0.887 255 255 255
-0.231823 -0.350519 1.232 255 255 255
0.160935 -0.500822 1.294 255 255 255
-0.421029 -0.220967 1.283 255 255 255
-0.025997 -0.0980398 1.024 255 255 255
0.0424688 0.000277686 1.027 255 255 255
-0.245242 0.139457 1.239 255 255 255
-0.237589 -0.206559 1.135 255 255 255
-0.485844 0.500123 1.591 255 255 255
-0.366307 -0.301073 1.26 255 255 255
0.278755 0.189099 0.795 255 255 255
0.198285 -0.182282 0.927 255 255 255
-0.477875 -0.618867 1.599 255 255 255
0.295818 -0.0256025 0.609 255 255 255
0.259421 -0.278602 0.952 255 255 255
0.235236 -0.0627009 0.879 255 255 255
-0.198017 -0.02031 1.152 255 255 255
0.0429731 0.200388 1.128 255 255 255
0.457896 -0.388733 1.072 255 255 255
-0.131264 -0.154512 1.081 255 255 255
0.25853 0.275688 0.984 255 255 255
0.269178 0.193746 0.809 255 255 255
0.145631 -0.225346 1.012 255 255 255
-0.0923917 -0.127241 1.059 255 255 255
0.327273 0.251584 0.826 255 255 255
-0.264295 0.501358 1.509 255 255 255
-1.25031 -0.89447 2.489 255 255 255
0.488036 0.145335 0.969 255 255 255
0.0666558 -0.151019 0.989 255 255 255
0.121277 -0.316206 1.029 255 255 255
-0.309503 -0.398561 1.297 255 255 255
-0.308956 0.447214 1.587 255 255 255
-0.860659 -0.0160062 1.686 255 255 255
-1.28381 -0.922464 2.499 255 255 255
-0.306096 0.195168 0.634 255 255 255
0.173892 0.161214 0.942 255 255 255
-0.656274 0.173963 1.87 255 255 255
0.253429 0.465662 1.222 255 255 255
-0.26212 -0.375484 1.262 255 255 255
0.295273 -0.153309 0.85 255 255 255
-0.293027 0.190908 0.637 255 255 255
0.278016 0.252773 0.897 255 255 255
-0.00119291 -0.409665 1.229 255 255 255
-0.473158 -0.414573 1.342 255 255 255
0.428126 -0.402275 1.085 255 255 255
-0.357606 -0.287128 1.244 255 255 255
-0.790237 -0.12421 1.563 255 255 255
-0.542625 -0.433418 1.403 255 255 255
0.289739 0.100428 0.708 255 255 255
0.294204 -0.0509576 0.616 255 255 255
0.254062 0.203804 0.851 255 255 255
-1.17517 -0.85606 2.519 255 255 255
-0.041748 0.0981988 1.135 255 255 255
0.330565 -0.245308 0.909 255 255 255
0.345775 -0.228851 0.891 255 255 255
-0.235202 0.183512 0.655 255 255 255
0.30889 0.172454 0.767 255 255 255
0.127663 -0.365632 1.13 255 255 255
-0.119056 0.275925 0.706 255 255 255
0.0895102 -0.347023 1.16 255 255 255
-0.68479 0.122648 1.473 255 255 255
0.177769 0.381694 1.208 255 255 255
-0.395022 -0.208804 1.26 255 255 255
-0.126945 -0.510823 1.354 255 255 255
-0.839164 -0.0882592 1.603 255 255 255
0.169192 0.138722 1.025 255 255 255
0.12247 -0.0123913 0.972 255 255 255
0.222597 -0.0223489 0.629 255 255 255
-0.652207 -0.481929 1.52 255 255 255
0.0603206 -0.356847 1.18 255 255 255
0.23181 -0.448264 1.173 255 255 255
0.0364017 0.0502358 1.096 255 255 255
0.00239009 -0.195469 1.046 255 255 255
0.23516 -0.146682 0.912 255 255 255
-1.16697 -0.876556 2.519 255 255 255
-0.0634026 -0.124477 1.036 255 255 255
-0.865038 0.044723 1.7 255 255 255
0.318784 0.404691 1.062 255 255 255
-0.706637 0.294092 1.899 255 255 255
-0.53625 0.00787282 1.528 255 255 255
-0.224379 -0.193135 1.143 255 255 255
-0.0371623 0.18042 1.165 255 255 255
-0.81885 -0.251971 1.599 255 255 255
-0.646801 0.0837229 1.463 255 255 255
-0.44957 -0.348685 1.324 255 255 255
0.0123938 0.390175 1.409 255 255 255
-0.160095 -0.265201 1.149 255 255 255
0.447303 -0.0338985 0.874 255 255 255
-0.167912 -0.117534 1.114 255 255 255
-0.0910254 0.418155 1.528 255 255 255
0.0232589 -0.0965904 0.992 255 255 255
-0.0706025 0.229345 1.291 255 255 255
-0.176109 -0.180135 1.12 255 255 255
-0.523265 -0.0554028 1.491 255 255 255
-0.618382 0.153983 1.498 255 255 255
-0.419257 0.343049 1.769 255 255 255
0.120328 -0.133394 0.955 255 255 255
0.380999 0.356287 0.931 255 255 255
-0.22394 -0.116724 1.16 255 255 255
-0.567332 0.238077 1.848 255 255 255
0.27435 0.0469348 0.684 255 255 255
0.318189 -0.225509 0.895 255 255 255
-0.510383 0.480417 1.603 255 255 255
-0.349525 -0.528695 1.445 255 255 255
0.278316 0.147885 0.986 255 255 255
0.15036 -0.444214 1.225 255 255 255
0.209922 -0.21792 0.912 0 0 0
0.266079 -0.037292 0.854 255 255 255
-0.221797 0.00999596 1.189 255 255 255
0.283739 -0.149202 0.883 255 255 255
-0.552681 -0.485633 1.429 255 255 255
0.116851 -0.114385 0.952 255 255 255
0.222838 -0.272803 0.948 255 255 255
-0.0987838 -0.447822 1.275 255 255 255
-0.474469 -0.608557 1.579 255 255 255
-0.322003 0.482278 1.575 255 255 255
-0.0311353 -0.0032439 1.087 255 255 255
-0.580914 -0.0240364 1.502 255 255 255
0.156883 0.0630823 1.043 255 255 255
-0.314318 0.403927 1.642 255 255 255
-0.200542 -0.131984 1.145 255 255 255
0.147614 -0.0527748 0.931 255 255 255
0.135845 -0.0458307 0.944 255 255 255
-0.123802 -0.351614 1.215 255 255 255
-0.310167 0.209238 0.636 255 255 255
-0.432833 -0.519058 1.425 255 255 255
0.441997 0.0997922 0.913 255 255 255
-0.314098 0.0714392 0.6 255 255 255
0.187394 -0.0161846 0.918 255 255 255
-0.610639 -0.0578292 1.491 255 255 255
0.150524 0.0632637 1.046 255 255 255
-0.0388054 -0.188566 1.055 255 255 255
0.469375 0.0723467 0.923 255 255 255
0.479065 -0.352997 1.024 255 255 255
0.388445 -0.100153 0.845 255 255 255
0.269903 0.462365 1.198 255 255 255
0.14956 0.332563 1.187 255 255 255
-0.314165 0.075596 0.602 255 255 255
-0.0775204 0.160405 1.118 255 255 255
0.253544 0.019026 0.888 255 255 255
0.30373 -0.220421 0.904 255 255 255
0.292725 -0.0498741 0.615 255 255 255
0.112852 -0.258459 1.06 255 255 255
-0.225114 -0.277174 1.176 255 255 255
0.108949 -0.320761 1.09 255 255 255
0.183363 0.302818 1.1 255 255 255
0.00458969 -0.350912 1.173 255 255 255
0.244415 0.0584869 0.731 255 255 255
-0.383462 0.0246581 1.357 255 255 255
-0.147457 0.460489 1.52 255 255 255
-0.641982 0.171163 1.543 255 255 255
0.311568 0.369674 1 255 255 255
-0.1182 -0.44228 1.283 255 255 255
0.14346 0.473131 1.39 255 255 255
0.199069 0.135733 0.991 255 255 255
0.135406 -0.00132166 0.974 255 255 255
0.35524 -0.278191 0.935 255 255 255
-0.517364 0.300927 1.81 255 255 255
0.110518 0.126513 1.124 255 255 255
-0.464977 0.447524 1.655 255 255 255
0.149214 0.428346 1.302 255 255 255
0.265868 0.195182 0.815 255 255 255
-0.480729 -0.404163 1.351 255 255 255
0.0485475 0.0224969 1.05 255 255 255
0.259886 0.0377266 0.699 255 255 255
-0.29848 0.096454 0.61 255 255 255
-0.298872 0.188977 0.634 255 255 255
-0.24554 0.0667751 1.201 255 255 255
-0.324196 -0.235961 1.21 255 255 255
-0.875212 0.29155 1.923 255 255 255
-0.278567 0.383179 1.668 255 255 255
0.373536 -0.252226 0.902 255 255 255
-0.741857 -0.135525 1.547 255 255 255
-0.162842 -0.515393 1.378 255 255 255
0.174245 0.3107 1.122 255 255 255
-0.541021 0.357062 1.753 255 255 255
-0.804511 -0.112063 1.571 255 255 255
-0.709466 -0.37431 1.505 255 255 255
0.110227 -0.316025 1.068 0 0 0
-0.294842 0.180153 0.632 255 255 255
0.221324 -0.11156 0.904 255 255 255
0.22519 -0.359166 1.037 0 0 0
-0.0266586 0.113507 1.122 255 255 255
0.0178638 0.0591874 1.167 255 255 255
0.160214 -0.0689927 0.925 255 255 255
-0.307852 0.0779418 0.605 255 255 255
-0.0627531 -0.00323197 1.083 255 255 255
-0.0176828 0.0408331 1.132 255 255 255
0.200597 0.0356255 0.945 255 255 255
-0.683692 -0.133511 1.524 255 255 255
0.282126 0.0956007 0.945 255 255 255
0.184204 -0.101226 0.917 255 255 255
0.223275 -0.105208 0.9 255 255 255
-0.178599 -0.395528 1.267 255 255 255
-0.197214 -0.221413 1.126 0 0 0
-0.231084 -0.0325169 1.187 255 255 255
0.0810503 -0.25639 1.073 0 0 0
0.216666 0.291593 1.053 255 255 255
-0.857678 -0.0373478 1.659 255 255 255
-0.130221 -0.425998 1.278 255 255 255
-0.0678608 -0.34872 1.205 255 255 255
-0.367186 -0.449128 1.354 255 255 255
-0.300946 0.114884 0.613 255 255 255
0.139074 -0.397172 1.18 255 255 255
-0.0937314 0.0329915 1.116 255 255 255
0.0204916 0.250399 1.21 255 255 255
0.345345 -0.174908 0.861 0 0 0
0.182512 -0.0727933 0.916 255 255 255
-0.644269 0.419299 1.739 255 255 255
0.130489 -0.207404 0.997 255 255 255
-0.275821 -0.255074 1.18 255 255 255
0.165871 0.0880102 1.057 255 255 255
0.276895 -0.105133 0.875 255 255 255
-1.08271 0.180055 2.121 255 255 255
0.0201446 0.323732 1.316 255 255 255
0.0124671 0.231931 1.196 255 255 255
0.29817 0.140421 0.957 255 255 255
0.144359 -0.4524 1.242 255 255 255
0.0373572 -0.440016 1.247 255 255 255
0.307517 -0.292524 0.957 255 255 255
-0.284198 0.10308 0.62 255 255 255
0.0686031 -0.410325 1.225 255 255 255
0.321058 0.230038 0.807 255 255 255
-0.65557 -0.266548 1.505 255 255 255
-0.326726 0.223668 0.63 255 255 255
-0.109958 0.248608 1.362 255 255 255
0.506378 -0.359858 1.039 255 255 255
0.406484 -0.165148 0.854 255 255 255
0.226897 0.0730239 0.972 255 255 255
0.155514 0.145409 0.991 255 255 255
0.300284 0.37988 1.07 255 255 255
0.224446 -0.0259162 0.893 255 255 255
-0.078329 -0.0137554 1.079 255 255 255
-0.735515 -0.0471686 1.539 255 255 255
-0.362212 0.254929 1.629 255 255 255
-0.0887561 0.0915965 1.122 255 255 255
-0.5352 0.479001 1.607 255 255 255
-0.392876 -0.448575 1.359 255 255 255
0.247967 0.0437886 0.724 255 255 255
0.266381 0.152745 0.966 255 255 255
-0.00100169 -0.0517825 1.032 255 255 255
0.28951 -0.270116 0.944 255 255 255
0.295272 -0.15264 0.854 255 255 255
0.0472844 -0.225684 1.06 255 255 255
-0.204988 -0.537977 1.39 255 255 255
-0.520837 -0.00930224 1.491 255 255 255
-0.313361 0.304131 1.637 255 255 255
-0.125985 -0.0876648 1.081 255 255 255
-0.471482 -0.22186 1.313 255 255 255
0.219752 0.304437 1.068 255 255 255
-0.451847 0.492229 1.599 255 255 255
0.170362 0.324522 1.145 255 255 255
0.100144 0.270266 1.152 255 255 255
-0.593156 0.435585 1.714 255 255 255
-0.321376 0.147562 0.612 255 255 255
-0.233647 -0.234024 1.152 0 0 0
0.045659 0.299839 1.252 255 255 255
0.275103 0.00728855 0.625 255 255 255
-0.413147 -0.209707 1.278 255 255 255
0.0390651 0.443221 1.463 255 255 255
-0.0696683 -0.478262 1.313 255 255 255
0.316498 -0.370869 1.032 255 255 255
-0.109231 -0.135781 1.072 255 255 255
-0.299523 -0.452332 1.357 255 255 255
-0.538294 0.240525 1.821 255 255 255
0.242055 -0.0874141 0.883 255 255 255
-0.414373 0.535023 1.528 255 255 255
-0.232362 0.484169 1.509 255 255 255
0.13066 -0.254538 1.037 255 255 255
-0.425096 -0.276538 1.289 255 255 255
-0.0548425 0.437146 1.491 255 255 255
0.264157 -0.381118 1.051 255 255 255
-0.146551 -0.138061 1.09 255 255 255
-0.549941 -0.333575 1.359 255 255 255
-0.397081 0.406631 1.664 255 255 255
0.14314 0.388552 1.249 255 255 255
-0.22818 0.22983 0.672 255 255 255
-0.271941 0.25843 0.664 255 255 255
-0.817654 -0.40083 1.633 255 255 255
0.2067 -0.0713629 0.898 255 255 255
0.107779 -0.0664983 0.954 255 255 255
-0.581659 0.246337 1.865 255 255 255
0.124487 0.11856 1.118 255 255 255
0.36998 -0.228233 0.883 255 255 255
0.161791 -0.250716 0.952 0 0 0
-1.27669 -0.913906 2.509 255 255 255
0.146204 0.155276 0.972 255 255 255
0.0609766 0.000278227 1.029 255 255 255
-0.331527 -0.577067 1.491 255 255 255
-0.309316 0.184655 1.381 255 255 255
-0.720602 0.215464 1.887 255 255 255
-0.0340167 0.245819 0.683 255 255 255
0.273928 -0.254661 0.938 255 255 255
-0.626022 -0.299176 1.416 255 255 255
-0.319039 0.176574 0.623 255 255 255
-0.0831285 -0.256685 1.12 255 255 255
0.294567 0.169809 0.772 255 255 255
0.131449 -0.296765 0.992 255 255 255
0.393414 0.371288 0.95 255 255 255
0.163047 0.0662219 1.039 255 255 255
-0.43042 0.531438 1.532 255 255 255
-0.0116072 -0.00498514 1.081 255 255 255
0.444218 -0.190657 0.882 255 255 255
-0.754618 0.122511 1.563 255 255 255
-0.717158 0.155179 1.559 255 255 255
-0.0452429 0.0628275 1.13 255 255 255
0.297535 0.0278894 0.681 255 255 255
-0.79226 -0.183178 1.567 255 255 255
-0.27867 0.22128 0.647 255 255 255
0.033036 0.523164 1.409 255 255 255
-0.964101 -0.453278 1.859 255 255 255
0.153056 0.283105 1.114 255 255 255
-0.840397 0.233889 1.887 255 255 255
0.463417 -0.42626 1.106 255 255 255
-0.234816 0.209354 0.666 255 255 255
-0.0140593 0.103923 1.137 255 255 255
-0.610254 0.132396 1.502 255 255 255
-0.45388 -0.39824 1.324 255 255 255
0.242973 -0.170544 0.897 255 255 255
-0.350977 0.495128 1.567 255 255 255
0.315158 0.0992328 0.716 255 255 255
0.314906 0.0323141 0.705 255 255 255
0.0372103 0.0315725 1.068 255 255 255
0.167033 -0.337339 1.022 255 255 255
-0.287414 0.210495 0.643 255 255 255
0.127832 -0.282992 0.989 255 255 255
-0.0480387 -0.107203 1.032 255 255 255
-1.24278 -0.752697 2.374 255 255 255
0.191682 0.0527848 0.978 255 255 255
0.216377 0.334461 1.104 255 255 255
0.264511 -0.119431 0.886 255 255 255
-0.157223 0.339398 1.543 255 255 255
0.364409 -0.180932 0.863 255 255 255
-0.13878 -0.502759 1.362 255 255 255
-0.281322 -0.123304 1.187 255 255 255
-0.889723 0.29112 1.941 255 255 255
0.195541 -0.383867 1.098 255 255 255
-0.3949 0.0603885 1.366 255 255 255
-0.594136 -0.377144 1.406 255 255 255
-0.286731 0.153953 0.63 255 255 255
-0.491353 0.392098 1.719 255 255 255
0.256065 0.0549459 0.701 255 255 255
-0.498508 0.146234 1.659 255 255 255
0.295609 0.248332 0.847 255 255 255
-0.46507 -0.300917 1.313 255 255 255
-0.291315 0.525915 1.509 255 255 255
-1.09757 -0.969481 2.638 255 255 255
0.161508 0.249991 1.051 255 255 255
0.359812 0.250548 0.836 255 255 255
0.142988 0.199799 1.005 255 255 255
0.099997 0.0151699 1.017 255 255 255
0.215157 0.451327 1.254 255 255 255
-0.00843953 0.110443 1.128 0 0 0
-0.266516 0.198646 1.369 255 255 255
-0.346022 0.136864 1.375 255 255 255
0.329139 -0.300002 0.961 255 255 255
-0.384813 -0.0504183 1.419 255 255 255
0.390595 0.0327195 0.832 255 255 255
0.0142211 0.069448 1.18 255 255 255
0.241092 -0.0412549 0.606 255 255 255
-0.351657 -0.10663 1.289 255 255 255
0.265101 0.153273 0.825 255 255 255
-0.197402 0.0791832 1.182 255 255 255
0.240689 0.345042 1.092 255 255 255
-0.489662 0.490998 1.595 255 255 255
-0.217192 0.000320407 1.185 255 255 255
0.250975 0.171888 0.879 255 255 255
-0.330847 -0.255779 1.22 255 255 255
-0.196823 -0.00909339 1.156 255 255 255
0.127636 -0.265132 1.013 255 255 255
0.269962 0.0739721 0.687 255 255 255
-0.302091 -0.547241 1.432 255 255 255
-1.28272 -0.926874 2.489 255 255 255
-0.595266 0.176728 1.805 255 255 255
0.0379641 0.0138339 1.041 255 255 255
0.183646 -0.242191 0.937 255 255 255
-0.343244 -0.00819171 1.313 255 255 255
0.233517 -0.020749 0.612 255 255 255
0.255525 0.0428814 0.709 255 255 255
0.315152 0.0729602 0.688 255 255 255
0.134736 -0.119948 0.947 255 255 255
-0.096656 0.25969 1.362 255 255 255
0.461785 -0.394051 1.077 255 255 255
-0.558707 -0.178466 1.409 255 255 255
-0.6529 0.131608 1.466 255 255 255
0.172247 -0.463405 1.239 255 255 255
0.2685 -0.05741 0.61 255 255 255
-0.151399 -0.283257 1.154 255 255 255
-1.20913 -0.954493 2.53 255 255 255
0.0746761 -0.306224 1.108 255 255 255
0.285198 0.129904 0.738 255 255 255
-0.273999 0.180633 0.641 255 255 255
0.327146 -0.251669 0.916 255 255 255
0.0409801 -0.0819789 0.991 255 255 255
-0.317347 0.131197 0.61 255 255 255
0.294824 0.00119176 0.628 255 255 255
0.129699 -0.0734823 0.944 255 255 255
-0.563551 0.30953 1.826 255 255 255
0.304141 -0.265063 0.937 255 255 255
-0.274672 0.223364 0.65 255 255 255
-0.46467 0.00275548 1.452 255 255 255
-0.313823 0.420157 1.612 255 255 255
0.258752 -0.124455 0.891 255 255 255
0.0147187 0.533469 1.412 255 255 255
0.320299 0.106379 0.725 255 255 255
0.110708 0.0150506 1.009 255 255 255
0.274178 -0.0264188 0.605 255 255 255
0.244082 0.377102 1.124 255 255 255
0.399831 -0.343176 1.005 255 255 255
0.170644 -0.151346 0.941 255 255 255
0.263459 0.377313 1.098 255 255 255
-0.466771 0.151915 1.633 255 255 255
0.2302 -0.137475 0.91 255 255 255
0.266065 0.203686 0.828 255 255 255
-0.317347 0.120278 0.61 255 255 255
-0.18639 0.175043 1.278 255 255 255
-0.640318 -0.182409 1.539 255 255 255
-0.350763 0.556751 1.48 255 255 255
0.0943322 0.288555 1.173 255 255 255
0.249095 -0.280739 0.954 255 255 255
-0.233382 0.195163 1.345 255 255 255
0.256139 -0.123143 0.892 255 255 255
0.231714 -0.00993098 0.893 255 255 255
0.379991 -0.314464 0.967 255 255 255
-0.0026686 -0.0682442 1.027 255 255 255
0.476151 -0.419603 1.098 255 255 255
0.222362 0.348993 1.116 255 255 255
-0.274165 0.30152 1.595 255 255 255
0.285092 0.163322 0.777 255 255 255
0.173708 0.171762 0.941 255 255 255
0.17399 -0.233997 0.986 255 255 255
0.393611 -0.273133 0.918 255 255 255
0.0979954 0.438253 1.387 255 255 255
0.167275 0.08441 1.055 255 255 255
-0.253477 -0.441938 1.313 255 255 255
-0.440427 -0.188102 1.316 255 255 255
-0.43256 -0.0179623 1.409 255 255 255
-0.432833 -0.029761 1.425 255 255 255
-0.588797 0.0398824 1.516 255 255 255
0.164544 0.174951 0.95 255 255 255
-0.533614 0.456704 1.659 255 255 255
0.287918 -0.283844 0.954 255 255 255
0.181335 -0.206869 0.957 255 255 255
0.315097 -0.252768 0.92 255 255 255
0.254861 0.0115931 0.638 255 255 255
0.35372 -0.275486 0.931 255 255 255
0.277061 -0.0423108 0.607 255 255 255
0.159568 0.168411 0.948 255 255 255
0.317597 -0.242616 0.91 255 255 255
-0.407322 0.552806 1.502 255 255 255
0.124691 -0.00927523 0.977 255 255 255
-0.31477 -0.3471 1.227 255 255 255
0.186912 -0.134933 0.923 255 255 255
0.190864 0.150887 0.935 255 255 255
0.359586 0.16773 0.774 255 255 255
0.0595422 0.303996 1.244 255 255 255
0.374761 -0.164978 0.839 255 255 255
0.198499 0.195062 0.928 255 255 255
-0.262918 -0.395181 1.286 255 255 255
-1.26388 -0.789545 2.392 255 255 255
0.00418668 -0.217366 1.07 255 255 255
0.197418 -0.445376 1.196 255 255 255
0.172581 -0.443811 1.213 255 255 255
0.413959 -0.29251 0.937 255 255 255
0.137601 -0.476121 1.273 255 255 255
0.211407 0.00173072 0.912 255 255 255
-0.28652 0.195236 0.641 255 255 255
0.0835686 -0.272879 1.083 255 255 255
0.247805 0.00742341 0.883 255 255 255
0.0735313 -0.510312 1.313 255 255 255
-0.471363 -0.149546 1.375 255 255 255
0.271806 -0.141854 0.891 255 255 255
0.18509 -0.0488364 0.914 255 255 255
-1.08353 -0.511598 2.057 255 255 255
-0.028028 0.0200608 1.104 255 255 255
0.299203 0.371155 1.06 255 255 255
0.153534 0.520079 1.359 255 255 255
-0.226356 0.260268 0.683 255 255 255
-0.266653 -0.534604 1.393 255 255 255
-0.612332 0.045724 1.466 255 255 255
-0.313889 0.120475 0.611 255 255 255
-0.691795 -0.316202 1.52 0 0 0
-0.174474 -0.39759 1.267 255 255 255
0.130766 -0.46563 1.267 255 255 255
0.244475 -0.0486349 0.612 255 255 255
-0.324655 0.362012 1.696 255 255 255
0.129512 -0.272036 1.002 255 255 255
0.319745 -0.108929 0.86 255 255 255
0.292085 -0.22956 0.923 255 255 255
-0.697937 -0.147347 1.539 255 255 255
-1.23924 -0.747635 2.459 255 255 255
0.104093 -0.14078 0.963 255 255 255
-0.340011 0.151601 1.387 255 255 255
-0.296494 0.0805712 0.61 255 255 255
0.279081 -0.292183 0.961 255 255 255
0.176013 -0.038719 0.921 255 255 255
0.333479 0.172903 0.769 255 255 255
0.175048 -0.301608 0.992 255 255 255
-1.13037 0.0746063 2.166 255 255 255
0.0568235 -0.0639152 0.986 255 255 255
-0.0613602 0.106203 1.122 255 255 255
0.36411 0.159079 0.781 255 255 255
-0.49296 -0.282974 1.319 255 255 255
-0.668771 -0.35605 1.48 255 255 255
-0.489404 -0.0623876 1.484 255 255 255
0.179726 -0.0833186 0.917 255 255 255
0.302194 -0.255791 0.931 255 255 255
0.275 -0.0573158 0.609 0 0 0
-0.46218 -0.143456 1.381 255 255 255
-0.20835 0.286018 1.513 255 255 255
0.393919 -0.138164 0.842 255 255 255
-0.0435213 -0.222588 1.087 255 255 255
0.272354 0.18875 0.799 255 255 255
0.387219 0.00153335 0.808 255 255 255
0.301889 -0.0946025 0.857 255 255 255
-0.202341 0.262956 0.696 255 255 255
-0.446242 0.412007 1.686 255 255 255
0.411181 -0.165922 0.858 0 0 0
-0.296898 0.495121 1.551 255 255 255
0.316052 -0.131885 0.873 255 255 255
-0.0944844 -0.413974 1.273 255 255 255
0.218142 -0.0780564 0.891 255 255 255
-0.498453 0.424974 1.705 255 255 255
0.197394 -0.103301 0.909 255 255 255
-0.0853546 -0.0155112 1.079 255 255 255
0.29278 0.238019 0.835 255 255 255
-0.434881 0.341132 1.774 255 255 255
0.264351 0.128906 0.783 255 255 255
0.252898 -0.267326 0.945 255 255 255
0.436795 -0.407303 1.089 255 255 255
-0.404655 -0.440315 1.354 255 255 255
-0.0645968 0.238854 1.297 255 255 255
0.0544345 -0.0993883 0.972 255 255 255
-0.269297 0.132423 0.63 255 255 255
-0.428394 -0.196241 1.299 255 255 255
-0.594666 -0.460369 1.452 255 255 255
-0.307618 0.424084 1.607 255 255 255
-0.654681 -0.13316 1.52 255 255 255
0.239862 -0.0524482 0.875 255 255 255
0.123031 -0.153476 0.964 255 255 255
-0.45674 0.1043 1.52 255 255 255
0.476185 0.144135 0.961 255 255 255
-0.286868 -0.269758 1.194 255 255 255
-0.50393 0.324672 1.763 255 255 255
-0.366728 -0.381732 1.283 255 255 255
-0.319812 0.530821 1.516 255 255 255
0.178872 -0.168727 0.944 255 255 255
-0.219882 0.490525 1.491 255 255 255
0.121712 0.27516 1.126 255 255 255
0.428435 -0.427285 1.104 255 255 255
0.401592 -0.378133 1.057 255 255 255
0.119027 0.107644 1.118 255 255 255
-0.0699169 0.435482 1.502 255 255 255
-0.445725 -0.383857 1.319 255 255 255
0.021069 0.124057 1.135 0 0 0
-0.0279372 0.441146 1.48 255 255 255
-0.65555 0.157575 1.724 255 255 255
-0.278418 0.454084 1.575 255 255 255
-0.116753 -0.061051 1.077 255 255 255
0.273505 -0.357297 1.022 255 255 255
-0.248513 -0.518736 1.393 255 255 255
0.162526 0.0288232 0.975 255 255 255
0.195315 0.131664 1.022 255 255 255
0.28709 0.204109 0.793 255 255 255
-0.37763 0.274823 1.686 255 255 255
0.706118 0.335873 1.393 255 255 255
0.25553 0.142184 0.991 255 255 255
-0.449941 -0.454729 1.351 255 255 255
-0.305302 0.228616 0.641 255 255 255
0.384403 0.346465 0.921 255 255 255
-0.316499 0.0722949 0.599 255 255 255
-0.0932325 0.143993 1.132 255 255 255
-0.240472 0.157041 1.267 255 255 255
-0.0612487 0.495577 1.47 255 255 255
0.0245719 -0.00142208 1.048 255 255 255
-0.478573 0.45864 1.637 255 255 255
-0.21817 0.1 1.201 255 255 255
-0.352018 -0.421688 1.33 255 255 255
0.466439 -0.410202 1.092 255 255 255
-0.309618 0.228226 0.637 255 255 255
0.0686401 0.118226 1.098 255 255 255
-0.451313 -0.449515 1.342 255 255 255
0.161427 -0.118048 0.932 255 255 255
-0.129399 -0.32119 1.176 255 255 255
0.342104 -0.226891 0.889 255 255 255
-0.19965 -0.415138 1.283 255 255 255
0.203089 -0.0307844 0.908 255 255 255
0.0137029 0.189035 1.137 255 255 255
-0.669426 0.366432 1.799 255 255 255
-0.329253 0.211379 0.627 255 255 255
0.226911 -0.205577 0.897 0 0 0
0.254628 0.18015 0.813 255 255 255
-0.503898 -0.0841222 1.484 255 255 255
0.295479 0.26529 0.871 255 255 255
0.136853 -0.0291471 0.951 255 255 255
0.142667 -0.405771 1.194 255 255 255
0.145723 0.498013 1.39 255 255 255
0.318178 -0.370869 1.032 255 255 255
0.56253 0.437088 1.278 255 255 255
0.260984 -0.0624756 0.611 255 255 255
0.0945703 -0.0299746 0.978 255 255 255
0.0654524 0.0370276 1.075 255 255 255
-0.20366 -0.514268 1.381 255 255 255
0.062708 0.468126 1.459 255 255 255
-0.443352 -0.0251936 1.429 255 255 255
0.244173 0.132612 1.004 255 255 255
0.144472 0.453065 1.357 255 255 255
-0.3216 0.204562 0.628 255 255 255
0.281137 0.0656357 0.893 255 255 255
-0.2107 0.111913 1.203 255 255 255
-0.109848 0.494132 1.48 255 255 255
-0.0890321 -0.210805 1.081 255 255 255
0.0439353 0.133486 1.106 255 255 255
-0.076513 0.0885718 1.13 255 255 255
-0.48327 -0.286614 1.316 255 255 255
-0.0171205 -0.270804 1.096 255 255 255
0.241981 0.00313024 0.888 255 255 255
-0.0357805 -0.345911 1.182 255 255 255
-0.778938 -0.186202 1.571 255 255 255
-0.0674351 0.0905707 1.132 255 255 255
-0.781078 0.350463 1.87 255 255 255
0.0838013 -0.0844516 0.964 255 255 255
-0.705929 0.206672 1.81 255 255 255
0.393451 0.0412849 0.841 255 255 255
-0.0881373 -0.309803 1.162 255 255 255
0.318446 -0.238075 0.904 255 255 255
0.26449 -0.436035 1.141 255 255 255
0.370623 0.287968 0.871 255 255 255
0.235858 0.233862 0.957 255 255 255
0.297341 0.00119366 0.629 255 255 255
0.0535001 0.146301 1.081 255 255 255
-0.721408 0.357205 1.842 255 255 255
0.424895 -0.383806 1.068 255 255 255
-0.196061 -0.512033 1.375 255 255 255
-0.3294 -0.270119 1.222 255 255 255
0.25327 -0.0597848 0.614 255 255 255
0.170861 0.138722 1.025 255 255 255
-0.895178 -0.016234 1.71 255 255 255
0.301004 -0.365018 1.025 255 255 255
0.271788 0.0274505 0.761 255 255 255
0.0454048 0.184338 1.098 255 255 255
0.266546 0.426198 1.158 255 255 255
-0.111712 -0.390361 1.257 255 255 255
-0.298219 0.241963 0.646 255 255 255
-0.213663 0.235192 0.678 255 255 255
0.190832 -0.0383827 0.913 255 255 255
0.23632 -0.0636003 0.622 255 255 255
0.438363 -0.290985 0.937 255 255 255
-0.073229 0.408545 1.52 255 255 255
-0.161305 -0.0536957 1.106 255 255 255
-0.243634 -0.27074 1.173 255 255 255
0.274708 -0.0312897 0.604 255 255 255
-0.374095 0.570044 1.477 255 255 255
-0.821078 -0.0497737 1.624 255 255 255
-0.230695 -0.140777 1.156 255 255 255
-0.0863099 0.107259 1.114 255 255 255
0.239667 -0.0498741 0.615 255 255 255
0.368632 0.292892 0.873 255 255 255
0.302603 0.294911 0.892 255 255 255
0.581253 0.414211 1.278 255 255 255
0.265053 0.0232297 0.883 255 255 255
-0.301953 0.080175 0.607 255 255 255
0.192235 0.410988 1.225 255 255 255
0.47158 0.15148 0.958 255 255 255
0.279918 0.0703098 0.684 255 255 255
0.319004 -0.390174 1.057 255 255 255
0.315545 -0.107529 0.86 255 255 255
0.19612 0.100519 1.044 255 255 255
0.46931 0.0659074 0.917 255 255 255
0.178283 -0.120172 0.925 255 255 255
-0.0518053 0.261379 0.683 255 255 255
-0.135514 0.0148305 1.116 255 255 255
0.275564 0.192169 0.797 255 255 255
-0.0492164 0.330726 1.4 255 255 255
-0.282497 0.167812 0.632 255 255 255
0.321473 0.302336 0.884 255 255 255
0.181732 0.178274 0.935 255 255 255
0.0987188 0.00190531 1.004 255 255 255
0.618351 0.474738 1.273 255 255 255
0.0945806 -0.246505 1.068 0 0 0
0.0201706 -0.0647579 0.999 255 255 255
0.0631692 0.0297787 1.066 255 255 255
-0.16267 -0.270111 1.154 255 255 255
0.313901 -0.211946 0.887 255 255 255
0.413367 -0.100864 0.851 255 255 255
-0.687188 0.122648 1.473 255 255 255
-0.356907 0.325089 1.705 255 255 255
0.254064 -0.294007 0.967 255 255 255
-0.00601211 -0.160164 1.027 255 255 255
0.235667 -0.0891529 0.886 255 255 255
-0.25195 0.163119 0.646 255 255 255
-0.471221 -0.0670363 1.48 255 255 255
-0.291433 -0.0430989 1.213 255 255 255
0.106561 0.240602 1.102 255 255 255
-0.232495 0.242939 0.675 255 255 255
0.355404 -0.237691 0.897 255 255 255
-0.283546 0.186308 0.639 255 255 255
-1.28564 -0.907013 2.479 255 255 255
-0.680093 -0.230833 1.579 255 255 255
0.270163 0.375993 1.089 255 255 255
-0.54049 0.165992 1.724 255 255 255
-0.0346741 -0.001475 1.087 255 255 255
0.203635 -0.414712 1.154 255 255 255
0.112569 0.531752 1.372 255 255 255
0.266656 0.150469 0.847 255 255 255
0.262051 0.00307736 0.873 255 255 255
-0.0265636 0.0366894 1.118 255 255 255
-0.24034 -0.0536744 1.185 255 255 255
0.266868 0.137939 0.806 255 255 255
-0.615255 0.0890893 1.473 255 255 255
-0.262742 0.16967 0.639 255 255 255
0.440268 -0.0433026 0.863 255 255 255
-0.541802 -0.211735 1.372 255 255 255
0.165741 0.160698 0.948 255 255 255
-0.656907 0.0716227 1.459 255 255 255
0.28492 -0.257989 0.939 255 255 255
-0.157134 -0.0839879 1.102 255 255 255
-0.506068 -0.392583 1.372 255 255 255
-0.722678 -0.168306 1.571 255 255 255
0.179268 -0.479461 1.26 255 255 255
-0.0699862 0.263712 0.698 255 255 255
0.187509 -0.348031 1.034 255 255 255
0.329874 0.261432 0.836 255 255 255
0.288716 0.238683 0.847 255 255 255
-0.359052 -0.153271 1.242 255 255 255
-0.276821 -0.343106 1.227 255 255 255
-0.316973 0.220942 0.631 255 255 255
-0.262521 0.156641 0.641 255 255 255
0.277366 0.125866 0.977 255 255 255
0.224888 -0.0431605 0.889 255 255 255
0.417432 -0.135008 0.848 255 255 255
0.2432 0.109301 1 255 255 255
-0.57277 -0.403126 1.393 255 255 255
-0.246958 -0.0596602 1.189 255 255 255
-0.161349 0.111495 1.158 255 255 255
-0.250281 0.023857 1.205 255 255 255
0.377848 -0.414242 1.098 255 255 255
0.288599 0.386971 1.085 255 255 255
-0.121198 -0.258046 1.118 255 255 255
0.0372653 -0.310093 1.122 255 255 255
0.333092 0.1859 0.771 255 255 255
0.0345112 0.0959203 1.152 255 255 255
0.62682 0.488223 1.265 255 255 255
-0.390089 0.0599906 1.357 255 255 255
0.21975 0.253371 0.997 255 255 255
0.120388 -0.198692 0.994 255 255 255
-0.644551 0.390658 1.763 255 255 255
-0.230826 0.206412 0.667 255 255 255
-0.706642 0.210934 1.959 255 255 255
-0.152989 -0.199825 1.098 255 255 255
-0.320354 -0.0183001 1.273 255 255 255
-0.294651 -0.0764665 1.21 255 255 255
0.237278 -0.0148217 0.614 255 255 255
0.239922 -0.164155 0.902 255 255 255
0.662109 0.432584 1.302 255 255 255
0.400252 0.0230184 0.824 255 255 255
0.137528 -0.116619 0.945 255 255 255
-0.717849 -0.46013 1.555 255 255 255
