ply
format ascii 1.0
comment Created by Open3D
element vertex 1302
property double x
property double y
property double z
property uchar red
property uchar green
property uchar blue
end_header
0.247873 -0.287559 1.487 255 255 255
-0.131695 0.205998 1.599 255 255 255
0.094281 -0.219589 1.905 255 255 255
0.331367 -0.176717 1.327 255 255 255
0.421863 0.377148 1.354 255 255 255
-0.700906 -0.660068 2.32 255 255 255
0.174718 -0.232782 1.748 255 255 255
-0.274089 -0.353749 1.799 255 255 255
-0.406864 0.133642 1.705 255 255 255
0.237071 0.122383 1.629 255 255 255
-0.409175 0.249608 1.595 255 255 255
0.302844 0.390368 1.354 255 255 255
0.418317 -0.281944 0.867 255 255 255
-0.176332 0.28848 1.513 255 255 255
0.460545 -0.100309 0.981 255 255 255
0.492238 0.353137 1.372 255 255 255
-0.134937 -0.239805 1.779 255 255 255
0.135938 0.245214 1.535 255 255 255
-0.148239 -0.0728374 1.668 255 255 255
-0.527553 -0.457258 2.181 255 255 255
-0.347559 0.111118 1.7 255 255 255
-0.0440271 -0.291997 1.853 255 255 255
-0.046231 -0.319551 1.821 255 255 255
0.317108 -0.413352 1.068 255 255 255
0.230991 0.399356 1.048 255 255 255
0.523853 0.249985 1.208 255 255 255
0.273911 0.00881055 1.71 255 255 255
-0.144431 -0.249887 1.789 255 255 255
-0.7227 0.0487481 1.853 0 0 0
0.533169 0.249082 1.185 255 255 255
-0.220586 -0.51063 1.547 255 255 255
-0.165872 -0.336291 1.739 255 255 255
0.512266 0.2117 1.237 255 255 255
-0.0470323 0.0431972 1.642 0 0 0
-0.493247 -0.134879 1.935 255 255 255
0.451269 -0.187851 0.896 255 255 255
0.427443 0.0310972 1.26 255 255 255
-0.607582 0.433591 1.416 255 255 255
-0.805058 -0.487406 2.173 255 255 255
0.444206 -0.0958169 1.036 255 255 255
-0.174118 0.311601 1.494 255 255 255
0.352667 -0.339999 1.02 255 255 255
-0.397849 -0.215338 2.01 255 255 255
0.185658 -0.342277 1.62 255 255 255
0.370437 -0.319365 0.992 255 255 255
-0.551346 0.39476 1.087 255 255 255
-0.581324 0.401258 1.196 255 255 255
0.237439 -0.447822 1.275 255 255 255
0.243206 0.294804 1.459 255 255 255
0.515781 0.162805 1.122 255 255 255
-0.868376 -0.837022 2.181 255 255 255
0.518674 0.134993 1.075 255 255 255
0.324351 -0.0518046 1.528 255 255 255
0.385516 -0.34623 0.906 255 255 255
-0.749626 0.244735 1.532 255 255 255
-0.843325 -0.119601 2.051 255 255 255
0.193221 0.434102 1.313 255 255 255
0.24445 0.413442 1.336 255 255 255
0.365216 -0.291576 1.087 255 255 255
-0.183528 0.184977 1.62 255 255 255
-0.149537 0.0980869 1.714 255 255 255
0.0463372 -0.182946 1.848 0 0 0
0.420874 -0.102854 1.132 255 255 255
-0.410992 0.354442 1.48 255 255 255
0.432658 0.39381 1.07 255 255 255
0.262962 -0.398962 1.278 255 255 255
0.171676 0.261243 1.498 255 255 255
-1.09511 -0.669125 2.166 255 255 255
0.377235 0.0456304 1.463 255 255 255
-0.115415 0.34229 1.459 255 255 255
0.566445 0.326364 1.132 255 255 255
-0.667218 0.394031 1.466 255 255 255
0.505037 0.193428 1.249 255 255 255
0.307492 -0.379259 1.149 255 255 255
-0.543066 -0.431365 2.158 255 255 255
0.400545 -0.00970696 1.234 255 255 255
0.105165 0.179977 1.599 255 255 255
0.53059 0.180435 1.096 255 255 255
-0.323742 0.268861 1.571 255 255 255
0.111059 0.380174 1.381 255 255 255
0.407593 -0.0395383 1.225 255 255 255
0.48201 -0.0287023 0.989 255 255 255
0.252151 0.399182 1.354 255 255 255
-0.0893058 -0.0978833 1.633 255 255 255
-0.736037 -0.307163 2.078 255 255 255
0.0230091 0.112679 1.682 255 255 255
-0.61447 0.409035 1.308 255 255 255
-0.13985 0.467859 1.33 255 255 255
-0.68193 0.00969676 1.882 255 255 255
0.187815 -0.478331 1.435 255 255 255
-0.723378 -0.485972 2.151 255 255 255
0.451835 0.115736 1.313 255 255 255
-0.422287 0.487318 1.354 255 255 255
0.559777 0.293484 1.126 255 255 255
0.481305 -0.0524163 0.981 255 255 255
-0.0684649 0.0950752 1.71 255 255 255
-0.546991 0.406946 1.096 255 255 255
-0.260498 -0.240085 1.848 255 255 255
-0.700389 0.250884 1.62 255 255 255
0.138307 -0.460426 1.591 255 255 255
-0.778964 0.00972253 1.887 255 255 255
0.43657 0.184727 1.416 255 255 255
-0.765546 0.261927 1.591 255 255 255
0.0181273 -0.0532984 1.739 255 255 255
-0.588126 0.388929 1.194 255 255 255
0.208877 0.405284 1.345 255 255 255
-0.412212 0.33038 1.502 255 255 255
0.444583 -0.156934 0.947 255 255 255
0.267795 -0.126134 1.655 255 255 255
-0.617113 0.252894 1.616 255 255 255
-0.079492 -0.17677 1.65 255 255 255
0.349347 -0.0850256 1.381 255 255 255
-0.885955 -0.648742 2.32 255 255 255
-1.02448 -0.521154 2.196 255 255 255
0.152607 -0.016984 1.789 255 255 255
-0.32531 0.0952976 1.714 255 255 255
0.255786 -0.36371 1.316 255 255 255
0.0353626 -0.26609 1.905 255 255 255
-0.231297 -0.297897 1.763 255 255 255
-0.824596 -0.728516 2.286 255 255 255
-0.374854 0.380816 1.452 255 255 255
0.387545 0.189887 1.532 255 255 255
0.134107 -0.57068 1.487 255 255 255
-0.0737499 -0.299256 1.842 255 255 255
0.443755 0.00604373 1.173 255 255 255
-0.00418868 0.186687 1.612 255 255 255
-0.231277 -0.109752 1.831 0 0 0
-0.667135 0.22757 1.642 255 255 255
0.335084 -0.263929 1.194 255 255 255
0.388304 0.182765 1.535 255 255 255
-0.21461 -0.314553 1.744 255 255 255
0.280703 -0.390189 1.237 255 255 255
-0.241992 0.290933 1.539 255 255 255
-0.531103 -0.464356 2.181 255 255 255
0.399314 -0.00779242 1.249 255 255 255
0.465876 -0.129623 0.928 255 255 255
0.051872 -0.44943 1.831 255 255 255
0.104435 0.256473 1.513 255 255 255
0.220893 -0.316825 1.535 255 255 255
-0.626117 0.288217 1.579 255 255 255
0.417591 -0.0764909 1.18 255 255 255
0.373375 -0.239835 1.085 255 255 255
0.390002 0.316128 1.406 255 255 255
0.408218 0.00436753 1.239 255 255 255
0.279736 -0.0370551 1.646 255 255 255
-0.59679 0.402748 1.463 255 255 255
-0.591813 -0.843575 2.236 255 255 255
-0.591561 0.385248 1.213 255 255 255
-0.36379 0.33125 1.484 255 255 255
0.344792 -0.329727 1.073 255 255 255
-0.500163 0.374339 1.473 255 255 255
0.364715 -0.249041 1.135 255 255 255
0.399079 -0.266878 0.983 255 255 255
0.403155 -0.305177 0.877 255 255 255
-0.0293228 -0.0299714 1.7 255 255 255
-0.845311 -0.130435 2.064 255 255 255
0.451188 0.0629709 1.203 255 255 255
0.298102 0.256387 1.484 255 255 255
0.042978 0.469935 1.294 255 255 255
-0.222487 0.0740482 1.739 255 255 255
0.52663 0.3304 1.252 255 255 255
0.361732 -0.242763 1.149 255 255 255
-0.668039 0.29226 1.587 255 255 255
-0.31694 0.0813514 1.714 255 255 255
0.141969 0.475484 1.275 255 255 255
-0.280641 -0.0954232 1.842 255 255 255
-0.545304 -0.510496 2.181 255 255 255
0.32008 0.276566 1.463 255 255 255
0.422798 0.132864 1.357 255 255 255
-0.10942 -0.536035 1.616 255 255 255
0.443116 -0.120658 1.018 255 255 255
-0.595776 0.379869 1.234 255 255 255
0.50306 0.332098 1.359 255 255 255
-0.63761 -0.528242 2.181 255 255 255
-1.12867 -0.44056 2.204 255 255 255
-0.560705 0.286371 1.583 255 255 255
-0.748913 -0.327789 1.978 255 255 255
0.0963406 0.266829 1.502 255 255 255
0.404662 -0.207435 1.013 255 255 255
-0.996792 -0.268605 2.017 255 255 255
0.509015 0.233276 1.234 255 255 255
0.431227 -0.0772679 1.135 255 255 255
-0.273348 0.427368 1.381 255 255 255
0.460258 -0.103079 0.977 255 255 255
0.304494 0.364018 1.085 255 255 255
0.529679 0.223653 1.173 255 255 255
-0.777158 0.221969 1.583 255 255 255
0.418349 0.0842593 1.322 255 255 255
0.491413 0.140735 1.182 255 255 255
-0.684517 -0.189378 1.978 255 255 255
0.421712 -0.148061 1.06 255 255 255
-1.01034 -0.456558 2.212 255 255 255
-0.230109 -0.357278 1.691 255 255 255
0.295785 0.36376 1.079 255 255 255
0.46112 0.0226691 1.145 255 255 255
0.495127 0.18693 1.26 255 255 255
0.466769 0.0528737 1.114 255 255 255
-0.681143 -0.328593 2.107 255 255 255
-0.215706 0.145871 1.686 255 255 255
0.424631 -0.235081 0.927 255 255 255
0.030197 0.381 1.384 255 255 255
0.245841 -0.447055 1.244 255 255 255
-0.00480191 -0.327296 1.848 255 255 255
-0.0746183 0.0213023 1.603 255 255 255
-0.240088 -0.135194 1.853 255 255 255
0.451177 -0.115917 0.978 255 255 255
0.511136 0.207656 1.249 255 255 255
-0.726794 -0.318943 2.024 255 255 255
-0.615977 -0.42117 2.107 255 255 255
-0.0979476 -0.580553 1.559 255 255 255
0.39913 -0.182996 1.083 255 255 255
-0.065617 0.430354 1.362 255 255 255
-0.174674 0.282394 1.52 255 255 255
0.332444 0.149124 1.603 255 255 255
0.313317 -0.391675 1.11 255 255 255
-0.152939 0.0518227 1.753 255 255 255
-1.00321 -0.213062 1.959 255 255 255
-0.97687 -0.122939 2.051 255 255 255
0.224765 0.437373 1.31 255 255 255
-0.957972 -0.419464 2.151 255 255 255
-0.691914 0.0994676 1.789 255 255 255
-0.519542 0.152405 1.729 255 255 255
-0.0170833 0.210146 1.591 255 255 255
-0.213593 -0.362782 1.691 255 255 255
-0.389396 0.446622 1.378 255 255 255
-0.359377 0.35586 1.466 255 255 255
-0.490292 -0.654857 2.189 255 255 255
0.201427 -0.367739 1.539 255 255 255
0.357026 -0.250318 1.158 255 255 255
-0.667148 -0.435757 2.128 255 255 255
0.413351 0.282351 1.456 255 255 255
0.116417 -0.300777 1.815 255 255 255
-0.0252866 0.327232 1.466 255 255 255
-0.537853 0.487981 1.362 255 255 255
-0.566632 0.122508 1.744 255 255 255
0.213913 -0.500902 1.322 255 255 255
0.422483 0.193239 1.463 255 255 255
0.329935 -0.366386 1.048 255 255 255
-0.28455 -0.552429 1.595 255 255 255
-0.342582 -0.0347599 1.805 0 0 0
0.373263 -0.0534464 1.378 255 255 255
-0.277179 -0.11748 1.859 255 255 255
-0.672802 0.363399 1.403 255 255 255
0.304954 0.389137 1.062 255 255 255
-0.386181 -0.565179 2.107 255 255 255
-1.05782 -0.740653 2.099 255 255 255
0.38491 0.0856917 1.456 0 0 0
-0.830316 0.104336 1.637 255 255 255
0.306418 0.281905 1.466 255 255 255
-0.651016 0.320857 1.313 255 255 255
0.39493 0.38584 1.053 255 255 255
-0.807412 -0.464969 2.151 255 255 255
-0.519575 -0.531556 2.303 255 255 255
0.486009 0.106848 1.169 255 255 255
0.183198 0.290442 1.473 255 255 255
0.175168 0.305761 1.466 255 255 255
0.122575 -0.114547 1.911 255 255 255
0.382558 0.19238 1.532 255 255 255
0.366669 -0.228336 1.124 255 255 255
0.323833 -0.383857 1.073 255 255 255
0.407498 -0.198849 1.037 255 255 255
-0.978981 -0.759002 2.151 255 255 255
0.328766 0.378846 1.072 255 255 255
0.126383 0.0811616 1.71 255 255 255
-0.374053 0.409973 1.422 255 255 255
0.372583 0.10263 1.532 255 255 255
-0.565975 0.311671 1.555 255 255 255
-0.274079 0.489502 1.33 255 255 255
0.157345 -0.0378016 1.81 255 255 255
-0.387666 0.425195 1.396 255 255 255
-0.557968 -0.188994 1.941 255 255 255
0.428027 0.144203 1.381 0 0 0
0.247008 -0.338191 1.387 255 255 255
0.170132 -0.162333 1.853 255 255 255
-0.347872 0.299709 1.52 255 255 255
-0.18608 0.486672 1.305 255 255 255
-0.236805 0.174129 1.642 255 255 255
0.278937 -0.303874 1.345 255 255 255
0.265742 -0.11294 1.659 255 255 255
0.180784 -0.395997 1.513 255 255 255
0.351975 -0.342645 1.018 255 255 255
0.152686 0.203422 1.579 255 255 255
-0.0529203 0.138135 1.659 255 255 255
0.469856 0.0128279 1.1 255 255 255
0.141534 0.341419 1.416 255 255 255
0.0370555 0.457991 1.308 255 255 255
0.333297 0.399977 1.032 255 255 255
-0.125138 -0.0132625 1.686 255 255 255
-0.48776 -0.74453 2.044 255 255 255
-0.249446 0.158359 1.673 255 255 255
-0.691536 0.368504 1.498 255 255 255
0.0491905 -0.627493 1.642 255 255 255
0.166169 0.391093 1.372 255 255 255
-0.773494 0.233004 1.624 255 255 255
0.594599 0.448898 1.173 255 255 255
0.130414 -0.144325 1.935 255 255 255
0.0397468 0.358833 1.403 255 255 255
0.113552 -0.275678 1.865 255 255 255
0.455079 0.00766106 1.13 255 255 255
-0.116627 0.129102 1.682 255 255 255
0.48674 0.134736 1.18 255 255 255
-0.230053 -0.570935 1.494 255 255 255
0.326408 0.153956 1.599 255 255 255
-0.210946 -0.129111 1.81 255 255 255
0.391137 0.132043 1.498 255 255 255
-0.757803 -0.685647 2.356 255 255 255
-0.139548 0.452254 1.348 255 255 255
-0.570149 0.272968 1.595 255 255 255
-0.891904 -0.0877716 2.01 255 255 255
-0.00166852 -0.0442933 1.719 255 255 255
-0.864036 -0.688669 2.253 255 255 255
-1.03029 -0.293159 2.051 255 255 255
-0.0841651 0.26088 1.539 255 255 255
0.00921855 0.471215 1.286 255 255 255
-0.704498 0.0662636 1.837 255 255 255
0.162259 0.352499 1.396 0 0 0
0.168198 -0.126964 1.865 255 255 255
-0.823026 -0.428831 2.128 255 255 255
0.431433 -0.0252289 1.208 255 255 255
-0.988702 -0.68942 2.22 255 255 255
0.544963 0.36633 1.229 255 255 255
-0.856519 -0.0345376 1.959 255 255 255
-0.184939 0.492131 1.297 255 255 255
-0.383533 0.113884 1.7 255 255 255
0.535289 0.217289 1.102 255 255 255
-0.0647902 -0.584124 1.555 255 255 255
0.293607 -0.255151 1.342 255 255 255
-0.963886 -0.0779589 2.01 255 255 255
0.203243 -0.0287892 1.799 255 255 255
-0.137586 -0.522589 1.607 255 255 255
-1.03567 -0.14895 1.997 255 255 255
-0.0529139 -0.392078 1.748 255 255 255
0.19815 0.0539269 1.729 255 255 255
0.499126 0.0411174 1.004 255 255 255
-0.125531 -0.468174 1.655 255 255 255
-0.944252 -0.0244384 1.917 0 0 0
-0.717158 -0.380724 2.092 255 255 255
0.271307 -0.416175 1.213 255 255 255
0.209654 0.419965 1.336 255 255 255
-0.336904 0.499414 1.305 255 255 255
-0.0281671 0.15723 1.633 255 255 255
-0.52782 0.491329 1.359 255 255 255
0.369608 -0.190672 1.162 255 255 255
0.394743 -0.0438712 1.294 255 255 255
-0.0220098 0.367246 1.409 255 255 255
0.253703 0.0537709 1.724 255 255 255
0.43505 -0.130825 1.007 255 255 255
-0.00826592 0.361134 1.412 255 255 255
0.164698 0.207504 1.571 255 255 255
-0.760593 -0.282179 2.044 255 255 255
0.465217 0.294499 1.412 255 255 255
0.220245 -0.121844 1.748 255 255 255
-0.485438 -0.17213 1.929 255 255 255
-0.971851 -0.766641 2.143 255 255 255
-0.106226 0.267172 1.532 255 255 255
-0.742743 0.222239 1.498 255 255 255
-0.813146 0.1767 1.719 255 255 255
-0.195184 0.0602086 1.748 255 255 255
-0.690962 -0.646505 2.312 255 255 255
-0.345869 -0.309847 2.051 255 255 255
0.0884566 -0.52352 1.677 255 255 255
-0.892615 0.0342887 1.887 255 255 255
0.487639 0.208014 1.289 255 255 255
-0.640282 0.401647 1.459 255 255 255
-0.0376119 0.214241 1.583 255 255 255
-0.753103 -0.461727 2.136 255 255 255
-0.0757033 0.270027 1.52 255 255 255
0.40571 0.258104 1.48 255 255 255
0.342881 0.0917347 1.603 255 255 255
0.465293 0.19903 1.327 255 255 255
0.230929 -0.331116 1.487 255 255 255
-1.08001 -0.737877 2.044 255 255 255
-0.58492 -0.628674 2.402 255 255 255
0.353456 -0.335602 1.032 255 255 255
-0.100212 0.315907 1.48 255 255 255
-0.266274 0.252243 1.579 255 255 255
-0.0988293 -0.180434 1.659 255 255 255
-0.929475 -0.800101 2.158 255 255 255
-0.70243 0.304403 1.583 255 255 255
0.523608 0.12758 1.043 255 255 255
-0.402324 0.30596 1.539 255 255 255
-0.56453 -0.431457 2.107 255 255 255
0.0916452 0.308147 1.466 255 255 255
0.335176 0.209832 1.532 255 255 255
-0.137867 0.416561 1.375 255 255 255
-0.454721 -0.751823 1.959 255 255 255
-0.409807 0.493919 1.342 255 255 255
0.361732 -0.240894 1.149 255 255 255
0.119936 0.355024 1.406 255 255 255
0.0535943 -0.0140727 1.789 255 255 255
0.0934599 0.23772 1.535 255 255 255
-0.479702 0.432817 1.406 255 255 255
-0.589034 0.471289 1.378 255 255 255
0.17948 -0.257053 1.739 255 255 255
0.243686 -0.290759 1.491 255 255 255
-0.42333 0.0149141 1.774 0 0 0
0.264145 0.388947 1.116 255 255 255
0.386991 -0.334435 0.906 255 255 255
-0.278267 0.444677 1.372 255 255 255
-0.374871 0.498332 1.319 255 255 255
-0.393743 0.4636 1.362 255 255 255
0.322727 0.39986 1.327 255 255 255
-0.10153 -0.164235 1.659 255 255 255
0.42911 -0.10455 1.092 255 255 255
-0.558456 0.0664632 1.763 0 0 0
-0.342513 0.266982 1.575 255 255 255
0.318733 -0.165209 1.375 255 255 255
0.478943 -0.0510789 0.986 255 255 255
-0.48979 0.41923 1.422 255 255 255
-0.600075 -0.309978 2.03 255 255 255
0.235385 -0.366748 1.359 255 255 255
-0.777576 0.229226 1.616 255 255 255
0.418745 -0.176407 1.044 255 255 255
-0.870358 -0.774117 2.204 255 255 255
0.403335 0.0883061 1.351 255 255 255
-0.860304 0.105584 1.794 255 255 255
0.350825 -0.270887 1.126 255 255 255
0.143195 0.422794 1.345 255 255 255
0.424208 -0.270665 0.845 255 255 255
0.258931 -0.402396 1.289 255 255 255
0.177319 -0.470515 1.484 255 255 255
-0.925869 -0.736096 2.166 255 255 255
0.481989 0.138046 1.192 255 255 255
-0.411898 -0.321887 2.064 255 255 255
-0.451375 -0.673361 2.03 255 255 255
-0.487555 0.514331 1.316 255 255 255
-0.523867 0.147202 1.734 255 255 255
-0.810425 -0.682721 2.32 0 0 0
0.360444 -0.279211 1.094 255 255 255
0.222221 -0.484037 1.283 255 255 255
-0.773416 0.177214 1.724 255 255 255
0.352359 0.347217 1.384 255 255 255
-0.753151 -0.127908 2.024 255 255 255
-0.400542 0.35853 1.477 255 255 255
0.340695 -0.166306 1.313 255 255 255
0.413519 -0.0697429 1.196 255 255 255
-0.316447 0.210296 1.612 255 255 255
-0.0749152 0.248409 1.555 255 255 255
0.38766 0.109809 1.494 255 255 255
-0.287138 -0.23199 1.905 255 255 255
0.320132 -0.297652 1.189 255 255 255
-0.210746 0.369575 1.445 255 255 255
-0.529265 0.121103 1.724 0 0 0
-1.05511 -0.723182 2.128 255 255 255
-0.687411 0.187235 1.305 255 255 255
0.470976 -0.00667565 1.07 255 255 255
0.110197 0.27458 1.491 255 255 255
0.414271 -0.270105 0.898 255 255 255
-0.744386 -0.485972 2.151 255 255 255
-0.948388 -0.600676 2.253 255 255 255
-0.40504 0.219249 1.62 255 255 255
-1.15662 -0.590737 2.189 255 255 255
0.0125662 0.0290011 1.753 255 255 255
-0.114127 0.462406 1.333 255 255 255
-0.135695 -0.299379 1.789 255 255 255
0.137277 0.483953 1.27 255 255 255
-0.950832 -0.183901 2.024 255 255 255
0.386358 -0.280749 1.004 255 255 255
0.359895 -0.26033 1.12 255 255 255
-0.0181571 -0.183914 1.691 255 255 255
0.108452 0.245214 1.535 255 255 255
-0.182736 0.477601 1.327 255 255 255
0.318981 0.265329 1.48 255 255 255
0.223143 -0.469715 1.313 255 255 255
0.529072 0.178159 1.104 255 255 255
-0.300485 -0.182963 1.911 255 255 255
0.569794 0.338311 1.135 255 255 255
-0.448382 0.303298 1.551 255 255 255
-0.736385 0.129581 1.763 255 255 255
0.447457 -0.185524 0.906 255 255 255
0.336194 -0.322299 1.12 255 255 255
0.331726 0.00769764 1.494 255 255 255
-0.747353 -0.096662 1.991 255 255 255
-0.586108 0.460824 1.387 255 255 255
0.0505405 -0.487248 1.784 255 255 255
-1.09121 -0.729861 2.078 255 255 255
-0.237321 0.0515567 1.744 255 255 255
0.0155077 -0.0339511 1.763 255 255 255
-0.16429 0.230278 1.587 255 255 255
-0.23109 0.257976 1.567 255 255 255
0.424356 0.363861 1.362 255 255 255
0.331536 -0.364228 1.037 255 255 255
0.450016 -0.0852051 1.03 255 255 255
0.331641 -0.359565 1.048 255 255 255
-0.621599 -0.622314 2.32 255 255 255
-0.808811 -0.753464 2.294 255 255 255
0.398137 -0.229604 1.009 255 255 255
0.323357 -0.350009 1.139 255 255 255
-0.491725 0.495033 1.351 255 255 255
-0.380351 -0.576685 2.004 0 0 0
-0.244497 -0.523016 1.539 255 255 255
0.026987 -0.452822 1.763 255 255 255
0.242375 -0.179822 1.629 255 255 255
0.0876381 -0.416654 1.831 255 255 255
0.183868 -0.399384 1.498 255 255 255
0.497178 0.229989 1.26 255 255 255
0.444304 -0.0528343 1.126 255 255 255
-0.134163 0.108097 1.696 255 255 255
-0.112725 0.371416 1.425 255 255 255
-0.570681 0.51331 1.33 255 255 255
0.437439 -0.122041 1.044 255 255 255
0.161703 0.393325 1.372 255 255 255
0.162057 0.296038 1.477 255 255 255
0.232664 0.449237 1.283 255 255 255
-0.526597 0.43374 1.409 255 255 255
-0.603212 0.428486 1.422 255 255 255
-0.172583 -0.23691 1.779 0 0 0
0.260638 -0.166594 1.579 255 255 255
-0.965912 -0.376057 2.085 255 255 255
0.238134 0.433692 1.205 255 255 255
-0.61728 0.295663 1.194 255 255 255
0.552375 0.275112 1.141 255 255 255
-0.502645 -0.474556 2.212 255 255 255
0.41752 -0.255207 0.918 255 255 255
-0.477862 0.401252 1.449 255 255 255
0.40174 0.00035799 1.324 255 255 255
0.0389244 -0.0401618 1.784 0 0 0
-0.717761 -0.642361 2.338 255 255 255
0.406931 -0.25126 0.96 255 255 255
-0.302512 0.270726 1.567 255 255 255
0.314615 0.185435 1.579 255 255 255
0.443769 -0.16377 0.942 255 255 255
-0.0322243 0.341586 1.456 255 255 255
-0.300176 -0.275721 1.929 255 255 255
0.3344 -0.12717 1.375 255 255 255
0.385282 -0.347637 0.902 255 255 255
-0.0780441 -0.573332 1.567 255 255 255
-0.0560404 0.449059 1.345 255 255 255
0.260988 -0.421063 1.239 255 255 255
-0.613159 -0.140239 1.966 255 255 255
0.311131 -0.179414 1.381 255 255 255
0.38698 -0.329123 0.92 255 255 255
0.403181 0.379906 1.075 255 255 255
-0.271209 0.272579 1.563 255 255 255
0.183473 -0.358979 1.624 255 255 255
0.376302 -0.137443 1.227 255 255 255
0.371599 -0.242677 1.106 255 255 255
0.248177 -0.140697 1.668 255 255 255
-0.634422 0.416057 1.435 255 255 255
-0.364024 0.0174497 1.739 0 0 0
0.424342 0.183807 1.445 255 255 255
0.382914 -0.255029 1.039 255 255 255
0.274823 0.237498 1.502 255 255 255
-0.18608 0.414783 1.384 255 255 255
-0.321375 0.36528 1.456 255 255 255
-0.0825245 0.277895 1.509 255 255 255
0.466819 0.290338 1.403 255 255 255
-0.577634 0.0782044 1.769 255 255 255
-0.829739 -0.270944 2.01 255 255 255
0.331363 -0.136714 1.381 255 255 255
0.344042 -0.349713 1.034 255 255 255
-0.174539 -0.383659 1.686 255 255 255
-0.348855 0.378454 1.452 255 255 255
0.427079 0.1553 1.4 255 255 255
-0.940465 -0.801006 2.151 255 255 255
-0.155915 -0.533514 1.555 255 255 255
-0.872189 -0.375628 2.064 255 255 255
-0.916973 -0.195697 2.044 255 255 255
0.312483 0.35474 1.387 255 255 255
-0.416589 0.327008 1.509 255 255 255
0.405928 0.0682354 1.39 255 255 255
-0.674439 0.0457326 1.853 0 0 0
-0.389934 0.453608 1.372 255 255 255
-0.0697892 -0.0730153 1.612 255 255 255
0.383614 -0.215909 1.089 255 255 255
0.176888 -0.0287892 1.799 255 255 255
0.514621 0.138132 1.1 255 255 255
0.128949 -0.0082271 1.784 255 255 255
0.383172 0.386909 1.342 255 255 255
0.451397 -0.206445 0.882 255 255 255
0.0529951 -0.506181 1.769 255 255 255
-0.581442 -0.223047 1.935 255 255 255
-0.647124 0.0939068 1.794 0 0 0
-0.452483 0.50153 1.339 255 255 255
0.112126 -0.505755 1.587 255 255 255
-0.634112 -0.780863 2.244 255 255 255
-0.219818 0.0406424 1.763 255 255 255
-0.421898 -0.580439 2.204 255 255 255
0.413574 -0.076815 1.185 255 255 255
-0.176465 -0.284823 1.789 255 255 255
0.487824 -0.00779546 0.991 255 255 255
-0.642346 -0.519232 2.173 255 255 255
-0.441369 -0.238502 1.985 255 255 255
0.0669955 0.330512 1.449 255 255 255
-0.446373 0.187946 1.646 255 255 255
0.474867 0.106764 1.234 255 255 255
-0.380529 0.076215 1.724 255 255 255
0.116701 0.457301 1.294 255 255 255
-0.0481957 -0.368218 1.784 255 255 255
0.377914 0.339303 1.114 255 255 255
0.0427667 0.421216 1.354 255 255 255
-0.852383 -0.558656 2.261 0 0 0
0.324887 0.39986 1.327 255 255 255
-0.8533 0.000519951 1.923 0 0 0
0.417362 -0.116901 1.108 255 255 255
0.300743 0.327568 1.406 255 255 255
-0.519575 -0.628997 2.303 255 255 255
-0.0978419 0.353114 1.445 255 255 255
0.242034 0.391485 1.059 255 255 255
0.292962 -0.120792 1.52 255 255 255
-0.358791 0.0729837 1.714 255 255 255
-0.269921 0.305716 1.513 255 255 255
-0.299569 -0.541125 1.664 255 255 255
-0.725712 0.129213 1.758 255 255 255
0.154975 0.449918 1.297 255 255 255
0.179828 -0.411047 1.505 255 255 255
0.174073 -0.0531384 1.831 255 255 255
0.427295 -0.0233594 1.213 255 255 255
0.135242 0.295236 1.473 255 255 255
-0.528 -0.148389 1.947 255 255 255
-0.0678735 0.151543 1.629 255 255 255
0.446811 0.0193726 1.171 255 255 255
0.139065 0.38801 1.369 255 255 255
0.460352 -0.0958114 0.984 255 255 255
0.268892 -0.0790871 1.629 255 255 255
-0.142038 -0.436909 1.659 255 255 255
0.18016 -0.35227 1.642 255 255 255
0.206317 0.402929 1.044 255 255 255
-0.412973 -0.728797 1.899 255 255 255
-0.238516 0.489655 1.313 255 255 255
0.440488 0.054774 1.239 255 255 255
-0.21346 -0.520637 1.532 255 255 255
0.00899791 0.169577 1.624 255 255 255
-0.168217 0.0935879 1.734 255 255 255
-0.128225 -0.462788 1.655 255 255 255
-0.350421 0.0701945 1.714 255 255 255
0.0811035 -0.331133 1.887 255 255 255
-1.04407 -0.741587 2.092 255 255 255
0.306422 -0.385392 1.145 255 255 255
-0.889378 -0.512368 2.189 255 255 255
0.0591947 0.445209 1.327 255 255 255
-0.377063 0.303773 1.528 255 255 255
0.255 -0.154536 1.642 255 255 255
-1.14463 -0.543985 2.173 255 255 255
0.38017 0.0548897 1.456 255 255 255
0.185854 0.172171 1.599 255 255 255
0.355707 -0.202428 1.198 255 255 255
0.192789 0.288045 1.473 255 255 255
0.350824 0.0453781 1.535 0 0 0
-1.1103 -0.498119 2.189 255 255 255
-0.751094 0.25021 1.535 255 255 255
-0.0255588 0.432233 1.354 255 255 255
-0.935366 -0.15212 2.085 255 255 255
0.0797022 0.42936 1.345 255 255 255
-0.499061 0.473637 1.359 255 255 255
-0.485997 0.159078 1.71 255 255 255
0.373504 -0.348183 0.935 255 255 255
-0.701811 -0.257195 2.057 255 255 255
-0.68965 0.244401 1.351 255 255 255
0.430377 -0.111462 1.073 255 255 255
0.304076 -0.316984 1.242 255 255 255
-0.848011 -0.741561 2.269 255 255 255
0.197437 -0.357064 1.547 255 255 255
-0.24118 -0.470991 1.583 255 255 255
-0.696779 0.309618 1.473 255 255 255
-0.804993 -0.194253 2.064 255 255 255
0.0185906 0.424983 1.359 255 255 255
-0.188114 -0.244065 1.789 255 255 255
0.226582 -0.107929 1.753 255 255 255
-0.321815 -0.232041 1.985 255 255 255
-0.369533 -0.183241 1.947 255 255 255
-0.0824269 -0.182692 1.655 255 255 255
0.248185 0.10248 1.65 255 255 255
-0.108568 -0.35172 1.774 255 255 255
-0.406276 0.165566 1.691 0 0 0
-0.176054 0.381815 1.412 255 255 255
0.19492 0.0986985 1.677 255 255 255
0.0771052 -0.195311 1.941 255 255 255
0.391033 -0.346395 0.895 255 255 255
0.0834168 -0.0938306 1.87 255 255 255
0.55762 0.271386 1.118 255 255 255
-0.736256 0.1721 1.729 255 255 255
-0.211164 0.082538 1.739 255 255 255
0.44579 0.25616 1.416 255 255 255
-0.896778 -0.503397 2.181 255 255 255
-0.62276 -0.146638 1.966 255 255 255
-0.710004 -0.772995 2.253 255 255 255
0.386743 -0.277757 1.005 255 255 255
0.0188674 -0.37653 1.81 255 255 255
-0.239257 -0.385614 1.659 255 255 255
-0.165644 -0.576468 1.528 255 255 255
0.222974 -0.405512 1.378 255 255 255
-0.807897 -0.822439 2.143 255 255 255
-0.877923 -0.771307 2.196 255 255 255
0.398692 -0.267693 0.986 255 255 255
0.455299 -0.164519 0.904 255 255 255
-0.64267 0.313275 1.563 255 255 255
-0.0423467 -0.520711 1.668 255 255 255
0.238104 0.429828 1.313 255 255 255
-0.654844 -0.618462 2.278 255 255 255
-0.602541 0.498321 1.348 255 255 255
-0.658667 0.0628953 1.826 0 0 0
-0.53367 0.495023 1.357 255 255 255
0.35774 -0.371011 0.975 255 255 255
-0.35206 0.430153 1.39 255 255 255
0.353519 0.306486 1.425 255 255 255
-1.07876 -0.445759 2.212 255 255 255
-0.299961 0.270726 1.567 255 255 255
0.274797 0.427763 1.275 255 255 255
-0.613159 -0.13384 1.966 255 255 255
-1.04341 -0.767813 2.044 255 255 255
-0.358883 -0.102354 1.859 255 255 255
-0.187225 0.360169 1.445 255 255 255
-0.674075 -0.387276 2.128 255 255 255
0.407946 -0.269237 0.92 255 255 255
0.211608 -0.148226 1.724 255 255 255
-0.313048 0.491666 1.33 255 255 255
0.30521 0.398717 1.345 255 255 255
0.579436 0.419965 1.205 255 255 255
-0.672576 0.139137 1.739 255 255 255
-0.0765909 -0.401855 1.705 255 255 255
0.410644 0.190549 1.498 255 255 255
0.318593 -0.410049 1.073 255 255 255
0.29698 -0.18604 1.432 255 255 255
0.179663 0.35777 1.39 255 255 255
0.4539 0.0689584 1.205 255 255 255
-0.73659 0.215099 1.691 255 255 255
0.16909 0.426219 1.342 255 255 255
-0.390011 0.510032 1.305 255 255 255
-0.820661 0.119512 1.784 255 255 255
0.430234 0.271562 1.449 255 255 255
0.257991 0.385207 1.09 255 255 255
0.252352 0.0456175 1.734 255 255 255
-0.0178671 -0.132236 1.664 255 255 255
-0.647074 0.260138 1.612 255 255 255
-0.595693 0.381964 1.484 255 255 255
0.255513 0.337438 1.409 255 255 255
0.346989 -0.0256696 1.456 255 255 255
0.441683 -0.103551 1.046 255 255 255
0.423784 -0.24235 0.909 255 255 255
-0.627113 -0.0243619 1.911 0 0 0
0.372391 0.371868 1.072 255 255 255
0.319858 0.403336 1.032 255 255 255
-1.02239 -0.139312 1.953 255 255 255
0.169599 0.328231 1.439 255 255 255
0.21143 -0.18766 1.7 255 255 255
0.341299 -0.347189 1.073 255 255 255
-0.185542 -0.554089 1.528 255 255 255
0.00301389 0.45755 1.319 255 255 255
-0.254436 -0.0788198 1.805 0 0 0
0.20942 0.321206 1.439 255 255 255
0.0802648 -0.192153 1.941 255 255 255
-0.762649 0.199645 1.7 255 255 255
0.252927 0.188004 1.579 255 255 255
-0.0278049 0.186687 1.612 255 255 255
-0.875125 -0.779535 2.189 255 255 255
0.352334 -0.195348 1.227 255 255 255
0.410897 0.391575 1.05 255 255 255
-0.712724 -0.296604 2.099 255 255 255
-0.781819 -0.115073 2.03 0 0 0
0.551999 0.246427 1.096 255 255 255
0.0715713 0.476603 1.278 255 255 255
0.0196701 -0.297354 1.887 255 255 255
0.282405 0.403353 1.185 255 255 255
-0.622841 -0.0493951 1.917 255 255 255
0.514916 0.300309 1.289 255 255 255
0.483588 0.174905 1.262 255 255 255
0.434271 -0.134369 1.009 255 255 255
0.106429 -0.41199 1.748 255 255 255
0.277459 -0.128699 1.587 255 255 255
0.49278 -0.00777186 0.988 255 255 255
0.310627 0.0275948 1.668 255 255 255
-0.0327318 -0.205522 1.734 255 255 255
0.145267 0.246582 1.528 255 255 255
0.452564 -0.126808 0.964 255 255 255
-0.426822 -0.0203068 1.826 0 0 0
0.182326 0.480748 1.267 0 0 0
0.487772 0.357602 1.372 255 255 255
-0.484779 0.168815 1.696 255 255 255
-0.0412772 0.480464 1.294 255 255 255
-0.105255 -0.0181605 1.633 255 255 255
0.228976 0.42632 1.322 255 255 255
-0.618807 0.301327 1.567 255 255 255
0.397642 -0.271132 0.964 255 255 255
0.353377 -0.0981304 1.345 255 255 255
0.0341898 0.224826 1.567 255 255 255
0.0315571 0.0945193 1.7 255 255 255
-0.743284 -0.765286 2.189 255 255 255
0.102541 -0.383878 1.831 255 255 255
0.299411 -0.316678 1.265 255 255 255
0.288053 -0.260211 1.357 255 255 255
-0.891577 -0.654115 2.286 255 255 255
0.542789 0.231511 1.11 255 255 255
-0.641938 0.404445 1.452 255 255 255
0.161094 0.059382 1.724 255 255 255
0.453233 -0.177843 0.897 255 255 255
-0.498815 0.316799 1.543 255 255 255
0.427775 -0.0115822 1.22 255 255 255
0.236427 -0.260221 1.555 255 255 255
0.443487 0.0541551 1.225 255 255 255
-1.12399 -0.645365 2.181 255 255 255
0.160564 -0.527597 1.442 255 255 255
-0.770419 -0.0600411 1.959 255 255 255
0.329795 -0.393838 1.053 255 255 255
0.392866 0.10856 1.477 255 255 255
0.315412 0.330726 1.4 255 255 255
0.228485 0.301306 1.456 255 255 255
0.481903 -0.00629508 1.009 255 255 255
0.518629 0.225833 1.205 255 255 255
-0.0273047 0.221969 1.583 255 255 255
0.48418 0.0123264 1.057 255 255 255
-0.65562 -0.174807 1.959 255 255 255
0.402455 -0.303265 0.901 255 255 255
-0.212864 -0.307618 1.753 255 255 255
0.435794 -0.184869 0.948 255 255 255
-0.629696 0.326883 1.27 255 255 255
-0.550811 -0.39374 2.107 255 255 255
-0.26593 -0.133034 1.865 0 0 0
-0.176618 0.256659 1.559 255 255 255
-0.999803 -0.373915 2.092 255 255 255
0.434247 -0.237551 0.891 255 255 255
-0.598109 0.374719 1.484 255 255 255
0.420051 -0.24896 0.917 255 255 255
0.218021 -0.116487 1.753 255 255 255
-0.542489 0.297739 1.575 255 255 255
-0.415651 -0.225935 2.017 255 255 255
0.274689 0.405281 1.185 255 255 255
0.519317 0.135089 1.062 255 255 255
-0.495368 0.0239867 1.805 0 0 0
0.342955 -0.232982 1.215 255 255 255
-0.710466 -0.770451 2.278 255 255 255
0.393664 0.255695 1.48 255 255 255
0.0359195 -0.100845 1.779 255 255 255
0.334257 -0.101434 1.422 255 255 255
-0.0510444 0.347736 1.452 255 255 255
0.0171996 0.137386 1.65 255 255 255
0.167202 0.131696 1.646 255 255 255
0.409902 -0.045333 1.22 255 255 255
0.451068 -0.198955 0.887 255 255 255
-0.638915 -0.602809 2.261 255 255 255
-0.0425752 -0.482585 1.677 255 255 255
-0.761761 -0.0340087 1.929 255 255 255
0.120448 0.354241 1.412 255 255 255
-0.585995 0.323666 1.528 255 255 255
-0.130597 -0.295198 1.799 255 255 255
-0.623599 -0.0842346 1.929 255 255 255
0.451068 -0.203285 0.887 255 255 255
0.504926 0.145667 1.16 255 255 255
-0.596005 -0.0243619 1.911 255 255 255
-0.173407 -0.319939 1.758 255 255 255
0.234187 0.107588 1.646 255 255 255
0.327309 -0.281417 1.194 255 255 255
-1.14245 -0.592626 2.196 255 255 255
0.302151 -0.36395 1.21 255 255 255
0.404325 -0.242511 0.988 255 255 255
0.374458 -0.288845 1.039 255 255 255
0.426141 -0.151512 1.025 255 255 255
-0.0345702 -0.476944 1.686 255 255 255
0.18437 -0.0438133 1.815 255 255 255
0.451867 -0.172109 0.921 255 255 255
0.417399 0.0389927 1.319 255 255 255
0.380975 0.335702 1.145 255 255 255
-0.250337 0.476448 1.342 255 255 255
-1.04236 -0.581905 2.196 255 255 255
-1.07926 -0.693191 2.121 255 255 255
-0.432102 0.245643 1.603 255 255 255
0.264883 -0.140746 1.637 255 255 255
-0.537634 -0.520016 2.253 255 255 255
0.310854 0.330726 1.4 255 255 255
0.150365 0.230696 1.555 255 255 255
-0.287138 -0.191689 1.905 255 255 255
0.0601547 0.208561 1.579 255 255 255
-0.686272 -0.815157 2.189 255 255 255
-0.0778449 0.2446 1.563 255 255 255
-0.4289 0.485115 1.354 255 255 255
0.0415217 0.235757 1.555 255 255 255
0.314691 -0.291177 1.244 255 255 255
-0.261347 0.501346 1.299 255 255 255
-0.6991 0.0127933 1.887 255 255 255
-0.207995 -0.513147 1.547 255 255 255
-0.561657 0.352772 1.083 255 255 255
0.096626 0.204452 1.587 255 255 255
-0.13698 0.377219 1.412 255 255 255
0.210379 -0.0849291 1.81 255 255 255
0.479664 0.221441 1.319 255 255 255
-0.0214794 0.252708 1.535 255 255 255
-0.603648 -0.79866 2.253 255 255 255
0.141369 -0.548901 1.487 255 255 255
0.350153 -0.272601 1.118 255 255 255
-0.604064 -0.240273 1.947 255 255 255
-0.908474 -0.672556 2.236 255 255 255
-0.0746076 0.290496 1.498 255 255 255
-0.713019 -0.0696049 1.959 255 255 255
0.362778 0.362252 1.085 255 255 255
0.276919 -0.200444 1.487 255 255 255
0.281426 -0.291127 1.357 255 255 255
-0.312687 0.135296 1.691 255 255 255
0.556411 0.311461 1.173 255 255 255
-0.595379 0.0873315 1.779 0 0 0
0.439486 -0.242439 0.867 255 255 255
-0.184328 -0.142161 1.753 255 255 255
0.0485314 0.171796 1.62 255 255 255
0.265492 0.409828 1.187 255 255 255
0.444532 -0.125141 0.988 255 255 255
-0.0281957 -0.234498 1.805 0 0 0
0.133322 -0.180665 1.887 0 0 0
0.591786 0.402394 1.16 255 255 255
-0.579699 0.335575 1.132 255 255 255
0.43375 0.277867 1.445 255 255 255
0.396193 -0.0346537 1.265 255 255 255
-0.483615 0.018112 1.805 0 0 0
-0.680082 0.28264 1.591 255 255 255
0.365469 -0.18866 1.173 255 255 255
-0.231456 -0.469599 1.587 255 255 255
0.289583 -0.0881469 1.555 255 255 255
0.240639 -0.374425 1.339 255 255 255
0.458816 0.214887 1.359 0 0 0
0.0465684 0.0515567 1.744 255 255 255
-0.718553 -0.2505 2.057 255 255 255
-0.129324 -0.379659 1.705 255 255 255
-0.0258985 0.417885 1.372 255 255 255
0.482248 0.359048 1.369 255 255 255
0.169076 0.347955 1.396 255 255 255
-0.544806 -0.808007 2.151 0 0 0
0.0489232 0.30003 1.473 255 255 255
-0.0567488 0.430354 1.362 255 255 255
-0.454447 0.448864 1.378 255 255 255
0.0749406 0.312918 1.466 255 255 255
-0.967305 -0.17402 2.024 255 255 255
-0.676021 -0.13104 1.972 255 255 255
0.46168 -0.131439 0.941 255 255 255
-1.07784 -0.620521 2.181 255 255 255
-0.572332 0.465573 1.381 255 255 255
-0.281488 0.0871835 1.719 255 255 255
0.131483 -0.0110991 1.779 255 255 255
-0.140987 0.18715 1.616 255 255 255
0.254937 -0.43921 1.239 255 255 255
0.402269 0.326806 1.393 255 255 255
-0.712724 -0.41274 2.099 255 255 255
0.144736 0.427445 1.339 255 255 255
0.0222157 0.169577 1.624 255 255 255
-0.46021 0.265762 1.583 255 255 255
0.443944 -0.214833 0.893 255 255 255
0.300684 -0.0549662 1.547 255 255 255
-0.506631 0.237116 1.616 255 255 255
0.494827 0.255779 1.308 255 255 255
0.232365 -0.217985 1.579 255 255 255
-0.0238582 0.0975718 1.705 255 255 255
-0.468184 -0.330969 2.017 255 255 255
0.242763 -0.44682 1.249 255 255 255
-0.0287496 0.471751 1.299 255 255 255
0.236802 0.248428 1.509 255 255 255
-0.463698 0.252203 1.595 255 255 255
-0.705453 0.325996 1.539 255 255 255
0.288372 0.383554 1.369 255 255 255
-0.0395946 0.466505 1.308 255 255 255
0.0777685 -0.544241 1.682 255 255 255
-0.392211 0.427467 1.396 255 255 255
-0.0255714 -0.564312 1.637 255 255 255
0.207965 -0.413544 1.429 255 255 255
-0.225488 0.330357 1.48 255 255 255
-0.203162 0.406146 1.393 255 255 255
-0.853279 -0.558107 2.244 0 0 0
0.347961 -0.324186 1.072 255 255 255
-0.364024 0.0231096 1.739 0 0 0
-0.208394 0.369575 1.445 255 255 255
0.0156553 0.463295 1.299 255 255 255
0.56747 0.342484 1.149 255 255 255
-0.978382 -0.749084 2.173 255 255 255
0.334337 0.251557 1.484 255 255 255
0.295892 0.273663 1.473 255 255 255
-0.537741 0.260642 1.599 255 255 255
0.399087 0.0246944 1.359 255 255 255
0.0936871 -0.128871 1.893 255 255 255
0.58511 0.38474 1.158 255 255 255
0.272032 0.396873 1.055 255 255 255
-0.154521 -0.474091 1.62 255 255 255
-0.691011 0.318362 1.563 255 255 255
-0.427809 0.136016 1.7 255 255 255
-0.197259 0.211731 1.603 255 255 255
-0.622116 -0.449609 2.128 255 255 255
-0.0547492 0.154572 1.633 255 255 255
0.116528 0.328154 1.449 255 255 255
-0.478721 0.309266 1.543 255 255 255
-0.651999 -0.0212521 1.911 255 255 255
-0.697534 0.212673 1.345 255 255 255
0.0645135 0.0119933 1.769 255 255 255
-0.718528 0.313394 1.551 255 255 255
-0.705297 0.174914 1.729 255 255 255
-0.195517 0.299996 1.509 255 255 255
0.302591 0.375357 1.072 255 255 255
-0.222297 0.266807 1.559 255 255 255
-0.155005 0.472187 1.33 255 255 255
0.349766 -0.214964 1.225 255 255 255
-0.893812 -0.170221 2.099 255 255 255
-0.15677 -0.493959 1.616 255 255 255
0.274876 0.170879 1.587 255 255 255
0.378009 0.067195 1.466 0 0 0
-0.0862381 0.476054 1.305 255 255 255
0.495119 0.0396216 1.051 255 255 255
-0.7223 -0.304592 2.107 255 255 255
-0.29804 -0.485175 1.686 255 255 255
0.289583 -0.0805554 1.555 255 255 255
-0.394973 -0.569482 2.136 255 255 255
0.414385 0.0717831 1.33 255 255 255
0.468358 -0.119653 0.921 255 255 255
-0.719877 -0.83251 2.151 255 255 255
-0.138284 0.273935 1.528 255 255 255
0.319215 -0.372665 1.118 255 255 255
0.136528 0.285943 1.487 255 255 255
-0.397309 0.423665 1.406 255 255 255
-0.530158 -0.0179144 1.887 255 255 255
0.266607 -0.412332 1.237 255 255 255
-0.0748045 0.193953 1.607 255 255 255
-0.753708 0.00051184 1.893 255 255 255
-0.191189 0.379891 1.422 255 255 255
0.427003 -0.264207 0.888 255 255 255
-0.504636 -0.589095 2.338 255 255 255
0.0394919 0.213158 1.575 255 255 255
-0.562177 0.144796 1.739 255 255 255
0.308451 -0.408667 1.112 255 255 255
-0.474349 -0.191559 1.935 255 255 255
-0.0358415 -0.400612 1.748 255 255 255
0.407774 -0.265609 0.923 255 255 255
-0.0514609 -0.450473 1.7 255 255 255
-0.508862 0.321821 1.543 255 255 255
0.434922 -0.0551037 1.135 255 255 255
-0.204462 0.467712 1.342 255 255 255
-0.339261 0.075773 1.714 255 255 255
-0.836071 0.0722424 1.837 255 255 255
0.379295 -0.2628 1.043 255 255 255
0.178713 0.313153 1.456 255 255 255
-0.66022 -0.401127 2.128 255 255 255
0.0930755 0.375679 1.381 255 255 255
-0.488582 0.101759 1.729 255 255 255
-0.826062 -0.26204 2.017 255 255 255
-0.72145 0.166954 1.734 255 255 255
-0.135924 0.410743 1.378 255 255 255
-0.652963 -0.0683258 1.923 255 255 255
-0.596704 0.476976 1.375 255 255 255
0.364089 -0.353558 0.975 255 255 255
0.40086 0.312881 1.412 255 255 255
0.270544 0.379098 1.369 255 255 255
-0.0194504 0.38039 1.39 255 255 255
0.470473 0.101964 1.249 255 255 255
0.176082 0.265408 1.494 255 255 255
-1.15379 -0.390347 2.204 255 255 255
-0.364024 0.0202797 1.739 0 0 0
0.353537 -0.08777 1.354 255 255 255
0.0781846 0.0995225 1.691 255 255 255
0.372978 -0.242492 1.089 255 255 255
0.091163 -0.389182 1.842 255 255 255
0.4669 0.0544902 1.11 255 255 255
0.0801759 0.150706 1.62 255 255 255
0.245291 0.0373663 1.744 255 255 255
-0.377735 0.210818 1.616 255 255 255
-0.158072 -0.0626487 1.686 255 255 255
-0.153596 -0.282699 1.794 255 255 255
0.0145206 0.369876 1.393 255 255 255
-0.356987 0.268861 1.571 255 255 255
0.530056 0.138926 1.039 255 255 255
-0.615069 0.109871 1.769 255 255 255
0.342877 -0.187497 1.297 255 255 255
-0.551578 0.290786 1.579 255 255 255
0.323799 -0.0863039 1.48 255 255 255
-0.940013 -0.750936 2.158 255 255 255
-0.0684152 0.147408 1.642 255 255 255
-0.270704 -0.0281331 1.758 255 255 255
-0.582628 0.112048 1.758 255 255 255
-0.357576 0.481841 1.351 255 255 255
-0.526678 -0.667712 2.269 0 0 0
0.477721 0.388089 1.302 255 255 255
-0.937385 -0.608009 2.253 255 255 255
-0.940013 -0.0216524 1.947 255 255 255
0.531658 0.360435 1.294 255 255 255
-0.399411 -0.625351 1.923 255 255 255
0.246816 -0.314991 1.425 255 255 255
-0.902427 -0.372269 2.064 255 255 255
0.337676 0.192738 1.555 255 255 255
-0.190517 -0.541657 1.528 255 255 255
-0.370167 0.186005 1.629 255 255 255
-0.123189 0.379517 1.412 255 255 255
-0.10178 0.177068 1.62 255 255 255
-0.473741 0.317655 1.535 255 255 255
-1.09733 -0.322688 2.136 255 255 255
-0.594907 0.245611 1.62 255 255 255
-0.313089 0.388737 1.429 255 255 255
-0.609797 0.342648 1.513 255 255 255
-0.0223749 0.198192 1.599 255 255 255
0.131325 0.149257 1.633 255 255 255
0.189595 -0.0921748 1.837 255 255 255
-0.0321844 0.103121 1.705 0 0 0
0.405909 -0.327818 0.847 255 255 255
0.283762 0.42459 1.297 255 255 255
0.34768 -0.0161142 1.449 255 255 255
0.274979 -0.273598 1.403 255 255 255
-0.62845 0.269643 1.208 255 255 255
-0.100134 -0.279591 1.831 255 255 255
0.256889 -0.151402 1.637 255 255 255
-0.572303 0.21741 1.646 255 255 255
-0.145913 0.36858 1.432 255 255 255
0.382014 -0.273464 1.032 255 255 255
0.368596 0.363504 1.369 255 255 255
0.138959 0.146241 1.629 255 255 255
-0.911911 -0.747425 2.158 255 255 255
-0.25297 -0.214287 1.859 255 255 255
0.27362 0.0692525 1.691 255 255 255
0.569091 0.336386 1.141 255 255 255
0.418798 -0.161402 1.057 255 255 255
0.403005 -0.25889 0.977 255 255 255
-0.362976 -0.168991 1.929 255 255 255
0.455258 -0.148222 0.931 255 255 255
0.130537 0.194611 1.591 255 255 255
-0.319005 0.36291 1.456 255 255 255
-0.169187 0.0770992 1.744 255 255 255
-0.29462 0.0980869 1.714 255 255 255
0.194888 0.212076 1.567 255 255 255
-0.814961 0.15452 1.753 255 255 255
-0.82842 -0.47197 2.151 255 255 255
-0.209698 -0.572689 1.505 255 255 255
-1.066 -0.762554 2.03 255 255 255
-1.08929 -0.705759 2.107 255 255 255
0.182311 -0.203284 1.739 255 255 255
-0.183551 -0.340815 1.719 255 255 255
0.398672 0.37886 1.077 255 255 255
0.514206 0.206835 1.232 255 255 255
-0.654992 -0.780328 2.253 255 255 255
-0.546648 0.459559 1.39 255 255 255
-0.266097 0.12012 1.71 255 255 255
0.249393 0.400496 1.351 255 255 255
-0.547502 0.0466698 1.774 255 255 255
0.538333 0.19212 1.062 255 255 255
-0.587579 -0.562976 2.22 255 255 255
0.469338 -0.0890653 0.963 255 255 255
0.266256 -0.441981 1.208 255 255 255
0.110508 -0.37757 1.815 255 255 255
-0.858127 -0.00895112 1.941 255 255 255
-0.170619 -0.576468 1.528 255 255 255
-0.0430576 0.0832571 1.696 255 255 255
-0.660781 0.299845 1.324 255 255 255
-0.902614 -0.426967 2.136 255 255 255
-0.232448 0.271881 1.559 255 255 255
0.277071 -0.317059 1.336 255 255 255
-0.198596 0.0546754 1.753 255 255 255
0.523249 0.26347 1.225 255 255 255
0.482683 0.00540999 1.05 255 255 255
-0.191388 -0.345403 1.714 255 255 255
-0.354241 0.0592097 1.719 255 255 255
-0.583446 0.261294 1.603 255 255 255
0.345706 -0.344641 1.039 255 255 255
-0.0767878 0.495388 1.289 255 255 255
0.00988441 -0.38854 1.784 255 255 255
0.435677 -0.25965 0.854 255 255 255
-1.11743 -0.46755 2.196 255 255 255
-0.0517636 -0.430861 1.71 255 255 255
0.243181 0.0482996 1.729 255 255 255
-0.413217 -0.680667 1.929 255 255 255
0.328868 0.12465 1.624 255 255 255
0.172509 -0.199835 1.784 255 255 255
-0.422942 0.381321 1.463 255 255 255
0.387054 -0.263387 1.032 255 255 255
0.235149 -0.39799 1.345 255 255 255
-0.0741234 -0.361396 1.779 255 255 255
0.282843 -0.0420773 1.633 255 255 255
0.141287 -0.255754 1.831 0 0 0
0.362501 -0.188184 1.182 255 255 255
0.0177208 -0.494736 1.7 255 255 255
0.539044 0.174508 1.06 255 255 255
-0.512616 -0.34751 2.037 255 255 255
0.00608438 0.238287 1.555 255 255 255
0.129376 0.139392 1.642 255 255 255
-0.0800363 0.00304963 1.607 0 0 0
-0.547729 0.484695 1.359 255 255 255
0.231529 -0.0570966 1.769 255 255 255
0.304325 -0.190335 1.412 255 255 255
0.358918 0.286676 1.466 255 255 255
-0.381469 0.33192 1.487 255 255 255
-0.551341 0.492814 1.357 255 255 255
0.281989 -0.131165 1.555 255 255 255
0.416215 -0.311071 0.854 255 255 255
0.362259 -0.305282 1.073 255 255 255
-0.699479 -0.451581 2.121 255 255 255
0.107229 0.202378 1.591 255 255 255
-1.05242 -0.69826 2.158 255 255 255
-0.904453 -0.387533 2.092 255 255 255
0.310966 0.307991 1.432 255 255 255
0.53296 0.28433 1.229 0 0 0
-1.02463 -0.573265 2.204 255 255 255
0.239515 0.450586 1.275 255 255 255
-0.524584 0.192056 1.682 255 255 255
0.312351 -0.202795 1.357 255 255 255
0.282381 0.398298 1.351 255 255 255
0.0628525 0.355781 1.409 255 255 255
-0.915393 -0.29519 1.997 255 255 255
0.1998 -0.106189 1.821 255 255 255
-0.214496 0.500574 1.297 255 255 255
-0.305066 -0.494864 1.71 255 255 255
-0.0692286 0.382652 1.39 255 255 255
0.121147 -0.284268 1.842 255 255 255
-0.219461 0.36291 1.456 255 255 255
0.228197 0.418079 1.33 255 255 255
-0.427641 0.479565 1.357 255 255 255
0.185823 0.308414 1.456 255 255 255
0.362842 0.230165 1.502 255 255 255
-0.258715 0.32796 1.491 255 255 255
-0.0814673 -0.426074 1.691 255 255 255
-0.135873 0.225113 1.587 255 255 255
-0.835138 -0.641015 2.347 255 255 255
0.458956 0.356038 1.366 255 255 255
0.337731 0.0692743 1.567 255 255 255
0.315933 -0.265582 1.257 255 255 255
-0.216498 0.12319 1.714 255 255 255
-0.502559 0.391645 1.466 255 255 255
-1.08271 -0.682836 2.121 255 255 255
-0.072003 0.439816 1.357 255 255 255
0.0215004 0.000482368 1.784 255 255 255
0.116353 -0.111437 1.911 255 255 255
-0.835747 -0.223721 2.057 255 255 255
-0.0363409 -0.0423092 1.642 255 255 255
-0.646101 0.411386 1.435 255 255 255
0.288651 -0.246834 1.381 255 255 255
0.254556 0.298937 1.456 255 255 255
-0.104544 -0.145775 1.664 255 255 255
0.434926 -0.128785 1.03 255 255 255
0.368691 0.0818219 1.516 255 255 255
-0.57009 -0.00870209 1.887 255 255 255
0.436412 -0.0860926 1.106 255 255 255
0.25308 -0.0363188 1.739 255 255 255
0.197917 -0.0918737 1.831 255 255 255
-0.483933 0.410191 1.439 255 255 255
-0.523868 0.473854 1.366 255 255 255
0.252939 -0.0687018 1.7 255 255 255
0.00534486 0.420503 1.366 255 255 255
-0.79125 0.0189348 1.887 255 255 255
-0.292416 -0.178724 1.899 255 255 255
-0.141751 -0.526473 1.595 255 255 255
0.288357 0.215239 1.535 255 255 255
-0.177195 0.082538 1.739 255 255 255
-0.206928 0.486491 1.316 255 255 255
-0.76033 0.158946 1.739 255 255 255
0.379991 -0.327053 0.967 255 255 255
0.406428 0.0476709 1.384 255 255 255
-0.584356 -0.13384 1.966 255 255 255
0.189402 0.335859 1.412 255 255 255
0.541524 0.268698 1.178 255 255 255
-0.102995 0.477078 1.302 255 255 255
0.586961 0.406904 1.173 255 255 255
0.430398 -0.165717 1 255 255 255
-0.0586678 0.202887 1.595 255 255 255
-0.543726 0.423248 1.13 255 255 255
-0.597285 0.497231 1.351 255 255 255
-0.107947 0.302882 1.487 255 255 255
-0.520053 -0.12898 1.941 0 0 0
-0.161351 0.360169 1.445 255 255 255
-0.13941 0.498421 1.286 255 255 255
-0.716715 -0.102469 1.978 0 0 0
-0.0123151 -0.559379 1.646 255 255 255
-0.654537 0.176186 1.714 255 255 255
-0.799119 -0.0696049 1.959 255 255 255
0.503025 0.0459273 1.002 255 255 255
-0.724663 0.239044 1.452 255 255 255
-0.398035 0.174172 1.668 255 255 255
-0.782671 -0.749731 2.294 255 255 255
0.424963 -0.272243 0.833 255 255 255
0.371314 -0.154667 1.237 255 255 255
-0.499547 -0.125432 1.935 255 255 255
-0.83676 0.153286 1.739 255 255 255
0.591197 0.449842 1.201 255 255 255
0.401498 0.122159 1.439 255 255 255
-0.746097 0.285181 1.535 255 255 255
0.494599 0.300893 1.348 255 255 255
0.425335 -0.240076 0.906 255 255 255
0.346371 0.393301 1.041 255 255 255
-0.273399 0.471997 1.348 255 255 255
0.438212 -0.209436 0.927 255 255 255
0.335904 -0.135823 1.372 255 255 255
0.229253 0.388242 1.362 255 255 255
0.160179 0.442075 1.305 255 255 255
-0.371326 -0.576485 1.876 255 255 255
-0.525681 -0.556989 2.347 255 255 255
0.329491 0.291027 1.452 255 255 255
-0.14879 -0.528998 1.587 255 255 255
0.448368 0.0579997 1.222 255 255 255
-1.08243 -0.712617 2.107 255 255 255
-0.550521 0.224213 1.637 255 255 255
0.56276 0.320838 1.132 255 255 255
-0.605689 0.172992 1.71 255 255 255
0.00570875 0.328044 1.459 255 255 255
-0.540273 -0.0745845 1.923 255 255 255
0.248699 -0.0365068 1.748 255 255 255
-0.915423 -0.747425 2.158 255 255 255
0.270212 -0.103451 1.637 255 255 255
-0.0755959 0.156363 1.624 255 255 255
-0.692532 0.316173 1.459 255 255 255
0.335862 -0.155038 1.345 255 255 255
-0.763571 -0.0666543 1.966 255 255 255
0.185506 -0.3015 1.642 255 255 255
0.393044 -0.275779 0.992 255 255 255
-0.163447 0.495204 1.294 255 255 255
-0.344727 -0.0776902 1.848 255 255 255
-0.270514 0.276955 1.559 255 255 255
-0.00173646 -0.36925 1.789 255 255 255
-0.20099 -0.453387 1.612 255 255 255
0.456622 0.385441 1.239 0 0 0
0.27126 0.394679 1.154 255 255 255
-0.164822 0.0376663 1.758 0 0 0
-0.189355 0.453733 1.359 255 255 255
-0.327056 0.403932 1.409 255 255 255
0.353866 -0.258301 1.16 255 255 255
0.371805 -0.21866 1.112 255 255 255
0.228323 -0.0286292 1.789 255 255 255
-0.841299 -0.230695 2.03 255 255 255
