ply
format ascii 1.0
comment Created by Open3D
element vertex 1290
property double x
property double y
property double z
property uchar red
property uchar green
property uchar blue
end_header
0.34653 -0.289849 0.857 255 255 255
-0.14596 0.147786 0.447 255 255 255
-0.127957 0.0850404 0.636 255 255 255
-0.186551 -0.0362367 0.508 255 255 255
0.324165 -0.261879 0.942 255 255 255
-0.295511 0.0952102 0.596 255 255 255
-0.161846 0.0432675 0.53 255 255 255
-0.0739384 -0.314877 0.817 255 255 255
0.0710893 0.0343157 0.723 255 255 255
0.0250891 0.172904 0.448 255 255 255
-0.0827324 -0.0208457 0.561 255 255 255
-0.0893829 -0.18518 0.52 255 255 255
-0.226945 0.152536 0.446 255 255 255
0.190824 -0.0287163 0.847 255 255 255
0.351971 -0.211689 0.892 255 255 255
0.0204453 -0.177143 0.872 255 255 255
-0.215211 -0.065377 0.485 255 255 255
-0.205184 -0.0259539 0.501 255 255 255
-0.0699976 -0.16709 0.527 255 255 255
-0.205035 0.0714831 0.654 255 255 255
-0.234279 -0.0485008 0.482 255 255 255
-0.192621 -0.143948 0.476 255 255 255
-0.113038 -0.0350043 0.54 255 255 255
0.394554 -0.136386 0.815 255 255 255
-0.165522 -0.117139 0.497 255 255 255
-0.201669 -0.149782 0.47 255 255 255
-0.200391 0.0961939 0.527 255 255 255
-0.0139379 0.107357 0.549 0 0 0
0.242084 0.121415 0.54 255 255 255
0.192639 -0.144837 0.874 0 0 0
-0.0221381 -0.259447 0.872 255 255 255
-0.154431 0.162557 0.434 255 255 255
0.339426 -0.205082 0.921 255 255 255
-0.178019 -0.0348556 0.512 255 255 255
-0.212492 0.0980171 0.523 255 255 255
0.0976083 0.0841807 0.622 255 255 255
-0.165376 -0.0702688 0.509 255 255 255
-0.117254 -0.128335 0.516 255 255 255
0.201574 -0.249795 0.772 255 255 255
0.353735 -0.303192 0.825 255 255 255
0.0803669 0.163978 0.464 0 0 0
-0.0728751 -0.31203 0.82 255 255 255
-0.117081 0.0380831 0.555 255 255 255
0.143412 0.13648 0.514 255 255 255
0.410679 -0.0652823 0.805 255 255 255
0.0404352 -0.217326 0.791 255 255 255
-0.196316 0.0980171 0.523 255 255 255
0.365256 -0.247375 0.836 255 255 255
-0.00773097 0.0376883 0.72 255 255 255
-0.23699 0.0563906 0.501 255 255 255
0.277608 0.084508 0.617 255 255 255
-0.240732 0.0270941 0.502 255 255 255
-0.063982 -0.00357491 0.573 255 255 255
-0.0248624 -0.265319 0.868 255 255 255
0.13915 -0.142443 0.843 255 255 255
0.352965 -0.313548 0.817 255 255 255
-0.107734 0.127718 0.481 255 255 255
0.250273 -0.0625262 0.857 255 255 255
-0.0251202 -0.246663 0.877 255 255 255
-0.197422 -0.0358087 0.502 255 255 255
-0.218587 -0.0736007 0.482 255 255 255
0.28793 0.0880773 0.607 255 255 255
-0.236382 0.0827673 0.619 255 255 255
-0.175668 -0.115575 0.487 255 255 255
-0.123859 0.00640227 0.549 255 255 255
-0.240373 -0.0141625 0.488 255 255 255
0.397602 -0.0643247 0.844 255 255 255
0.182225 0.120765 0.545 255 255 255
-0.0445572 -0.121347 0.541 0 0 0
0.0468568 0.16931 0.454 255 255 255
-0.246844 -0.06222 0.473 255 255 255
-0.133628 -0.136265 0.508 255 255 255
0.25804 -0.0568148 0.855 255 255 255
-0.046583 0.00297292 0.577 0 0 0
0.299629 0.0937659 0.593 0 0 0
-0.0675767 -0.145249 0.535 255 255 255
0.333899 -0.080204 0.989 255 255 255
-0.0327759 0.10718 0.582 255 255 255
0.136132 0.0299371 0.731 255 255 255
0.0633045 0.119414 0.509 255 255 255
0.21215 0.100288 0.586 0 0 0
-0.163952 0.129488 0.476 255 255 255
-0.180372 0.0827084 0.642 255 255 255
-0.19206 0.0631223 0.523 255 255 255
-0.228954 0.154792 0.436 255 255 255
-0.208232 -0.137071 0.471 255 255 255
0.159113 -0.0383647 0.847 0 0 0
-0.125781 -0.109867 0.52 255 255 255
0.27911 -0.0327735 0.882 255 255 255
0.124981 -0.0476163 0.84 255 255 255
0.0932487 0.162345 0.468 255 255 255
-0.183953 0.153014 0.437 255 255 255
-0.0576642 0.143435 0.509 255 255 255
0.0824016 -0.233859 0.786 255 255 255
0.0509506 0.133 0.486 255 255 255
0.332632 0.030275 0.711 255 255 255
0.274102 -0.357492 0.96 255 255 255
-0.201091 -0.0244204 0.503 255 255 255
0.262029 -0.0873619 0.841 0 0 0
-0.170795 0.026931 0.531 255 255 255
-0.0976908 -0.105675 0.533 255 255 255
0.152679 0.00781676 0.779 255 255 255
0.0509925 -0.153738 0.795 255 255 255
0.081553 0.0760828 0.639 255 255 255
0.0979451 0.125199 0.545 255 255 255
0.0999073 0.116094 0.561 255 255 255
0.250707 0.0749255 0.638 0 0 0
-0.0538432 -0.127441 0.537 255 255 255
0.0662943 -0.103657 0.808 255 255 255
-0.166705 -0.0717841 0.508 255 255 255
0.417715 0.0221773 0.843 255 255 255
-0.056816 0.00952916 0.576 0 0 0
-0.13859 0.105126 0.508 255 255 255
-0.0833223 0.00107221 0.565 0 0 0
-0.0452985 -0.10099 0.55 255 255 255
-0.0133032 0.135724 0.524 255 255 255
0.00863696 0.135418 0.51 255 255 255
0.0102569 0.130753 0.508 255 255 255
-0.149046 -0.11042 0.507 255 255 255
0.135635 0.116448 0.554 255 255 255
0.000582912 -0.250919 0.887 255 255 255
-0.0403767 -0.116708 0.544 255 255 255
-0.161068 -0.174653 0.486 255 255 255
0.266039 0.00277773 0.788 255 255 255
0.0432585 0.0310841 0.73 255 255 255
0.0210897 0.114669 0.51 255 255 255
0.301513 0.0667121 0.649 255 255 255
0.0901825 0.114675 0.563 255 255 255
0.117301 -0.0934208 0.834 255 255 255
0.39721 -0.058002 0.852 255 255 255
0.332064 -0.314089 0.874 255 255 255
-0.0255212 -0.221601 0.891 255 255 255
-0.251278 0.0332945 0.497 255 255 255
0.388717 -0.130477 0.828 255 255 255
0.371739 -0.066539 0.912 255 255 255
0.156774 -0.274746 0.768 255 255 255
-0.0931083 0.116508 0.563 255 255 255
0.328371 -0.324645 0.868 255 255 255
-0.222479 0.0920906 0.614 255 255 255
0.000619057 -0.0334701 0.942 255 255 255
0.269627 0.0472779 0.689 255 255 255
0.122111 0.0943659 0.603 0 0 0
0.314634 -0.329988 0.91 255 255 255
0.207788 -0.206998 0.786 255 255 255
-0.0290603 -0.0403586 0.96 0 0 0
0.319001 0.0394201 0.709 255 255 255
-0.0466637 0.00674045 0.578 255 255 255
0.389255 -0.0320133 0.901 255 255 255
0.27513 0.0392533 0.706 255 255 255
-0.213664 0.0972357 0.528 255 255 255
0.0182525 -0.170404 0.904 255 255 255
0.168182 0.140926 0.503 255 255 255
0.386136 -0.0409465 0.904 255 255 255
0.0524248 0.146932 0.485 255 255 255
-0.168651 0.050741 0.527 255 255 255
0.253379 0.0309138 0.726 255 255 255
-0.155535 0.038452 0.535 255 255 255
-0.0188565 -0.29925 0.852 255 255 255
0.0442478 0.107818 0.509 255 255 255
-0.184795 0.10554 0.51 255 255 255
-0.203321 0.0615568 0.517 255 255 255
0.259622 0.0567924 0.669 255 255 255
-0.0886482 -0.0252745 0.558 255 255 255
0.0735389 -0.218788 0.787 255 255 255
-0.125188 0.0375342 0.547 255 255 255
-0.0666925 0.134183 0.528 255 255 255
0.280376 -0.034364 0.886 255 255 255
-0.0627884 0.165038 0.467 255 255 255
0.321565 0.0436004 0.702 255 255 255
-0.149769 -0.063447 0.521 255 255 255
0.0444242 -0.106141 0.817 255 255 255
-0.0554764 -0.208116 0.883 255 255 255
-0.167134 0.103623 0.517 255 255 255
0.229728 0.1512 0.481 255 255 255
-0.155005 -0.141403 0.497 255 255 255
0.12078 0.0266569 0.739 255 255 255
-0.128091 -0.139019 0.509 255 255 255
-0.210133 0.154588 0.452 255 255 255
0.0474902 -0.0204703 0.848 255 255 255
-0.076368 0.0140184 0.568 255 255 255
0.194466 -0.00371234 0.805 255 255 255
0.0126123 0.140107 0.503 0 0 0
-0.225939 -0.0881767 0.476 255 255 255
-0.145518 -0.169833 0.495 255 255 255
-0.232543 -0.15382 0.457 255 255 255
0.237485 0.156679 0.467 255 255 255
-0.168027 -0.0716428 0.507 255 255 255
0.257516 -0.126347 1.066 255 255 255
-0.207128 0.0337276 0.516 255 255 255
-0.218833 0.0507641 0.51 255 255 255
-0.0617806 -0.192602 0.891 255 255 255
-0.223322 0.146413 0.461 255 255 255
0.366293 -0.302136 0.794 255 255 255
-0.237238 0.0379394 0.505 255 255 255
0.334565 -0.237797 0.92 255 255 255
-0.0160617 0.0595868 0.676 255 255 255
0.232771 0.0383203 0.71 255 255 255
-0.25384 0.0129171 0.491 255 255 255
-0.147408 0.160359 0.43 255 255 255
0.13777 0.161713 0.464 255 255 255
-0.215618 0.0898155 0.626 255 255 255
-0.227489 -0.0812052 0.476 255 255 255
0.357661 -0.274294 0.831 255 255 255
0.0370322 0.162274 0.47 255 255 255
0.165961 0.0255577 0.742 255 255 255
0.396258 -0.0645533 0.847 255 255 255
0.152966 -0.293069 0.787 0 0 0
-0.125417 0.0215508 0.548 255 255 255
0.267058 0.110095 0.563 255 255 255
0.298011 -0.0180863 0.866 255 255 255
0.0462124 0.0150269 0.759 255 255 255
0.183589 0.0361109 0.712 255 255 255
-0.0935262 -0.085813 0.539 255 255 255
-0.210918 0.0319861 0.515 255 255 255
-0.0809618 0.126507 0.543 255 255 255
-0.0490583 -0.011967 0.573 255 255 255
-0.146466 -0.14091 0.501 255 255 255
-0.0673241 -0.15338 0.533 255 255 255
0.398275 0.0131562 0.882 255 255 255
-0.222273 0.0960114 0.526 255 255 255
0.0756534 0.113961 0.564 255 255 255
-0.0158899 0.172242 0.452 255 255 255
0.199269 0.1493 0.485 255 255 255
0.329107 -0.291853 0.893 255 255 255
-0.201842 -0.128688 0.474 255 255 255
0.126266 0.0536134 0.684 255 255 255
0.0589516 0.159027 0.474 255 255 255
0.159083 0.0627566 0.663 255 255 255
0.00363463 0.0695667 0.656 255 255 255
-0.093852 0.116544 0.546 255 255 255
-0.0459371 -0.0368842 0.569 255 255 255
0.0467958 -0.125313 0.812 255 255 255
0.0696071 -0.217231 0.786 255 255 255
-0.111593 0.166471 0.435 255 255 255
-0.148741 -0.159361 0.495 255 255 255
-0.168519 0.147049 0.463 255 255 255
-0.138182 0.154788 0.434 255 255 255
-0.164658 0.114625 0.492 0 0 0
-0.255194 0.113131 0.489 0 0 0
0.0420199 -0.109466 0.822 0 0 0
-0.246424 0.0632194 0.497 255 255 255
0.195301 0.0880938 0.614 255 255 255
0.114794 0.152457 0.485 255 255 255
-0.0509097 -0.16599 0.904 255 255 255
0.367723 -0.12647 0.895 255 255 255
0.0656014 -0.240919 0.784 255 255 255
-0.205046 -0.0667119 0.489 255 255 255
0.294724 -0.213989 0.961 255 255 255
-0.210515 -0.010526 0.504 255 255 255
-0.105821 0.116699 0.494 255 255 255
0.137615 -0.136793 0.842 255 255 255
-0.170851 0.10783 0.513 255 255 255
-0.0180912 0.162619 0.471 255 255 255
0.203473 -0.0259902 0.848 255 255 255
-0.169385 0.0252503 0.532 255 255 255
0.035037 -0.296869 0.882 255 255 255
0.186551 0.07166 0.646 255 255 255
-0.202987 -0.165949 0.466 255 255 255
-0.164101 0.159438 0.441 255 255 255
0.0212964 0.10406 0.515 255 255 255
-0.172284 -0.00669283 0.525 255 255 255
0.00197595 0.144774 0.505 255 255 255
-0.0648103 0.151267 0.494 255 255 255
0.106117 -0.132046 0.821 255 255 255
0.0635315 -0.19391 0.79 255 255 255
0.397217 -0.0429012 0.855 255 255 255
-0.198698 -0.0610863 0.495 255 255 255
-0.093595 0.136743 0.469 255 255 255
-0.047774 -0.070677 0.558 255 255 255
0.170251 0.0708273 0.648 255 255 255
-0.136837 -0.0907237 0.517 255 255 255
0.0360179 -0.0692173 0.871 0 0 0
-0.191026 -0.0717027 0.496 255 255 255
0.401526 -0.114883 0.813 255 255 255
-0.0967744 -0.126164 0.528 255 255 255
-0.129685 0.13388 0.467 0 0 0
-0.0485984 -0.138801 0.537 255 255 255
0.118172 -0.00110184 0.812 255 255 255
-0.00582836 0.00781676 0.779 255 255 255
-0.0715915 -0.128792 0.539 255 255 255
-0.172284 -0.00840152 0.525 255 255 255
-0.193401 0.16031 0.428 255 255 255
0.0280573 0.122429 0.501 255 255 255
-0.228458 0.0938492 0.606 255 255 255
-0.058223 0.155144 0.486 255 255 255
0.232855 0.10849 0.569 255 255 255
-0.192297 0.144346 0.464 255 255 255
0.345017 -0.201594 0.912 255 255 255
0.318648 0.0220535 0.746 255 255 255
-0.17857 0.105942 0.516 255 255 255
-0.0931335 -0.0550413 0.547 255 255 255
-0.131528 -0.0362853 0.533 255 255 255
0.385047 -0.257332 0.772 255 255 255
0.287712 0.0502741 0.684 255 255 255
0.10997 -0.181684 0.81 255 255 255
0.0286963 -0.138962 0.864 255 255 255
0.141207 0.164093 0.458 255 255 255
0.011395 0.153562 0.486 255 255 255
-0.18109 -0.00489869 0.516 255 255 255
-0.0552963 -0.0230353 0.57 255 255 255
0.270836 -0.370783 0.954 255 255 255
0.0814933 0.0882373 0.615 255 255 255
0.0278906 -0.0982261 0.931 255 255 255
0.171135 0.156152 0.477 255 255 255
-0.125071 0.11579 0.497 255 255 255
0.0885276 -0.0970717 0.819 255 255 255
0.128188 0.117138 0.553 255 255 255
-0.166976 0.144657 0.465 255 255 255
0.0197033 0.139772 0.496 255 255 255
0.117468 0.0753952 0.642 255 255 255
-0.0968556 -0.0277478 0.553 255 255 255
-0.127964 0.101228 0.522 0 0 0
0.0877219 0.11659 0.559 255 255 255
0.240661 -0.172195 0.815 0 0 0
0.402446 -0.080135 0.823 255 255 255
-0.201928 -0.0380308 0.499 255 255 255
0.212394 0.13274 0.519 255 255 255
0.0506718 -0.187482 0.79 0 0 0
-0.00072118 0.0255921 0.743 255 255 255
-0.245866 0.0862357 0.615 255 255 255
-0.138029 -0.0436779 0.528 255 255 255
-0.123631 0.157269 0.435 255 255 255
0.368125 -0.144727 0.882 255 255 255
-0.111807 -0.0843801 0.53 255 255 255
-0.0286318 -0.283276 0.854 255 255 255
-0.0102914 0.164331 0.465 255 255 255
0.381305 -0.280629 0.767 255 255 255
-0.0314633 -0.209488 0.895 255 255 255
0.0327763 0.104915 0.511 255 255 255
0.292417 0.0902907 0.602 255 255 255
-0.00241915 -0.163373 0.931 255 255 255
-0.0669463 0.17329 0.449 255 255 255
-0.166701 0.129989 0.475 255 255 255
-0.0287497 0.0782848 0.64 255 255 255
-0.0444545 -0.0214992 0.955 255 255 255
0.1042 -0.063029 0.827 255 255 255
0.261368 0.0923005 0.596 255 255 255
-0.160606 -0.168673 0.487 255 255 255
-0.153614 0.139056 0.459 255 255 255
-0.24149 0.0964979 0.592 255 255 255
-0.181302 -0.127201 0.483 255 255 255
0.0793257 0.113044 0.564 255 255 255
0.310755 -0.26231 0.972 255 255 255
0.217885 0.133652 0.516 255 255 255
0.180219 0.122944 0.539 255 255 255
-0.214271 0.0500321 0.511 255 255 255
-0.236895 0.00174137 0.494 255 255 255
-0.172803 -0.0936844 0.497 255 255 255
0.251583 -0.14452 0.816 0 0 0
-0.178425 0.0190458 0.528 0 0 0
0.239109 -0.152036 0.828 255 255 255
-0.15442 -0.121827 0.503 255 255 255
0.328668 -0.307613 0.884 255 255 255
0.165821 0.171407 0.446 255 255 255
0.203982 0.0493766 0.687 255 255 255
-0.235447 -0.0644334 0.478 255 255 255
0.338334 -0.22286 0.914 255 255 255
0.235184 0.159917 0.461 255 255 255
-0.0222904 -0.245515 0.878 255 255 255
0.11084 0.0525771 0.685 255 255 255
-0.00646432 -0.287999 0.864 255 255 255
-0.055238 -0.257773 0.857 255 255 255
-0.101365 0.0355648 0.558 255 255 255
-0.156253 -0.0506321 0.52 255 255 255
0.0954381 0.111799 0.567 255 255 255
-0.0824168 0.110206 0.578 255 255 255
-0.00367049 0.083837 0.627 255 255 255
0.370774 -0.186212 0.855 255 255 255
-0.226074 -0.0324276 0.488 255 255 255
-0.1583 0.0896721 0.625 255 255 255
-0.176493 -0.0446787 0.51 255 255 255
0.10257 -0.324548 0.895 255 255 255
0.22496 0.163735 0.457 255 255 255
-0.117706 0.154045 0.442 255 255 255
-0.242953 0.111767 0.49 255 255 255
0.155484 0.0697728 0.648 255 255 255
-0.16715 -0.167287 0.483 255 255 255
-0.0471505 0.138339 0.521 255 255 255
0.0261784 0.0666676 0.659 255 255 255
0.388773 -0.117426 0.831 255 255 255
0.217451 0.160319 0.46 255 255 255
0.108155 -0.335449 0.893 255 255 255
-0.0931083 0.0111465 0.563 255 255 255
-0.0299601 0.131736 0.532 255 255 255
0.365636 -0.243091 0.84 255 255 255
0.376464 -0.166944 0.849 255 255 255
-0.0405994 -0.112011 0.547 255 255 255
-0.128413 0.104919 0.507 255 255 255
-0.0360742 -0.193298 0.901 255 255 255
0.235244 0.0362124 0.714 255 255 255
0.0711464 0.159461 0.473 255 255 255
-0.0337876 0.147926 0.499 255 255 255
0.203084 0.0762778 0.632 255 255 255
0.0857926 0.0943659 0.603 255 255 255
0.0909455 -0.197592 0.805 255 255 255
-0.16748 0.0875327 0.537 255 255 255
0.151739 0.111799 0.567 255 255 255
0.0759304 -0.0509168 0.827 255 255 255
-0.0701419 0.00850232 0.57 255 255 255
0.170668 0.0982584 0.591 255 255 255
-0.0506799 -0.0618173 0.56 255 255 255
-0.0504772 -0.127423 0.923 0 0 0
-0.134572 0.101295 0.518 255 255 255
0.253124 -0.125365 0.821 255 255 255
0.322421 0.0565377 0.666 255 255 255
0.274351 0.042579 0.704 255 255 255
-0.155629 0.125627 0.479 0 0 0
-0.111294 0.144929 0.454 255 255 255
0.045528 -0.191339 0.79 255 255 255
-0.212109 0.164028 0.425 255 255 255
0.385737 -0.00715829 0.91 255 255 255
0.400218 -0.172858 0.782 255 255 255
0.201388 0.10063 0.588 255 255 255
-0.0804733 -0.0398033 0.558 255 255 255
0.341735 -0.329753 0.852 255 255 255
0.0127636 0.157258 0.478 255 255 255
-0.192898 -0.166197 0.471 255 255 255
0.0418838 0.12478 0.491 255 255 255
0.160864 0.0573017 0.675 255 255 255
0.176405 -0.190918 0.783 255 255 255
-0.22138 -0.124013 0.468 255 255 255
-0.130135 -0.0252441 0.538 255 255 255
-0.23758 -0.121408 0.461 255 255 255
0.0434823 0.125579 0.491 255 255 255
0.0391336 0.084722 0.626 255 255 255
-0.248131 -0.0179474 0.483 0 0 0
0.196747 0.165622 0.452 255 255 255
0.356864 -0.173463 0.897 255 255 255
0.227517 0.15259 0.478 255 255 255
0.0477142 -0.0288858 0.852 255 255 255
0.291313 -0.161064 0.893 0 0 0
0.343842 -0.229502 0.905 255 255 255
-0.0325506 0.110206 0.578 255 255 255
0.00984021 0.17186 0.451 255 255 255
0.277102 -0.0989016 0.858 255 255 255
0.0086539 0.130694 0.511 255 255 255
-0.17489 -0.0694404 0.503 255 255 255
0.0911056 0.131106 0.526 255 255 255
-0.143186 -0.0393818 0.528 255 255 255
-0.0385565 -0.0436189 0.963 255 255 255
-0.0991961 -0.0375107 0.551 255 255 255
0.298754 0.0606901 0.664 255 255 255
-0.0792833 -0.160781 0.526 255 255 255
0.0652667 -0.225727 0.78 255 255 255
0.237826 -0.0640584 0.878 255 255 255
0.189063 0.0904979 0.61 255 255 255
0.245223 -0.102838 1.022 255 255 255
-0.223858 0.0359657 0.512 255 255 255
0.0174321 0.157258 0.478 255 255 255
-0.0290048 0.172212 0.45 255 255 255
0.32004 -0.301189 0.917 255 255 255
-0.0353733 0.00391867 0.578 255 255 255
0.0960382 0.153867 0.482 255 255 255
-0.211992 0.12639 0.476 0 0 0
0.154196 -0.246904 0.858 255 255 255
-0.215276 -0.11841 0.473 255 255 255
0.207135 0.169637 0.449 255 255 255
-0.0409588 -0.12288 0.54 255 255 255
-0.203858 0.13112 0.468 0 0 0
0.332054 -0.227736 0.934 255 255 255
-0.062169 -0.0375443 0.565 255 255 255
-0.149575 -0.11432 0.506 255 255 255
0.282493 0.0263684 0.731 255 255 255
-0.0985584 -0.103072 0.533 255 255 255
-0.105104 -0.106142 0.531 255 255 255
0.13627 0.154791 0.48 255 255 255
-0.133124 -0.0532301 0.529 0 0 0
0.272832 0.0404022 0.706 255 255 255
-0.16076 0.0175571 0.535 255 255 255
-0.0322128 0.113716 0.572 255 255 255
-0.0187819 -0.180119 0.916 0 0 0
-0.151871 -0.139815 0.5 255 255 255
-0.0875466 -0.086851 0.54 255 255 255
0.0106297 -0.281081 0.882 255 255 255
0.130711 -0.282595 0.869 255 255 255
-0.0340323 -0.287482 0.85 255 255 255
-0.00516327 -0.258116 0.882 255 255 255
-0.139932 -0.0939071 0.516 255 255 255
-0.137738 0.11475 0.496 255 255 255
0.210718 0.11436 0.557 255 255 255
-0.202527 0.0790187 0.646 255 255 255
-0.0811109 -0.0866091 0.544 255 255 255
-0.233583 -0.129941 0.462 255 255 255
-0.204114 0.160468 0.436 255 255 255
-0.0652653 0.167392 0.463 255 255 255
-0.0688774 -0.173291 0.525 255 255 255
0.390807 -0.210765 0.781 255 255 255
0.0112969 0.0278218 0.738 255 255 255
-0.0167246 -0.239101 0.886 255 255 255
-0.226869 -0.0356042 0.488 255 255 255
-0.0433373 -0.117922 0.931 255 255 255
-0.151645 -0.0791692 0.513 255 255 255
0.159596 -0.0457908 0.857 255 255 255
-0.252387 0.0638994 0.496 255 255 255
-0.151715 0.0309025 0.54 255 255 255
-0.0281657 0.083837 0.627 255 255 255
0.0898157 -0.214544 0.795 255 255 255
0.264435 0.045493 0.696 255 255 255
0.192897 -0.0711245 0.895 255 255 255
0.0963288 0.0289441 0.736 255 255 255
-0.0685816 0.168202 0.455 255 255 255
-0.201084 0.0715924 0.655 255 255 255
0.321986 -0.181525 0.963 255 255 255
0.155162 0.0759637 0.638 255 255 255
-0.235432 -0.0378309 0.486 255 255 255
0.19625 0.107388 0.573 255 255 255
0.117723 -0.0733257 0.837 255 255 255
-0.0548668 -0.158554 0.53 255 255 255
0.18898 0.130959 0.522 255 255 255
-0.0849922 0.146794 0.444 255 255 255
-0.12016 -0.164049 0.507 255 255 255
-0.190333 -0.117819 0.48 255 255 255
0.388819 -0.113779 0.834 255 255 255
-0.181004 0.0963765 0.528 255 255 255
0.154787 0.12678 0.533 255 255 255
0.390012 0.00315844 0.896 255 255 255
-0.187923 0.0894828 0.533 255 255 255
-0.234088 -0.113624 0.466 255 255 255
0.187555 -0.159876 0.787 255 255 255
0.0770494 0.0556763 0.682 255 255 255
-0.0369344 0.0869368 0.62 255 255 255
-0.0806849 0.0922405 0.615 255 255 255
-0.0697861 0.0913881 0.616 0 0 0
-0.0251169 0.17431 0.446 255 255 255
0.19978 0.0255577 0.742 255 255 255
-0.150617 -0.0549686 0.521 255 255 255
-0.218929 0.15944 0.443 255 255 255
-0.0900558 -0.163709 0.519 255 255 255
0.302493 -0.306166 0.951 255 255 255
-0.0557936 -0.317575 0.824 255 255 255
0.105164 -0.113755 0.824 255 255 255
0.209597 0.0969869 0.595 255 255 255
-0.242082 0.13516 0.461 0 0 0
0.0490644 0.11788 0.499 255 255 255
0.324019 -0.331798 0.891 255 255 255
-0.0590689 -0.159116 0.529 255 255 255
0.153025 0.067977 0.651 255 255 255
-0.148164 -0.12617 0.504 255 255 255
-0.124298 -0.00430284 0.547 0 0 0
-0.193115 0.148118 0.457 255 255 255
-0.179425 -0.171001 0.478 255 255 255
-0.132466 -0.0764569 0.523 255 255 255
0.224375 -0.0289536 0.854 255 255 255
0.229766 0.130959 0.522 255 255 255
-0.046336 0.143448 0.512 255 255 255
-0.210794 0.0960922 0.536 255 255 255
-0.231314 0.116314 0.489 255 255 255
-0.135588 0.106547 0.503 255 255 255
0.0689177 0.150839 0.49 255 255 255
0.231956 0.145757 0.489 255 255 255
0.341653 -0.124849 0.961 255 255 255
0.383388 0.00464229 0.901 255 255 255
0.00676518 0.0751612 0.649 255 255 255
0.176965 -0.00237846 0.797 255 255 255
0.282641 0.1008 0.578 255 255 255
0.132477 0.127017 0.534 255 255 255
-0.175206 -0.179976 0.475 0 0 0
0.0659441 -0.0785084 0.82 255 255 255
0.187162 -0.135035 0.875 255 255 255
-0.104853 0.0710649 0.66 255 255 255
-0.118425 0.154045 0.442 255 255 255
-0.052095 -0.137053 0.537 255 255 255
-0.25599 0.00729409 0.489 0 0 0
0.199088 0.155376 0.477 255 255 255
-0.235802 0.137562 0.459 255 255 255
0.280955 -0.305581 0.984 255 255 255
-0.126273 0.0426399 0.544 255 255 255
-0.100036 0.141604 0.46 255 255 255
-0.087925 0.112588 0.571 255 255 255
0.334607 0.0490173 0.682 255 255 255
0.339235 -0.113624 0.972 255 255 255
0.187502 0.166723 0.451 255 255 255
-0.156698 0.0141009 0.536 255 255 255
-0.198576 0.0652988 0.52 255 255 255
0.13358 0.018683 0.757 255 255 255
0.00690316 -0.071827 0.963 255 255 255
-0.140411 0.152261 0.441 255 255 255
-0.0539555 -0.103109 0.547 255 255 255
0.233344 0.149945 0.482 255 255 255
0.403211 -0.104972 0.798 255 255 255
0.202155 -0.206472 0.784 255 255 255
-0.217866 -0.135147 0.467 255 255 255
-0.0632546 -0.16397 0.528 255 255 255
-0.131866 -0.0748977 0.524 255 255 255
0.0615703 -0.295881 0.892 255 255 255
0.0773451 0.15648 0.478 255 255 255
-0.0815526 -0.0511455 0.553 255 255 255
-0.240059 -0.129378 0.46 255 255 255
0.269168 0.112345 0.556 255 255 255
-0.126559 0.0948647 0.534 255 255 255
0.384353 -0.0730447 0.883 255 255 255
-0.0806878 -0.167844 0.524 255 255 255
0.177893 0.141486 0.505 255 255 255
-0.215904 -0.168318 0.458 255 255 255
-0.0991795 0.0708495 0.658 255 255 255
-0.144633 0.106359 0.506 255 255 255
0.191362 0.155114 0.481 255 255 255
0.255894 0.141713 0.5 255 255 255
0.0403673 0.124233 0.492 255 255 255
-0.230048 -0.0611774 0.483 255 255 255
-0.136684 0.148778 0.45 255 255 255
0.104316 0.143382 0.503 255 255 255
0.00214102 -0.0195691 0.937 255 255 255
0.386304 -0.25482 0.772 255 255 255
-0.240688 0.127091 0.47 255 255 255
0.392588 -0.0870159 0.851 255 255 255
-0.190557 -0.064016 0.499 255 255 255
0.356092 -0.31295 0.812 255 255 255
0.156504 0.128653 0.53 255 255 255
-0.158242 0.150507 0.453 255 255 255
-0.171017 -0.0547451 0.511 255 255 255
0.247937 -0.0246393 0.849 255 255 255
-0.133376 -0.0447059 0.53 255 255 255
0.122836 0.165946 0.459 255 255 255
-0.195549 -0.168904 0.47 255 255 255
0.257611 -0.0660873 0.849 255 255 255
-0.042158 -0.0488355 0.568 255 255 255
0.148757 -0.074543 0.867 255 255 255
-0.158642 0.161105 0.432 255 255 255
-0.200679 -0.0748223 0.49 255 255 255
0.010504 0.172904 0.448 255 255 255
0.110464 -0.236598 0.804 0 0 0
0.234034 -0.0377287 0.864 255 255 255
0.158509 -0.182045 0.882 255 255 255
-0.237284 -0.0674035 0.477 255 255 255
-0.0468633 -0.0442917 0.569 255 255 255
-0.208633 0.0990572 0.524 255 255 255
0.253355 0.0919436 0.6 0 0 0
-0.0242453 -0.0370402 0.955 255 255 255
0.185225 0.121875 0.546 255 255 255
-0.0900514 0.15402 0.444 255 255 255
0.0424159 0.0265487 0.736 255 255 255
-0.191475 -0.0776872 0.493 255 255 255
-0.15442 -0.123464 0.503 255 255 255
-0.0833585 0.149347 0.443 255 255 255
-0.138291 -0.042039 0.529 255 255 255
-0.0759619 0.110397 0.579 255 255 255
0.284669 0.109117 0.558 255 255 255
-0.228458 0.114488 0.488 0 0 0
0.340552 -0.313192 0.856 255 255 255
0.1491 0.112126 0.564 255 255 255
0.18188 -0.109655 0.877 255 255 255
0.00460041 0.109081 0.523 255 255 255
0.104797 0.156028 0.479 255 255 255
-0.147039 -0.17761 0.492 255 255 255
-0.0429745 0.019001 0.579 255 255 255
-0.088112 -0.0659634 0.549 255 255 255
0.0504794 0.0546465 0.683 255 255 255
0.0914432 0.0244486 0.745 255 255 255
-0.214351 0.163026 0.441 255 255 255
-0.0877399 0.0246682 0.558 255 255 255
0.379463 -0.270031 0.776 255 255 255
-0.217851 -0.000681186 0.502 255 255 255
0.264457 -0.124613 1.066 0 0 0
0.22388 0.0275202 0.73 255 255 255
0.0247439 0.0232363 0.745 255 255 255
0.152619 0.120318 0.547 255 255 255
-0.181738 -0.135785 0.48 255 255 255
-0.15251 0.126407 0.479 255 255 255
-0.119975 0.116364 0.496 255 255 255
0.368543 -0.0407854 0.934 255 255 255
-0.0954447 -0.0999767 0.535 255 255 255
0.356466 -0.187851 0.896 255 255 255
-0.195896 -0.173887 0.469 0 0 0
0.353861 -0.31582 0.816 255 255 255
-0.0883943 0.127976 0.491 255 255 255
-0.250058 0.110045 0.493 255 255 255
-0.189124 -0.1707 0.475 255 255 255
-0.0444032 0.123663 0.55 255 255 255
0.0803558 -0.0403446 0.831 255 255 255
0.0217644 -0.317583 0.868 255 255 255
0.0553535 0.153401 0.483 255 255 255
-0.178985 -0.141547 0.481 255 255 255
0.0162983 -0.199794 0.878 255 255 255
-0.1353 -0.185994 0.493 0 0 0
-0.242952 -0.095629 0.467 255 255 255
0.0659762 0.025661 0.745 255 255 255
-0.0523363 0.0529608 0.69 255 255 255
0.185477 -0.22496 0.773 255 255 255
0.117441 -0.0609211 0.835 255 255 255
0.210672 0.144906 0.497 255 255 255
0.112893 0.115386 0.562 255 255 255
0.0263328 -0.304442 0.879 255 255 255
0.250243 -0.0049849 0.799 255 255 255
-0.157602 0.156515 0.447 255 255 255
-0.092535 -0.19308 0.514 255 255 255
0.145565 0.167462 0.453 0 0 0
-0.187984 -0.134441 0.478 255 255 255
0.221403 0.140107 0.503 255 255 255
0.0434274 0.102335 0.519 255 255 255
-0.0685872 0.125624 0.543 255 255 255
-0.00840403 0.126218 0.538 255 255 255
-0.14916 -0.00593857 0.534 255 255 255
-0.105446 0.0728802 0.657 255 255 255
-0.11535 -0.140657 0.515 255 255 255
-0.195257 -0.149969 0.473 255 255 255
-0.0818169 0.136745 0.515 255 255 255
-0.0742564 -0.0210315 0.566 255 255 255
-0.184607 0.0900735 0.635 255 255 255
0.114852 0.104102 0.586 255 255 255
-0.117767 -0.113687 0.522 0 0 0
-0.150328 -0.0599404 0.52 255 255 255
0.163811 0.136745 0.515 255 255 255
-0.0605185 -0.0991997 0.55 255 255 255
0.211577 0.140926 0.503 255 255 255
0.0716982 -0.164088 0.795 0 0 0
0.103558 0.162118 0.463 255 255 255
0.342262 -0.24061 0.897 255 255 255
-0.133996 0.0319578 0.543 255 255 255
0.162574 0.159299 0.468 255 255 255
-0.0579377 -0.0913101 0.551 255 255 255
-0.00883637 -0.0739276 0.97 255 255 255
-0.123453 0.11579 0.497 0 0 0
-0.0375408 -0.184501 0.901 255 255 255
-0.241943 -0.0526551 0.477 255 255 255
-0.0753796 0.165972 0.447 255 255 255
0.0997509 0.12976 0.531 255 255 255
0.24015 0.017405 0.755 255 255 255
-0.109072 0.153326 0.442 255 255 255
0.325139 -0.273119 0.923 255 255 255
0.277675 -0.339642 0.967 255 255 255
0.180871 0.0350995 0.715 255 255 255
0.346343 -0.293663 0.86 255 255 255
0.351847 -0.293345 0.843 255 255 255
0.0915201 0.153401 0.483 255 255 255
-0.10551 -0.175665 0.512 255 255 255
-0.129656 0.0662919 0.666 255 255 255
0.250654 -0.151368 1.059 255 255 255
-0.148644 0.154045 0.442 255 255 255
0.303492 -0.323838 0.935 255 255 255
0.0731297 0.10832 0.573 255 255 255
0.0715585 0.167829 0.456 255 255 255
-0.253094 -0.0318296 0.479 255 255 255
0.104359 0.0849189 0.62 255 255 255
0.344298 -0.198439 0.918 255 255 255
-0.00288605 0.150158 0.493 255 255 255
0.102806 0.0600584 0.669 255 255 255
-0.182139 -0.137061 0.479 255 255 255
-0.120086 -0.115165 0.521 255 255 255
-0.175663 -0.0479985 0.51 255 255 255
-0.203373 0.0177388 0.515 255 255 255
-0.0422866 0.16744 0.459 255 255 255
-0.209239 -0.0258503 0.499 255 255 255
0.087117 0.0594105 0.674 255 255 255
-0.216568 -0.0859719 0.481 255 255 255
-0.124298 0.0277425 0.547 255 255 255
0.0228928 -0.0666119 0.913 255 255 255
0.322483 -0.280933 0.924 255 255 255
-0.107838 -0.0774852 0.536 255 255 255
0.190132 0.145851 0.492 255 255 255
0.208289 -0.0566551 0.874 255 255 255
0.117592 0.158256 0.474 255 255 255
-0.0840929 0.017591 0.564 0 0 0
0.201212 -0.0415584 0.856 0 0 0
0.214487 0.139296 0.506 255 255 255
-0.123039 0.146173 0.451 255 255 255
-0.205401 0.101295 0.518 255 255 255
-0.159859 0.049491 0.532 255 255 255
0.119826 0.10237 0.587 0 0 0
0.00871447 -0.0038553 0.836 255 255 255
-0.213945 -0.1739 0.457 255 255 255
0.133431 0.159215 0.47 255 255 255
-0.00774321 -0.31238 0.85 255 255 255
0.340817 -0.112042 0.972 255 255 255
0.253723 0.0414334 0.704 255 255 255
-0.0560569 -0.0809053 0.941 255 255 255
0.231799 0.065197 0.655 255 255 255
-0.0248191 0.0461467 0.706 255 255 255
-0.223763 0.0961806 0.562 255 255 255
-0.218037 -0.0224209 0.495 255 255 255
-0.0918887 0.136849 0.472 255 255 255
0.366657 -0.246488 0.833 255 255 255
0.0983536 0.155702 0.478 255 255 255
0.23735 0.130457 0.52 255 255 255
-0.0663207 -0.247721 0.856 255 255 255
-0.115098 0.121884 0.489 255 255 255
-0.110401 -0.0560945 0.54 0 0 0
-0.0857149 0.156187 0.444 255 255 255
-0.0815526 -0.0583448 0.553 255 255 255
0.378389 -0.251614 0.806 255 255 255
-0.132306 0.0862107 0.637 255 255 255
-0.0523654 -0.0981259 0.549 255 255 255
-0.0178234 0.143697 0.507 255 255 255
-0.065988 -0.149158 0.909 0 0 0
-0.196037 0.0390663 0.52 255 255 255
0.360481 -0.224302 0.857 255 255 255
-0.249352 0.0268782 0.498 255 255 255
-0.185903 -0.0837642 0.491 255 255 255
0.339716 -0.202546 0.93 255 255 255
-0.135193 0.122213 0.484 0 0 0
0.364022 -0.295772 0.812 255 255 255
0.015699 -0.0208688 0.927 255 255 255
0.246958 -0.00499738 0.801 255 255 255
-0.227374 0.0247906 0.505 255 255 255
0.247772 -0.0290892 0.858 0 0 0
0.024477 -0.167082 0.864 255 255 255
-0.237771 -0.168307 0.45 255 255 255
-0.088279 0.146004 0.446 255 255 255
0.381506 -0.141025 0.851 255 255 255
-0.0680228 0.135129 0.525 255 255 255
0.0140216 -0.0385088 0.916 255 255 255
-0.16626 -0.131173 0.492 255 255 255
-0.143808 -0.0544324 0.524 255 255 255
0.211341 -0.0549168 0.869 255 255 255
-0.11128 -0.0358831 0.54 255 255 255
-0.139404 -0.14691 0.502 255 255 255
-0.07406 0.153422 0.471 255 255 255
-0.0638445 0.0498079 0.693 255 255 255
0.0987085 -0.00243218 0.815 0 0 0
0.272032 -0.12161 1.055 255 255 255
0.333832 -0.163946 0.961 255 255 255
0.115805 0.0516877 0.688 255 255 255
0.0340293 0.12609 0.493 255 255 255
-0.0732055 -0.0237527 0.565 255 255 255
0.400772 -0.0504701 0.842 255 255 255
0.102357 -0.105582 0.823 255 255 255
0.195278 0.0414334 0.704 255 255 255
-0.199451 -0.0886293 0.487 255 255 255
0.170655 -0.154865 0.836 255 255 255
0.378604 -0.10322 0.883 255 255 255
0.0485558 0.15648 0.478 255 255 255
0.343121 -0.297121 0.866 255 255 255
0.309796 -0.225232 0.969 255 255 255
0.162139 -0.198549 0.788 255 255 255
-0.0367909 -0.22967 0.883 0 0 0
0.395648 0.00458046 0.889 255 255 255
0.00985068 -0.0535684 0.945 255 255 255
0.303364 0.00774652 0.772 255 255 255
-0.237316 -0.0361746 0.485 255 255 255
-0.0471785 0.0872172 0.622 255 255 255
-0.180621 0.107366 0.503 255 255 255
-0.129664 -0.186319 0.496 255 255 255
0.404209 0.0198486 0.861 255 255 255
-0.0700641 0.110954 0.577 255 255 255
0.0493234 -0.189813 0.789 255 255 255
-0.0424577 0.124105 0.548 255 255 255
-0.238884 0.134063 0.465 255 255 255
-0.0801877 0.132602 0.532 255 255 255
-0.154212 0.107792 0.505 255 255 255
-0.212065 0.144163 0.461 255 255 255
0.246924 0.0532215 0.679 255 255 255
0.0451822 -0.224333 0.784 255 255 255
0.112504 0.1442 0.503 255 255 255
-0.0266383 -0.135956 0.93 255 255 255
0.225084 0.0658583 0.651 255 255 255
0.00867083 0.121785 0.512 255 255 255
-0.0224213 0.11771 0.56 255 255 255
0.0842185 -0.0953882 0.816 255 255 255
-0.228562 0.145248 0.455 255 255 255
-0.125826 -0.179685 0.5 0 0 0
-0.0827701 -0.177057 0.521 255 255 255
-0.180224 -0.174933 0.476 255 255 255
0.119656 0.161998 0.467 255 255 255
-0.22315 -0.0748575 0.48 255 255 255
0.20328 0.0186336 0.755 255 255 255
-0.166854 -0.0903619 0.501 255 255 255
0.0788086 -0.0899662 0.815 255 255 255
-0.0433497 -0.105081 0.548 255 255 255
0.195891 0.120098 0.546 255 255 255
-0.00363457 -0.30206 0.86 255 255 255
0.17007 -0.0581438 0.875 255 255 255
-0.062958 0.162112 0.474 255 255 255
-0.153208 0.00537842 0.536 255 255 255
0.311597 0.0666093 0.648 255 255 255
0.0761978 -0.221631 0.788 255 255 255
-0.0723345 -0.132055 0.538 255 255 255
-0.211928 -0.138779 0.469 255 255 255
-0.0104242 0.161853 0.471 255 255 255
-0.0955172 0.112442 0.561 255 255 255
0.203473 0.0609643 0.667 0 0 0
0.0450631 0.159027 0.474 255 255 255
0.115987 0.000217931 0.806 255 255 255
-0.245466 -0.0931492 0.466 255 255 255
0.0970234 -0.143812 0.812 255 255 255
-0.158993 0.0512224 0.532 255 255 255
-0.0504074 -0.0770412 0.95 255 255 255
0.301608 -0.297492 0.963 255 255 255
0.294091 -0.363425 0.939 255 255 255
-0.0868281 -0.0887726 0.541 255 255 255
0.0351956 -0.22448 0.789 255 255 255
-0.226773 -0.124731 0.465 0 0 0
-0.0860814 0.00566941 0.565 255 255 255
0.0421199 -0.311949 0.88 255 255 255
-0.0506571 0.114246 0.57 255 255 255
0.354028 -0.281394 0.832 255 255 255
-0.232913 0.127939 0.476 255 255 255
0.0954659 -0.14873 0.81 255 255 255
0.113486 -0.130161 0.826 0 0 0
0.199997 0.0762778 0.632 255 255 255
0.176112 0.053535 0.683 0 0 0
0.134321 -0.320917 0.893 255 255 255
0.333504 -0.312944 0.863 255 255 255
0.20558 0.0671232 0.653 255 255 255
0.00496437 -0.230135 0.896 255 255 255
-0.172355 -0.0266791 0.515 255 255 255
-0.249551 0.00813949 0.492 255 255 255
-0.235516 -0.0733048 0.475 255 255 255
-0.220243 -0.14485 0.464 255 255 255
-0.00723495 -0.06111 0.967 255 255 255
0.0146492 -0.104084 0.957 255 255 255
-0.0922335 -0.189159 0.517 255 255 255
0.00322462 0.0939208 0.582 255 255 255
0.0739099 0.0414922 0.705 255 255 255
-0.0616188 -0.060906 0.56 255 255 255
-0.169291 0.0113342 0.529 255 255 255
-0.228813 -0.130222 0.463 0 0 0
0.272352 0.0254543 0.739 255 255 255
0.246599 -0.124785 0.826 255 255 255
0.374243 -0.145823 0.863 255 255 255
-0.219526 0.0956946 0.57 255 255 255
-0.111779 -0.15544 0.514 255 255 255
0.203785 0.0979552 0.595 255 255 255
-0.0478971 -0.0990193 0.549 255 255 255
-0.248153 0.0113882 0.494 255 255 255
0.0253142 -0.177158 0.845 255 255 255
0.240882 0.128902 0.524 255 255 255
-0.0942171 0.133361 0.476 255 255 255
0.151226 -0.143414 0.857 255 255 255
0.278901 -0.171398 1.055 255 255 255
0.340042 -0.260464 0.895 255 255 255
-0.164124 -0.00243954 0.529 255 255 255
-0.111024 -0.194678 0.503 255 255 255
-0.0877493 0.144877 0.447 255 255 255
-0.22436 0.148118 0.457 255 255 255
-0.0774948 0.14925 0.498 255 255 255
0.267971 0.116079 0.548 255 255 255
-0.148913 -0.135203 0.501 255 255 255
0.108222 0.14875 0.491 255 255 255
0.25048 -0.0188878 0.839 255 255 255
-0.204751 -0.113676 0.479 255 255 255
0.0241914 0.0797399 0.635 255 255 255
0.112335 0.0223195 0.755 255 255 255
-0.234743 -0.0763967 0.475 255 255 255
-0.19891 0.152194 0.445 255 255 255
0.0142359 -0.152604 0.93 255 255 255
0.0614871 0.151018 0.488 255 255 255
0.344289 -0.101708 0.964 0 0 0
0.0221093 -0.235576 0.828 255 255 255
-0.156854 -0.0414827 0.522 255 255 255
0.0329578 -0.200817 0.797 255 255 255
0.213058 -0.16272 0.801 255 255 255
0.199192 0.152765 0.481 255 255 255
0.187916 0.127168 0.531 255 255 255
0.0114111 0.103124 0.523 255 255 255
-0.110401 -0.0455494 0.54 255 255 255
0.11635 0.165966 0.457 255 255 255
-0.0158246 0.161428 0.472 255 255 255
0.139793 0.137049 0.513 255 255 255
0.0552286 0.123629 0.496 255 255 255
-0.150326 -0.125102 0.503 255 255 255
-0.125646 0.00818907 0.549 0 0 0
0.238245 0.155919 0.467 255 255 255
0.228916 0.131808 0.522 255 255 255
-0.0533927 -0.183193 0.524 255 255 255
-0.0582067 0.100731 0.6 255 255 255
-0.190602 0.110938 0.497 0 0 0
-0.242432 0.13056 0.466 255 255 255
0.20199 0.112843 0.563 0 0 0
0.158156 -0.239997 0.781 255 255 255
-0.0609838 0.0456891 0.699 255 255 255
0.0972338 -0.0481086 0.825 255 255 255
0.26837 0.110419 0.56 255 255 255
0.318421 0.0513121 0.683 255 255 255
0.238126 -0.132779 0.834 255 255 255
-0.227666 -0.0768792 0.478 255 255 255
-0.140547 0.00630897 0.541 255 255 255
0.374919 -0.26933 0.785 255 255 255
0.390231 -0.0807504 0.858 255 255 255
-0.0940239 -0.0603822 0.547 255 255 255
-0.116292 -0.194719 0.501 255 255 255
0.111634 -0.224543 0.803 255 255 255
-0.0476354 -0.142032 0.536 255 255 255
-0.0085813 -0.117782 0.942 255 255 255
0.159085 -0.00633234 0.805 255 255 255
-0.123616 -0.0140172 0.544 255 255 255
0.225363 0.0622833 0.658 255 255 255
0.028152 0.0683947 0.655 255 255 255
0.305254 0.0540864 0.676 255 255 255
0.398146 -0.0346338 0.857 255 255 255
0.270914 0.0605073 0.662 255 255 255
-0.15937 -0.12791 0.498 255 255 255
0.384889 -0.0233963 0.908 255 255 255
0.251981 -0.16648 0.813 255 255 255
-0.146638 -0.187284 0.488 0 0 0
0.146913 0.0825525 0.625 255 255 255
-0.118674 0.166471 0.435 255 255 255
0.202928 0.00408068 0.792 255 255 255
0.312905 -0.267995 0.964 255 255 255
-0.23861 -0.108372 0.463 255 255 255
0.159049 0.12964 0.527 255 255 255
-0.186478 0.150068 0.443 0 0 0
-0.0385274 -0.0479956 0.569 255 255 255
-0.173206 -0.107296 0.489 255 255 255
0.110683 0.120301 0.551 255 255 255
-0.2231 -0.16271 0.459 255 255 255
-0.114889 -0.19184 0.502 255 255 255
0.0831611 -0.0200841 0.832 255 255 255
0.360128 -0.188793 0.88 255 255 255
-0.160072 -0.0110063 0.527 255 255 255
0.209327 0.040345 0.705 255 255 255
-0.0819651 -0.0181392 0.562 255 255 255
-0.228264 -0.0928243 0.476 0 0 0
-0.115475 -0.0668931 0.535 255 255 255
0.124833 -0.0502903 0.839 255 255 255
0.171493 0.128896 0.531 255 255 255
-0.166927 0.16031 0.428 255 255 255
0.147558 -0.267598 0.844 255 255 255
-0.0485658 0.173633 0.448 255 255 255
0.0774805 -0.221631 0.788 255 255 255
-0.176037 0.0386611 0.526 255 255 255
0.227215 0.138199 0.505 255 255 255
0.33803 0.051349 0.669 255 255 255
-0.229325 0.141162 0.461 255 255 255
-0.144147 0.000145467 0.538 255 255 255
-0.199182 0.0101961 0.515 255 255 255
-0.215246 0.132733 0.463 0 0 0
0.254681 0.0503476 0.685 255 255 255
-0.0916667 0.108137 0.577 255 255 255
0.167195 -0.280408 0.753 255 255 255
0.169208 -0.200301 0.893 255 255 255
-0.068406 -0.00913766 0.571 255 255 255
0.154049 0.135331 0.516 255 255 255
-0.120521 0.161145 0.434 255 255 255
0.0102569 0.1291 0.508 255 255 255
0.221755 0.154399 0.474 255 255 255
-0.138825 -0.168901 0.497 255 255 255
0.0112323 -0.0452481 0.932 255 255 255
0.0638702 0.151812 0.488 255 255 255
-0.182384 -0.105488 0.488 255 255 255
0.101681 -0.179698 0.807 255 255 255
-0.0273693 -0.276225 0.858 255 255 255
-0.106758 -0.0124493 0.553 255 255 255
0.121424 0.154791 0.48 255 255 255
-0.0402856 0.0181212 0.581 0 0 0
-0.109013 -0.0893861 0.529 255 255 255
0.179423 0.141222 0.507 255 255 255
0.120879 -0.0694876 0.84 255 255 255
-0.0158954 0.0622358 0.669 255 255 255
0.368196 -0.17932 0.862 255 255 255
0.135592 0.0573017 0.675 255 255 255
-0.132073 -0.170393 0.499 255 255 255
-0.0142309 0.0776054 0.643 255 255 255
-0.107749 0.108184 0.503 255 255 255
-0.0944036 0.116804 0.539 255 255 255
0.22639 0.0614916 0.661 255 255 255
0.377441 -0.162032 0.845 255 255 255
-0.0794638 -0.0715837 0.551 255 255 255
0.0658066 0.0174511 0.757 255 255 255
-0.1696 0.0866995 0.633 255 255 255
-0.121984 -0.0545 0.533 0 0 0
0.34981 -0.107392 0.945 255 255 255
0.371347 -0.291984 0.791 255 255 255
0.380217 -0.162443 0.833 255 255 255
-0.202768 -0.118884 0.478 255 255 255
-0.0582311 -0.248879 0.86 255 255 255
0.0886674 0.159124 0.472 255 255 255
-0.100847 0.152151 0.447 255 255 255
0.36995 -0.0865508 0.904 255 255 255
0.120536 0.0872365 0.615 255 255 255
-0.116101 -0.0888792 0.526 255 255 255
-0.298922 0.0934269 0.597 255 255 255
0.219828 0.0666093 0.648 255 255 255
0.40732 -0.0686615 0.814 255 255 255
-0.0420619 0.139186 0.521 255 255 255
0.244066 -0.150934 0.822 255 255 255
0.221688 0.102269 0.581 255 255 255
-0.220202 -0.0937956 0.477 255 255 255
0.364329 -0.0573199 0.931 255 255 255
-0.153694 -0.100321 0.506 255 255 255
0.382346 0.00317959 0.902 255 255 255
-0.105714 0.161941 0.44 255 255 255
0.182839 0.107564 0.569 255 255 255
0.325139 -0.271617 0.923 255 255 255
-0.14497 0.162081 0.429 255 255 255
0.190776 -0.257584 0.769 255 255 255
-0.147148 -0.109199 0.509 255 255 255
0.162558 0.0966609 0.593 255 255 255
-0.0349432 -0.0847711 0.95 0 0 0
0.138259 -0.314789 0.872 255 255 255
-0.152052 0.0410638 0.535 255 255 255
-0.210827 -0.0338345 0.497 255 255 255
-0.0979605 0.0873575 0.623 255 255 255
0.247263 -0.103908 0.842 255 255 255
0.0676869 0.170015 0.45 255 255 255
0.406871 -0.100696 0.795 255 255 255
-0.246438 -0.00464236 0.489 255 255 255
-0.21511 -0.0706094 0.483 255 255 255
-0.185738 0.158917 0.428 255 255 255
-0.203858 -0.154476 0.468 0 0 0
0.248144 -0.0891526 0.845 255 255 255
-0.104472 -0.178648 0.511 255 255 255
-0.111301 -0.175946 0.508 255 255 255
-0.162315 -0.175083 0.485 255 255 255
0.289589 -0.329646 0.97 255 255 255
0.175366 -0.100631 0.873 255 255 255
-0.232423 -0.0825806 0.475 255 255 255
0.307168 -0.0152325 0.864 255 255 255
0.189113 -0.0458442 0.858 255 255 255
0.164347 0.0373743 0.714 255 255 255
0.301164 -0.321663 0.942 255 255 255
0.338685 0.0338885 0.714 255 255 255
0.0392058 0.170393 0.451 255 255 255
-0.0471651 -0.0814212 0.947 255 255 255
-0.219692 0.163477 0.429 255 255 255
-0.244979 0.107324 0.499 255 255 255
0.240646 0.0532999 0.68 255 255 255
-0.217274 -0.114804 0.474 255 255 255
0.365136 -0.219006 0.842 255 255 255
0.0678159 -0.246887 0.795 255 255 255
-0.0775688 0.12674 0.544 255 255 255
0.179578 0.151829 0.483 255 255 255
-0.109056 -0.160981 0.513 0 0 0
0.0437173 -0.148937 0.804 255 255 255
0.0387656 0.124233 0.492 255 255 255
-0.107174 -0.156045 0.516 255 255 255
-0.0559289 0.0906791 0.618 255 255 255
-0.236511 -0.173778 0.449 255 255 255
-0.20701 -0.0665755 0.488 255 255 255
0.149831 -0.0499746 0.857 255 255 255
-0.00979429 0.083837 0.627 255 255 255
0.227081 0.134807 0.514 255 255 255
0.0146151 -0.31154 0.863 255 255 255
-0.152266 -0.114688 0.504 255 255 255
0.274377 -0.320331 0.995 255 255 255
-0.181174 0.0369491 0.526 255 255 255
0.0750122 -0.0835393 0.817 255 255 255
0.301647 -0.0453452 0.934 255 255 255
-0.0542443 -0.115184 0.541 255 255 255
0.134115 0.080776 0.627 255 255 255
-0.235229 0.103222 0.515 255 255 255
0.376697 -0.249609 0.808 255 255 255
0.174558 0.0831685 0.622 0 0 0
-0.222514 -0.0168161 0.496 255 255 255
0.018515 0.152772 0.486 255 255 255
0.102582 -0.314486 0.908 255 255 255
-0.153912 -0.0694209 0.515 255 255 255
0.193115 0.168881 0.447 0 0 0
-0.10643 -0.110047 0.529 255 255 255
0.0412014 0.146327 0.483 255 255 255
-0.167634 -0.145493 0.489 255 255 255
-0.199874 -0.0309072 0.502 255 255 255
0.138186 -0.0775945 0.854 255 255 255
-0.224252 0.0467058 0.511 255 255 255
-0.112275 0.147968 0.452 255 255 255
0.308555 0.0540864 0.676 255 255 255
0.0859168 -0.142927 0.807 0 0 0
-0.00874029 -0.00110455 0.814 255 255 255
0.124823 0.170015 0.45 255 255 255
-0.186735 0.142848 0.469 0 0 0
0.153231 0.144098 0.497 255 255 255
0.147813 -0.296926 0.83 255 255 255
0.157697 0.125983 0.537 255 255 255
0.365311 -0.288097 0.809 255 255 255
-0.238494 -0.144896 0.457 255 255 255
-0.191411 -0.0678033 0.497 255 255 255
-0.019313 0.0801167 0.638 255 255 255
-0.197262 0.0357501 0.521 255 255 255
-0.198655 0.0549322 0.518 255 255 255
-0.0750449 -0.0209944 0.565 255 255 255
-0.0526049 0.112588 0.571 255 255 255
-0.157884 -0.112375 0.501 255 255 255
-0.243496 -0.0565362 0.477 255 255 255
-0.0453345 -0.0916246 0.941 255 255 255
-0.235936 0.110622 0.492 255 255 255
-0.175662 0.156557 0.443 255 255 255
0.327575 -0.0341451 0.961 255 255 255
-0.233815 0.100101 0.525 255 255 255
-0.17705 -0.163124 0.48 255 255 255
0.0562522 -0.330866 0.877 255 255 255
-0.0388989 -0.0674052 0.561 255 255 255
0.174718 0.0607815 0.665 255 255 255
-0.159016 0.11042 0.502 0 0 0
0.371744 -0.159197 0.867 255 255 255
0.0626827 0.122342 0.504 255 255 255
0.306862 0.0726206 0.636 0 0 0
-0.236549 -0.138061 0.459 255 255 255
-0.247044 0.018661 0.495 255 255 255
-0.197895 0.113254 0.493 255 255 255
0.151742 -0.295676 0.794 255 255 255
-0.232205 0.0263295 0.503 255 255 255
-0.0463756 -0.288185 0.848 255 255 255
0.175165 -0.263573 0.761 255 255 255
-0.188747 -0.144723 0.476 255 255 255
-0.129493 -0.141225 0.508 255 255 255
0.0783376 -0.0668231 0.824 255 255 255
0.112685 -0.103778 0.83 0 0 0
0.157933 0.119188 0.55 255 255 255
0.243319 -0.145937 0.824 255 255 255
0.210871 -0.028818 0.85 0 0 0
-0.227114 -0.10203 0.472 255 255 255
-0.158241 -0.129271 0.497 255 255 255
-0.129802 0.147717 0.449 0 0 0
0.0572795 0.15119 0.486 255 255 255
-0.113104 -0.105542 0.528 255 255 255
0.164317 0.0870947 0.614 255 255 255
0.0873515 0.165919 0.461 255 255 255
0.0954937 0.0103389 0.778 255 255 255
-0.0484592 0.135386 0.526 255 255 255
0.385507 -0.202621 0.799 255 255 255
0.0906767 0.0584867 0.676 255 255 255
0.369411 -0.0656968 0.921 255 255 255
0.103885 0.0658938 0.662 255 255 255
-0.135128 0.0143114 0.544 255 255 255
0.316594 -0.345591 0.92 255 255 255
-0.192993 -0.0583317 0.499 255 255 255
0.163249 -0.239415 0.775 0 0 0
0.289504 0.0196255 0.746 255 255 255
0.368981 0.00459076 0.891 255 255 255
-0.204157 -0.127917 0.474 255 255 255
0.232372 0.104382 0.577 255 255 255
-0.125826 -0.178871 0.5 0 0 0
0.109453 -0.105966 0.826 255 255 255
-0.127513 -0.132652 0.51 255 255 255
-0.190329 0.00433803 0.516 255 255 255
-0.223745 -0.104555 0.473 255 255 255
-0.123306 0.109003 0.503 255 255 255
-0.104268 -0.179959 0.51 255 255 255
0.149613 0.130498 0.527 0 0 0
-0.0625845 -0.135306 0.537 255 255 255
0.187293 -0.264958 0.765 255 255 255
0.203356 -0.240365 0.774 255 255 255
0.125428 -0.0354399 0.843 255 255 255
-0.194439 0.0473456 0.518 255 255 255
-0.219107 -0.0986594 0.478 255 255 255
-0.173468 0.00699002 0.526 255 255 255
0.199563 -0.152253 0.794 255 255 255
0.15333 0.10398 0.58 255 255 255
0.3455 -0.103169 0.963 255 255 255
0.121374 -0.0988495 0.834 255 255 255
0.00429254 0.1534 0.488 255 255 255
-0.183323 -0.165638 0.476 255 255 255
-0.230779 -0.0683227 0.478 255 255 255
-0.183219 -0.110592 0.486 255 255 255
0.347751 -0.266425 0.867 255 255 255
-0.172852 -0.119783 0.488 255 255 255
0.0718081 0.138993 0.499 255 255 255
-0.0950134 0.101315 0.592 255 255 255
0.190824 -0.0259596 0.847 255 255 255
0.346202 -0.12368 0.952 255 255 255
-0.233286 -0.150845 0.457 255 255 255
-0.0721573 -0.079509 0.55 255 255 255
0.134426 0.130746 0.528 255 255 255
-0.15861 -0.0203624 0.525 255 255 255
0.218485 0.114154 0.556 255 255 255
0.0770066 0.000219012 0.81 255 255 255
-0.00617027 0.147114 0.499 255 255 255
-0.0866759 0.118892 0.557 255 255 255
0.215367 -0.0173345 0.83 255 255 255
0.23393 -0.163369 0.824 255 255 255
0.042331 0.157258 0.478 255 255 255
-0.0106066 0.0587463 0.679 255 255 255
0.168463 -0.247894 0.77 255 255 255
-0.18712 -0.0851884 0.49 255 255 255
0.156585 0.153229 0.48 255 255 255
-0.0830515 -0.0671004 0.551 255 255 255
-0.0751011 -0.119144 0.539 0 0 0
-0.221435 0.125593 0.473 255 255 255
0.291742 -0.274473 0.999 255 255 255
0.190646 0.16598 0.455 255 255 255
-0.140278 -0.0334936 0.53 255 255 255
-0.0330654 0.142058 0.513 255 255 255
-0.0275082 0.146656 0.503 255 255 255
-0.0821471 -0.0849945 0.545 255 255 255
0.130832 0.153401 0.483 255 255 255
0.036791 -0.0192705 0.856 255 255 255
-0.0800718 -0.189411 0.52 255 255 255
-0.200655 -0.0800758 0.488 255 255 255
0.348556 -0.306417 0.845 255 255 255
-0.0724281 -0.0453327 0.559 255 255 255
-0.070548 -0.312211 0.824 255 255 255
0.395593 -0.172902 0.788 255 255 255
0.303392 0.0373219 0.713 255 255 255
-0.107556 0.169229 0.433 255 255 255
0.0511442 -0.0530842 0.84 255 255 255
-0.0432629 -0.186809 0.898 255 255 255
0.131415 0.169282 0.45 255 255 255
-0.215103 0.102421 0.511 255 255 255
-0.0912094 -0.0297613 0.557 255 255 255
0.199015 0.0638355 0.663 255 255 255
-0.203726 -0.133805 0.473 255 255 255
0.332154 -0.309811 0.878 255 255 255
0.152577 -0.294879 0.785 0 0 0
0.162345 -0.194949 0.789 255 255 255
-0.0272593 0.132966 0.53 255 255 255
0.163962 0.0516877 0.688 255 255 255
0.106572 0.162118 0.463 255 255 255
0.0653504 -0.222204 0.781 255 255 255
-0.224072 0.145663 0.461 0 0 0
0.346719 -0.240543 0.886 255 255 255
0.384543 0.036531 0.797 0 0 0
