ply
format ascii 1.0
comment Created by Open3D
element vertex 1282
property double x
property double y
property double z
property uchar red
property uchar green
property uchar blue
end_header
0.11358 0.0675207 0.552 255 255 255
-0.140327 -0.0611573 0.443 255 255 255
0.312664 -0.279051 0.721 255 255 255
-0.0326449 0.121523 0.494 255 255 255
-0.0766355 0.144829 0.468 255 255 255
-0.0886655 0.0996146 0.497 0 0 0
0.156006 0.131885 0.506 255 255 255
0.194083 -0.080459 0.708 255 255 255
-0.169244 -0.0209742 0.447 255 255 255
0.0920698 0.0584887 0.569 255 255 255
0.42457 0.38474 1.05 255 255 255
-0.111728 -0.13155 0.669 255 255 255
0.0383011 0.147717 0.449 255 255 255
-0.136814 -0.102996 0.401 255 255 255
0.343888 -0.102503 0.799 255 255 255
-0.115957 -0.139435 0.388 255 255 255
-0.0576434 -0.193846 0.714 255 255 255
-0.114089 -0.0357247 0.596 255 255 255
0.221807 0.0910407 0.553 255 255 255
0.0305084 -0.236002 0.768 255 255 255
-0.103363 0.0047836 0.569 255 255 255
0.154699 0.0750121 0.561 255 255 255
0.150275 0.156421 0.49 255 255 255
0.0566617 0.0787679 0.549 255 255 255
0.22739 0.0122156 0.617 255 255 255
-0.00991799 0.024484 0.575 255 255 255
0.289715 -0.178924 0.834 255 255 255
0.0247949 0.147794 0.456 255 255 255
0.217569 -0.19243 0.877 255 255 255
-0.00791351 -0.176104 0.737 255 255 255
-0.17331 0.00378316 0.45 255 255 255
-0.101145 0.0791368 0.511 255 255 255
-0.0812283 -0.174825 0.717 255 255 255
-0.131409 -0.0184619 0.476 255 255 255
-0.0726806 0.135313 0.472 255 255 255
0.159159 0.0826285 0.545 255 255 255
-0.0924727 0.132308 0.475 255 255 255
0.122151 0.185198 0.486 255 255 255
-0.104632 0.0469819 0.533 255 255 255
0.256724 0.155633 0.525 255 255 255
-0.15103 -0.119818 0.363 255 255 255
0.114009 0.112902 0.533 255 255 255
0.147733 0.0486263 0.584 255 255 255
-0.120981 -0.131304 0.392 255 255 255
0.208891 0.06025 0.577 255 255 255
-0.101837 0.0512224 0.532 255 255 255
0.0564808 -0.0898901 0.675 255 255 255
-0.0454624 0.0692725 0.531 255 255 255
0.104111 0.0575627 0.569 255 255 255
0.267823 -0.224487 0.842 255 255 255
-0.163659 -0.0360674 0.436 255 255 255
0.118513 -0.121017 0.642 255 255 255
-0.14726 -0.13032 0.361 255 255 255
-0.00437883 -0.262722 0.748 255 255 255
-0.160486 -0.0840993 0.395 255 255 255
0.00677141 0.117741 0.495 255 255 255
-0.148021 0.0438968 0.498 255 255 255
-0.052483 0.0547301 0.541 255 255 255
-0.101665 0.0356231 0.545 255 255 255
0.254637 -0.0124789 0.648 255 255 255
-0.0795125 0.149079 0.467 255 255 255
0.132555 0.105026 0.524 255 255 255
0.152563 0.00510307 0.607 255 255 255
-0.0356437 0.122383 0.491 255 255 255
0.0560912 0.0289632 0.59 255 255 255
0.0621366 0.0807015 0.55 255 255 255
0.0697388 -0.0291297 0.6 255 255 255
0.131653 -0.197145 0.625 255 255 255
0.00789097 -0.230158 0.757 255 255 255
0.340672 -0.243237 0.699 255 255 255
-0.0370956 0.0990944 0.511 255 255 255
-0.158548 -0.0228806 0.456 255 255 255
0.126865 0.0856252 0.536 255 255 255
0.0310025 -0.126483 0.695 255 255 255
0.134598 0.107174 0.522 0 0 0
0.0156767 0.131473 0.472 255 255 255
-0.165165 0.022033 0.538 255 255 255
-0.12727 0.0351002 0.537 255 255 255
0.054486 0.139631 0.456 255 255 255
-0.230976 0.0385404 0.513 255 255 255
-0.108376 -0.0270339 0.491 255 255 255
-0.103927 -0.0806682 0.464 255 255 255
0.307642 -0.214476 0.767 255 255 255
-0.180379 -0.0642982 0.388 255 255 255
0.145547 -0.107714 0.713 255 255 255
0.150983 -0.0272922 0.625 255 255 255
-0.164889 -0.108584 0.361 255 255 255
-0.131696 -0.0588519 0.453 255 255 255
-0.134489 -0.121441 0.385 255 255 255
0.320554 -0.105509 0.833 255 255 255
-0.0632577 0.166354 0.454 255 255 255
0.431046 0.353049 1.013 255 255 255
0.263356 0.137703 0.535 255 255 255
0.00351251 0.132499 0.49 255 255 255
-0.190805 0.0169103 0.43 255 255 255
0.183214 0.0713937 0.576 255 255 255
0.0575603 -0.162228 0.616 255 255 255
0.169647 -0.143166 0.753 255 255 255
-0.2123 0.0125344 0.424 255 255 255
-0.210656 0.115751 0.418 255 255 255
0.149864 -0.0963162 0.706 255 255 255
0.0104293 0.144034 0.478 255 255 255
-0.0930312 -0.154687 0.398 255 255 255
-0.172091 -0.0794641 0.385 255 255 255
-0.146096 0.112581 0.443 255 255 255
0.0659418 -0.00961774 0.601 255 255 255
-0.0596394 -0.0984835 0.659 255 255 255
0.225531 0.130746 0.528 255 255 255
0.117887 0.181195 0.488 255 255 255
-0.112113 0.100739 0.483 255 255 255
0.0892725 -0.158014 0.6 255 255 255
-0.135436 -0.0729958 0.432 255 255 255
0.225695 0.106575 0.545 255 255 255
0.107267 0.0404614 0.576 255 255 255
-0.118228 -0.188969 0.722 255 255 255
-0.13061 -0.1301 0.381 255 255 255
-0.172491 0.0185655 0.539 255 255 255
-0.166193 -0.112556 0.355 255 255 255
-0.104352 -0.127946 0.412 255 255 255
0.104717 0.154226 0.501 255 255 255
-0.0269309 0.0392672 0.559 255 255 255
-0.134383 0.0375111 0.534 255 255 255
0.0316134 0.133536 0.458 255 255 255
0.236951 0.0573753 0.586 255 255 255
-0.172399 -0.11154 0.35 255 255 255
0.0178355 0.0805417 0.537 255 255 255
-0.0103342 0.114961 0.504 255 255 255
0.0917598 0.140943 0.506 255 255 255
-0.193748 -0.0299863 0.411 255 255 255
0.348138 -0.232666 0.698 255 255 255
0.072901 0.0708515 0.557 255 255 255
-0.112619 0.129425 0.439 255 255 255
0.0867755 0.146888 0.501 255 255 255
-0.0367243 0.144371 0.474 255 255 255
0.0225881 -0.291824 0.754 255 255 255
0.284851 -0.206612 0.82 255 255 255
0.179824 -0.335016 0.888 255 255 255
-0.150519 0.116746 0.437 255 255 255
0.0931595 0.0576639 0.57 255 255 255
0.0488534 -0.140733 0.661 255 255 255
0.313544 -0.10861 0.836 255 255 255
0.0684657 -0.0809824 0.674 255 255 255
-0.159041 0.0221559 0.541 255 255 255
0.0289535 -0.195204 0.76 255 255 255
-0.100791 0.130471 0.45 255 255 255
0.156873 0.118767 0.517 255 255 255
-0.211799 0.00906305 0.423 255 255 255
-0.0944724 -0.145601 0.407 255 255 255
-0.17408 0.0780908 0.452 255 255 255
-0.142181 0.0592951 0.512 255 255 255
0.320126 -0.197773 0.77 255 255 255
0.307226 0.0478131 0.61 255 255 255
0.003413 -0.0258967 0.616 255 255 255
-0.0171071 -0.241171 0.72 255 255 255
0.355431 -0.194522 0.708 255 255 255
0.173007 0.100759 0.533 255 255 255
-0.17779 -0.0343847 0.424 255 255 255
-0.102812 -0.0312817 0.495 255 255 255
0.184738 0.142327 0.508 255 255 255
-0.170294 0.0339286 0.483 255 255 255
0.25756 -0.245896 0.831 255 255 255
0.2755 -0.215365 0.828 255 255 255
0.170548 0.0467255 0.584 255 255 255
0.288067 -0.2051 0.814 255 255 255
-0.0550464 0.0448186 0.549 255 255 255
-0.117706 0.12959 0.442 255 255 255
-0.0534854 -0.00753421 0.591 255 255 255
-0.0203157 -0.190702 0.752 255 255 255
-0.0931124 0.158353 0.438 255 255 255
-0.207371 -0.0039968 0.421 255 255 255
0.158725 0.156898 0.489 255 255 255
-0.0932432 -0.111369 0.442 255 255 255
-0.0854593 -0.154279 0.402 255 255 255
-0.0891423 -0.140354 0.413 255 255 255
-0.182047 -0.00777493 0.441 0 0 0
-0.0887312 -0.152971 0.402 255 255 255
-0.103007 -0.14209 0.399 255 255 255
-0.0752855 -0.0522974 0.62 255 255 255
-0.205673 0.0937029 0.426 255 255 255
0.263561 0.0471077 0.601 255 255 255
-0.152201 -0.0259056 0.457 255 255 255
0.055364 -0.0292753 0.603 255 255 255
0.134888 0.164462 0.495 0 0 0
-0.18994 0.154235 0.41 255 255 255
-0.0894745 0.100423 0.497 0 0 0
0.101373 0.107231 0.535 255 255 255
-0.118231 -0.109556 0.416 255 255 255
-0.0402051 0.114402 0.498 255 255 255
0.122084 0.0868203 0.538 255 255 255
0.0840385 -0.126755 0.619 255 255 255
-0.131826 0.0884287 0.456 255 255 255
-0.189994 -0.0578348 0.387 255 255 255
0.00730491 0.0800918 0.534 255 255 255
-0.09915 -0.0771222 0.47 255 255 255
0.343238 -0.22018 0.709 255 255 255
-0.0588508 0.139922 0.472 255 255 255
0.0364324 0.047294 0.568 255 255 255
-0.0967543 -0.147653 0.4 255 255 255
-0.217619 0.00554152 0.417 255 255 255
-0.00402173 -0.117202 0.687 255 255 255
-0.0973394 0.144367 0.441 255 255 255
0.180463 0.145837 0.503 255 255 255
0.269762 0.0987483 0.561 255 255 255
-0.110105 -0.119034 0.416 255 255 255
-0.171677 -0.102438 0.358 255 255 255
0.123552 0.0990239 0.533 255 255 255
-0.109319 -0.0993653 0.443 255 255 255
0.200642 0.0210799 0.612 255 255 255
0.0529965 -0.117787 0.659 255 255 255
-0.0516099 0.06594 0.532 255 255 255
0.106199 0.0817449 0.551 0 0 0
-0.118238 -0.0836939 0.444 255 255 255
-0.195505 -0.0116425 0.425 0 0 0
-0.204289 0.0292429 0.511 255 255 255
0.000460021 -0.133089 0.7 255 255 255
-0.0818322 -0.251967 0.665 255 255 255
0.0234637 0.136068 0.459 255 255 255
0.117354 -0.113527 0.653 255 255 255
0.0400428 0.164858 0.444 255 255 255
0.306433 -0.0030206 0.655 255 255 255
0.0759769 0.00801328 0.603 0 0 0
-0.0372372 -0.169463 0.724 255 255 255
0.174984 -0.0933957 0.71 255 255 255
0.304649 -0.160492 0.823 255 255 255
-0.208551 0.000800835 0.422 255 255 255
-0.0610782 -0.00848159 0.59 255 255 255
0.0749953 -0.169598 0.603 255 255 255
-0.0640917 -0.0622689 0.629 255 255 255
-0.13468 0.159814 0.423 255 255 255
0.0321539 -0.0315612 0.629 255 255 255
-0.220303 0.0368971 0.502 255 255 255
-0.164721 -0.0910388 0.381 255 255 255
-0.176708 -0.00346261 0.555 255 255 255
-0.049599 -0.0549286 0.627 255 255 255
-0.133453 -0.0176501 0.475 255 255 255
-0.208536 0.0830463 0.447 255 255 255
0.0873191 0.00894981 0.6 255 255 255
0.371054 -0.129643 0.732 255 255 255
0.05212 0.089613 0.539 255 255 255
0.293083 -0.173079 0.832 255 255 255
-0.135542 -0.00631668 0.568 255 255 255
0.00582102 0.143183 0.483 255 255 255
-0.106481 -0.0528577 0.486 255 255 255
-0.0599896 0.152323 0.463 255 255 255
-0.0268879 -0.209168 0.731 255 255 255
0.21997 -0.276751 0.864 255 255 255
-0.0668406 -0.00848159 0.59 255 255 255
-0.0985698 -0.0599756 0.486 255 255 255
-0.176797 0.143644 0.42 255 255 255
-0.0276445 0.0866204 0.521 255 255 255
0.350913 -0.223899 0.699 255 255 255
0.283815 -0.0518256 0.68 255 255 255
-0.153727 -0.134507 0.349 255 255 255
0.200692 -0.085428 0.711 255 255 255
-0.049594 0.0474123 0.548 255 255 255
0.21528 0.0692776 0.574 255 255 255
0.0718564 0.109932 0.523 255 255 255
-0.1601 -0.024151 0.452 255 255 255
0.0805558 0.18371 0.474 255 255 255
-0.0967699 -0.260792 0.671 255 255 255
0.311737 -0.0941755 0.817 255 255 255
0.155389 0.134645 0.504 255 255 255
0.37784 -0.104991 0.743 255 255 255
-0.0467203 -0.135679 0.69 255 255 255
-0.0132793 -0.00862534 0.6 255 255 255
-0.19434 0.114769 0.427 255 255 255
0.0433339 0.0993393 0.508 255 255 255
-0.143565 -0.0963962 0.398 255 255 255
0.211194 -0.0611244 0.685 255 255 255
-0.0688699 0.146799 0.467 255 255 255
0.0254252 0.153795 0.454 255 255 255
-0.100996 -0.0489044 0.494 255 255 255
-0.0987077 -0.146351 0.4 255 255 255
-0.207949 -0.0288919 0.396 255 255 255
0.190144 -0.000841305 0.62 255 255 255
-0.106604 -0.108146 0.432 255 255 255
0.262261 -0.278286 0.796 255 255 255
-0.196037 0.0238345 0.52 255 255 255
-0.122233 -0.0603783 0.459 255 255 255
0.0566992 0.159763 0.45 255 255 255
0.113652 -0.144563 0.605 255 255 255
-0.00559643 -0.234725 0.748 255 255 255
-0.164297 0.0482556 0.477 255 255 255
0.0689813 0.0632565 0.562 255 255 255
-0.158332 -0.11099 0.369 255 255 255
0.0449517 -0.247306 0.78 255 255 255
-0.183946 -0.0860277 0.365 255 255 255
0.353905 -0.160178 0.741 255 255 255
-0.169508 0.0347146 0.483 255 255 255
0.206075 -0.260165 0.889 255 255 255
0.141329 -0.167696 0.614 255 255 255
-0.216259 0.0934829 0.425 0 0 0
0.308961 -0.197289 0.783 255 255 255
0.253606 0.0505953 0.596 255 255 255
-0.0407728 -0.169463 0.724 255 255 255
-0.130857 0.160882 0.424 0 0 0
0.336567 -0.208023 0.727 255 255 255
0.195103 0.168448 0.507 0 0 0
0.242565 -0.286086 0.826 255 255 255
-0.187474 -0.0725434 0.372 255 255 255
-0.197348 0.0289568 0.506 255 255 255
-0.0696352 0.107856 0.494 0 0 0
-0.112929 0.0277932 0.548 255 255 255
-0.204286 0.0236854 0.426 255 255 255
-0.131133 -0.023061 0.475 255 255 255
-0.0687665 -0.0373718 0.607 255 255 255
-0.209976 0.114391 0.418 255 255 255
-0.0229353 -0.222115 0.719 255 255 255
0.0545702 0.0353212 0.584 255 255 255
0.0960952 -0.0997121 0.653 255 255 255
-0.210422 0.0944197 0.423 0 0 0
-0.144125 0.0508154 0.519 255 255 255
-0.14496 -0.101581 0.393 255 255 255
-0.0936403 -0.244371 0.68 0 0 0
0.0159974 0.0853058 0.534 255 255 255
0.193834 0.171261 0.508 255 255 255
0.316918 -0.275149 0.72 255 255 255
0.207576 0.0444755 0.592 255 255 255
0.0562347 -0.148631 0.635 255 255 255
-0.0840769 -0.0698756 0.633 255 255 255
0.106598 0.141227 0.51 255 255 255
-0.0577133 0.145138 0.469 255 255 255
0.247831 -0.205509 0.878 255 255 255
-0.112477 0.103795 0.465 255 255 255
-0.162992 -0.097445 0.377 255 255 255
-0.09911 -0.134341 0.407 255 255 255
-0.0905089 -0.0718825 0.481 255 255 255
-0.117798 -0.0268136 0.487 255 255 255
-0.0679129 -0.16202 0.712 255 255 255
0.0303821 0.103264 0.499 255 255 255
-0.0944624 -0.106413 0.655 255 255 255
0.198118 -0.0376705 0.646 255 255 255
0.187641 0.0493219 0.581 255 255 255
-0.107912 -0.120287 0.418 255 255 255
-0.038106 0.146835 0.472 255 255 255
0.0447587 0.113935 0.479 255 255 255
-0.130176 -0.0158065 0.577 255 255 255
-0.156621 -0.0108613 0.564 255 255 255
-0.110892 -0.137501 0.397 255 255 255
0.112326 0.169295 0.495 255 255 255
-0.152616 -0.131453 0.353 255 255 255
-0.152308 0.121873 0.43 0 0 0
-0.0888641 -0.0260258 0.596 255 255 255
-0.178394 -0.0512978 0.405 255 255 255
0.0757569 0.0709787 0.558 255 255 255
-0.174665 -0.0564307 0.404 255 255 255
-0.167071 0.00105513 0.556 255 255 255
0.0488255 0.161608 0.445 255 255 255
-0.180285 0.129447 0.425 255 255 255
0.127291 -0.148492 0.609 255 255 255
0.198132 -0.0779339 0.706 255 255 255
-0.0875148 0.0770921 0.514 255 255 255
-0.110458 -0.188574 0.725 255 255 255
-0.16893 -0.00723331 0.452 255 255 255
0.295881 -0.19882 0.81 255 255 255
0.289516 0.0274533 0.621 255 255 255
0.244279 0.0608765 0.583 255 255 255
-0.11518 -0.249332 0.748 255 255 255
-0.0702014 -0.0756187 0.638 255 255 255
0.0927641 -0.10062 0.652 255 255 255
-0.136584 -0.112517 0.391 255 255 255
-0.133992 0.153619 0.423 255 255 255
-0.0213195 0.169311 0.458 255 255 255
0.0308899 0.0838808 0.536 255 255 255
-0.180077 -0.0744935 0.382 255 255 255
0.0757249 -0.00863972 0.601 255 255 255
-0.16415 0.0866834 0.447 255 255 255
0.267741 -0.00611387 0.644 255 255 255
0.142927 0.0807064 0.544 255 255 255
-0.131102 0.0283709 0.542 255 255 255
-0.170502 -0.0270284 0.439 255 255 255
-0.182349 -0.0480025 0.405 255 255 255
0.0818908 -0.18488 0.618 0 0 0
-0.0128594 0.150403 0.476 255 255 255
0.354656 -0.12244 0.777 255 255 255
-0.21281 0.0649943 0.453 255 255 255
-0.143756 -0.0919325 0.404 255 255 255
-0.0325644 0.0339906 0.562 255 255 255
-0.203852 -0.012131 0.418 255 255 255
0.128424 0.000163583 0.605 255 255 255
0.362413 -0.154025 0.729 255 255 255
-0.09987 -0.0338983 0.598 255 255 255
-0.0994733 -0.200841 0.731 255 255 255
0.0647883 0.122747 0.483 255 255 255
0.0426018 0.124714 0.464 255 255 255
-0.144516 -0.11079 0.385 255 255 255
-0.155412 -0.105472 0.375 255 255 255
-0.108331 -0.0679441 0.47 255 255 255
-0.0782746 -0.216554 0.701 255 255 255
-0.120476 -0.0677 0.458 255 255 255
-0.137632 -0.108251 0.394 255 255 255
-0.146979 -0.022527 0.464 255 255 255
0.110044 0.174674 0.492 255 255 255
-0.105065 0.120968 0.476 255 255 255
-0.00508956 0.153628 0.474 255 255 255
0.348528 -0.122579 0.786 255 255 255
0.332993 -0.249992 0.702 255 255 255
-0.01277 0.117188 0.503 255 255 255
-0.125466 -0.074301 0.444 255 255 255
0.134891 -0.144244 0.612 0 0 0
0.294581 -0.157829 0.852 255 255 255
-0.132693 0.115003 0.444 0 0 0
-0.202194 0.0673542 0.454 0 0 0
0.274413 -0.000868444 0.64 255 255 255
0.169949 -0.110401 0.723 255 255 255
0.0419609 -0.0423952 0.638 255 255 255
0.362285 -0.158859 0.724 255 255 255
-0.136512 0.120411 0.44 0 0 0
-0.16352 0.0459269 0.477 255 255 255
-0.0639967 0.166354 0.454 255 255 255
0.0499852 0.0450697 0.575 255 255 255
-0.209203 0.0748161 0.45 255 255 255
-0.0121505 0.0573263 0.549 255 255 255
0.197583 -0.298041 0.877 255 255 255
-0.13524 -0.0517074 0.455 255 255 255
0.268843 -0.0458161 0.673 255 255 255
-0.207955 0.0392673 0.481 255 255 255
-0.0312729 0.099926 0.511 255 255 255
-0.213063 -0.0124741 0.407 255 255 255
-0.0715961 0.130762 0.475 255 255 255
0.0822026 0.14925 0.498 255 255 255
0.123546 0.147287 0.508 0 0 0
-0.0997186 0.132467 0.442 255 255 255
0.283571 -0.179696 0.844 255 255 255
0.3021 -0.190675 0.809 255 255 255
-0.149852 0.0512206 0.483 255 255 255
0.0784513 0.0559067 0.571 255 255 255
-0.10301 0.0759589 0.512 255 255 255
0.239552 -0.0199218 0.65 255 255 255
-0.176404 0.0469817 0.472 255 255 255
-0.0979361 -0.1039 0.447 255 255 255
0.356793 -0.130892 0.76 255 255 255
0.238544 -0.259817 0.85 255 255 255
0.0800088 -0.115564 0.635 255 255 255
0.291863 -0.216923 0.799 255 255 255
-0.116768 -0.203136 0.735 255 255 255
0.209821 -0.0669237 0.699 0 0 0
0.35265 -0.158831 0.746 255 255 255
-0.0743501 0.141021 0.468 255 255 255
-0.187911 -0.0474098 0.4 255 255 255
-0.198323 0.0655682 0.457 255 255 255
-0.0491846 0.0991438 0.507 255 255 255
-0.19367 0.0288996 0.505 255 255 255
0.192255 0.0600412 0.575 255 255 255
-0.0532958 0.173328 0.451 255 255 255
0.260756 -0.255893 0.824 255 255 255
-0.126408 -0.122046 0.393 255 255 255
-0.212902 0.0801366 0.447 255 255 255
0.316866 -0.10835 0.834 255 255 255
-0.08027 0.127939 0.476 255 255 255
-0.103293 0.124676 0.445 255 255 255
0.299389 0.022689 0.629 255 255 255
-0.240816 0.0355442 0.518 255 255 255
0.103653 0.131133 0.516 255 255 255
0.0917028 -0.0995594 0.652 255 255 255
0.327269 -0.2495 0.717 255 255 255
0.0910792 -0.0804782 0.679 255 255 255
0.187078 0.012077 0.61 255 255 255
0.363497 -0.142329 0.736 255 255 255
0.313067 -0.131187 0.824 255 255 255
0.0701519 -0.0557997 0.649 255 255 255
-0.16893 -0.00355555 0.452 255 255 255
0.373119 -0.102728 0.753 255 255 255
-0.0977787 0.116391 0.486 255 255 255
-0.101993 -0.202307 0.732 255 255 255
0.0935463 0.0343709 0.584 255 255 255
0.0494762 -0.0605792 0.655 255 255 255
0.0149676 -0.112566 0.686 255 255 255
0.372565 -0.0147705 0.767 255 255 255
-0.224086 0.054191 0.449 255 255 255
-0.127595 -0.12708 0.385 255 255 255
-0.133172 -0.0322687 0.474 255 255 255
0.0868879 -0.121881 0.625 255 255 255
-0.00398783 0.0799418 0.533 255 255 255
0.266576 -0.0168515 0.654 255 255 255
-0.17857 0.0228115 0.516 255 255 255
0.227269 -0.236484 0.887 255 255 255
-0.140605 -0.0416139 0.458 255 255 255
-0.00462378 -0.0300036 0.618 255 255 255
0.030429 -0.211704 0.766 255 255 255
0.0651797 -0.00768719 0.603 255 255 255
0.0541427 0.0955544 0.533 255 255 255
-0.0746856 -0.0261568 0.599 255 255 255
0.203984 -0.22534 0.912 255 255 255
0.0246165 -0.0953824 0.675 255 255 255
0.228252 -0.06233 0.686 255 255 255
0.211608 0.143728 0.513 255 255 255
0.442378 0.346428 0.994 255 255 255
0.261107 0.00532165 0.633 255 255 255
0.236976 0.0762155 0.57 255 255 255
-0.141676 -0.108063 0.391 255 255 255
0.0492496 -0.0581797 0.652 0 0 0
0.205257 0.0539563 0.58 255 255 255
0.43366 0.366285 1.027 255 255 255
-0.0587713 0.125364 0.484 255 255 255
0.131686 -0.102479 0.701 255 255 255
-0.160689 -0.0612533 0.419 255 255 255
-0.103409 -0.0344341 0.494 255 255 255
0.380299 -0.0727639 0.76 255 255 255
0.227877 -0.110419 0.747 255 255 255
0.138107 0.00894981 0.6 255 255 255
0.0616992 -0.0807421 0.672 255 255 255
-0.166273 -0.0776714 0.395 255 255 255
0.13354 0.173424 0.493 255 255 255
-0.0810798 -0.152696 0.403 255 255 255
-0.0828167 -0.244046 0.673 255 255 255
-0.207437 -0.00735181 0.417 255 255 255
0.0576076 -0.269557 0.797 255 255 255
-0.1032 -0.0415849 0.493 255 255 255
-0.119272 -0.0992509 0.427 255 255 255
-0.101937 0.0722136 0.515 255 255 255
0.132389 0.11184 0.52 255 255 255
-0.169661 -0.10909 0.355 255 255 255
0.247405 0.00935255 0.627 255 255 255
0.27544 -0.198399 0.836 255 255 255
-0.165832 -0.115368 0.353 255 255 255
0.33299 -0.1691 0.765 255 255 255
-0.148601 -0.00889699 0.462 255 255 255
-0.135573 -0.0215517 0.58 255 255 255
0.325869 -0.1502 0.79 255 255 255
0.199446 0.0952194 0.546 255 255 255
0.0609585 0.165984 0.449 255 255 255
-0.112662 0.0860834 0.503 255 255 255
-0.124879 -0.17385 0.713 255 255 255
0.244325 0.0792754 0.572 255 255 255
-0.20173 0.146201 0.399 255 255 255
0.275225 -0.0245987 0.662 255 255 255
-0.185575 -0.0694075 0.378 255 255 255
0.15024 0.131885 0.506 255 255 255
0.203066 0.0889181 0.551 255 255 255
-0.0991019 -0.26118 0.672 255 255 255
0.253314 0.00835879 0.629 255 255 255
-0.241192 0.0388409 0.517 255 255 255
-0.192745 0.136483 0.419 255 255 255
-0.0919639 0.00201985 0.573 255 255 255
0.142861 -0.00581008 0.612 255 255 255
0.113016 -0.055011 0.665 0 0 0
0.230678 0.120089 0.538 255 255 255
0.0901652 -0.165511 0.606 255 255 255
0.351669 -0.0769774 0.765 0 0 0
0.0718635 -0.0876932 0.675 255 255 255
-0.135045 0.137521 0.433 0 0 0
0.110083 0.0268597 0.586 255 255 255
-0.0739836 0.0836207 0.513 255 255 255
-0.135576 -0.0167164 0.576 255 255 255
0.253332 0.0956672 0.559 255 255 255
0.23801 0.09824 0.553 255 255 255
0.0501784 0.0901544 0.537 255 255 255
-0.108136 0.0898176 0.501 255 255 255
-0.0740155 0.172242 0.452 255 255 255
-0.188443 0.115143 0.431 255 255 255
0.297912 -0.254123 0.755 255 255 255
0.0471254 -0.128986 0.667 255 255 255
-0.1179 0.108743 0.451 255 255 255
-0.176705 -0.0916238 0.366 255 255 255
0.213676 -0.127912 0.757 255 255 255
0.193512 0.167784 0.505 0 0 0
0.0996168 0.179607 0.488 255 255 255
-0.155854 -0.0440733 0.438 0 0 0
0.244078 -0.252901 0.85 255 255 255
-0.104921 -0.112717 0.428 255 255 255
0.246039 -0.245177 0.852 255 255 255
-0.106125 0.108135 0.488 255 255 255
0.0880607 0.1628 0.49 255 255 255
-0.0629888 0.0336277 0.556 255 255 255
-0.196496 0.0447715 0.465 255 255 255
-0.0526286 -0.0736575 0.639 255 255 255
0.392078 -0.00481021 0.771 255 255 255
0.0943539 -0.17569 0.614 255 255 255
-0.0346124 0.0639381 0.537 255 255 255
-0.074215 -0.143405 0.416 0 0 0
-0.174869 -0.0540673 0.406 255 255 255
0.25518 0.0432675 0.602 255 255 255
-0.109175 -0.165952 0.709 255 255 255
-0.155102 0.0686696 0.468 255 255 255
0.27335 0.104764 0.559 255 255 255
-0.153884 -0.1241 0.36 255 255 255
0.254577 0.0505953 0.596 255 255 255
-0.130243 0.109478 0.448 255 255 255
0.31885 0.0348609 0.627 255 255 255
-0.202658 0.152575 0.397 255 255 255
-0.100844 0.0692625 0.518 255 255 255
0.330303 -0.184335 0.756 255 255 255
-0.0111767 0.113545 0.505 255 255 255
-0.176113 -0.112192 0.345 255 255 255
0.325989 -0.172572 0.775 255 255 255
0.124902 -0.0948155 0.695 255 255 255
0.0316093 0.119952 0.469 255 255 255
-0.149677 -0.0149439 0.463 255 255 255
0.0300218 -0.158117 0.726 255 255 255
-0.17907 0.0611549 0.463 255 255 255
-0.0801326 -0.0221463 0.596 255 255 255
-0.0084798 -0.0136424 0.606 255 255 255
-0.0943035 -0.125018 0.669 255 255 255
-0.167007 0.0160819 0.544 255 255 255
0.17392 -0.0151355 0.627 255 255 255
0.0374597 -0.0558857 0.65 255 255 255
0.116307 0.129611 0.52 0 0 0
-0.1135 0.101841 0.463 255 255 255
0.200857 -0.124839 0.746 255 255 255
-0.162312 -0.0705846 0.406 255 255 255
-0.00259491 -0.0228151 0.614 255 255 255
-0.204499 -0.00265154 0.425 255 255 255
-0.145557 -0.137586 0.354 255 255 255
-0.197324 0.0738405 0.453 255 255 255
-0.102049 -0.10227 0.649 255 255 255
-0.117245 -0.138717 0.386 255 255 255
0.215884 0.0472856 0.591 255 255 255
-0.145275 -0.132519 0.359 255 255 255
-0.09468 -0.0150479 0.584 255 255 255
-0.146016 -0.109253 0.384 255 255 255
0.124817 0.11075 0.531 255 255 255
-0.114164 -0.148469 0.382 255 255 255
-0.102903 -0.126106 0.417 255 255 255
-0.0184753 0.141807 0.481 255 255 255
-0.124958 -0.0185395 0.478 255 255 255
-0.166543 0.0256124 0.505 255 255 255
0.133845 0.0873697 0.536 255 255 255
0.108451 -0.083297 0.684 255 255 255
-0.13612 0.096693 0.453 255 255 255
-0.159408 -0.126556 0.349 255 255 255
-0.11159 -0.147511 0.386 255 255 255
0.260772 0.120987 0.546 255 255 255
0.147156 0.0547109 0.578 255 255 255
0.392587 -0.0337113 0.772 255 255 255
-0.184073 0.0421935 0.47 255 255 255
-0.173587 0.155681 0.4 0 0 0
0.224653 0.0776597 0.567 255 255 255
0.0891237 0.00308627 0.599 255 255 255
0.153627 -0.137351 0.735 255 255 255
0.185716 0.127072 0.52 255 255 255
-0.216704 0.0833867 0.43 255 255 255
0.206664 0.152992 0.505 255 255 255
0.0495498 0.169574 0.445 255 255 255
-0.207266 0.0229382 0.425 255 255 255
0.183187 0.186232 0.506 255 255 255
0.382451 -0.029355 0.79 255 255 255
0.117786 -0.149733 0.606 255 255 255
-0.197889 0.0691351 0.456 255 255 255
0.173994 0.0430711 0.586 255 255 255
0.31019 -0.222706 0.761 255 255 255
0.194934 0.00618116 0.616 255 255 255
0.16114 -0.0402555 0.637 255 255 255
-0.0593081 0.0545278 0.539 255 255 255
0.295179 -0.271367 0.745 255 255 255
-0.146711 -0.0965563 0.396 255 255 255
0.0876102 0.000162772 0.602 255 255 255
0.140133 -0.181015 0.622 255 255 255
0.0078521 0.0319141 0.574 255 255 255
0.0150624 -0.18311 0.746 255 255 255
0.0511359 -0.0536875 0.649 255 255 255
0.013074 -0.272408 0.772 255 255 255
0.215191 -0.14925 0.785 0 0 0
-0.035848 0.0910033 0.517 255 255 255
0.279304 0.119405 0.551 255 255 255
0.245219 -0.018893 0.651 255 255 255
0.340913 -0.0958558 0.82 255 255 255
0.452394 0.311729 0.957 255 255 255
0.110633 -0.239588 0.705 255 255 255
-0.178569 -0.113 0.339 255 255 255
-0.156322 -0.128995 0.351 255 255 255
0.0937764 0.138193 0.508 255 255 255
-0.0811932 -0.106297 0.451 255 255 255
-0.215103 0.0849834 0.431 0 0 0
0.372356 -0.0595221 0.749 255 255 255
-0.0637818 0.0230569 0.563 255 255 255
0.465818 0.321988 0.937 255 255 255
0.353876 -0.0884208 0.801 255 255 255
0.206622 0.124731 0.528 255 255 255
-0.257525 0.0325692 0.511 255 255 255
0.234596 0.0438796 0.597 255 255 255
-0.185216 0.0115754 0.44 255 255 255
0.182551 0.105963 0.533 255 255 255
-0.11294 -0.0257638 0.59 255 255 255
0.184011 0.14506 0.506 255 255 255
0.0261097 0.105658 0.495 255 255 255
-0.195721 0.132339 0.421 255 255 255
-0.186366 -0.0759708 0.371 255 255 255
-0.111782 0.0444631 0.534 255 255 255
-0.204532 0.116431 0.418 255 255 255
0.0593942 0.105747 0.511 255 255 255
-0.111888 0.166578 0.428 255 255 255
0.310688 0.0507079 0.609 255 255 255
-0.197468 0.101812 0.437 255 255 255
0.210921 0.0549002 0.58 255 255 255
0.264717 -0.131824 0.828 255 255 255
-0.178771 -0.0270476 0.428 255 255 255
0.201535 0.13926 0.515 255 255 255
-0.0430703 -0.169229 0.723 255 255 255
-0.0949624 -0.13398 0.412 255 255 255
0.0646907 -0.0967119 0.669 255 255 255
0.0227415 -0.14978 0.72 255 255 255
0.174278 -0.0265694 0.632 255 255 255
-0.0551284 0.165616 0.454 255 255 255
-0.167656 -0.0587461 0.411 255 255 255
-0.129753 0.0796709 0.47 255 255 255
-0.163423 0.0841485 0.449 255 255 255
0.0351496 0.0732738 0.548 255 255 255
-0.15001 0.146982 0.414 255 255 255
-0.0125352 0.163978 0.464 255 255 255
-0.15495 0.081033 0.452 255 255 255
0.135288 -0.192458 0.623 255 255 255
-0.173567 -0.0815241 0.38 255 255 255
-0.0553472 0.0423687 0.552 255 255 255
-0.152232 0.0169983 0.545 255 255 255
-0.172928 0.0393839 0.473 255 255 255
-0.204047 -0.0292567 0.401 0 0 0
0.0962655 -0.106166 0.647 255 255 255
-0.142902 -0.0848305 0.411 255 255 255
-0.0198834 -0.175865 0.736 255 255 255
-0.0212806 -0.141667 0.703 255 255 255
-0.157045 -0.114257 0.366 255 255 255
-0.128164 0.086002 0.467 255 255 255
0.0775966 -0.175952 0.608 255 255 255
0.202405 -0.110886 0.734 0 0 0
0.317859 -0.227118 0.747 255 255 255
0.258573 0.069177 0.581 255 255 255
0.141442 0.135465 0.504 255 255 255
-0.110937 0.134832 0.438 255 255 255
-0.148364 -0.108684 0.382 255 255 255
0.171235 -0.308872 0.896 0 0 0
-0.212842 -0.00728128 0.413 255 255 255
0.220421 0.173614 0.52 255 255 255
-0.193346 -0.028116 0.413 255 255 255
-0.115026 -0.245352 0.747 0 0 0
0.0508391 0.15244 0.45 255 255 255
0.104111 0.011681 0.59 255 255 255
-0.000455227 0.162692 0.469 255 255 255
-0.0418264 0.113592 0.498 255 255 255
-0.137827 0.149112 0.42 255 255 255
-0.106175 -0.191724 0.728 255 255 255
-0.171327 0.137493 0.42 255 255 255
0.0293554 -0.106516 0.683 255 255 255
-0.165408 0.11338 0.435 0 0 0
0.093842 -0.146783 0.598 255 255 255
0.058552 0.152719 0.453 255 255 255
-0.151533 -0.116107 0.37 255 255 255
0.24486 0.0212866 0.618 255 255 255
0.294289 -0.176778 0.824 255 255 255
-0.123788 -0.13816 0.381 255 255 255
0.16549 -0.0181675 0.626 255 255 255
-0.126339 -0.203136 0.735 255 255 255
-0.10533 0.111311 0.488 255 255 255
-0.19312 0.156332 0.4 255 255 255
-0.0842197 -0.155396 0.703 255 255 255
0.269022 -0.0234504 0.66 255 255 255
0.468139 0.363769 0.967 255 255 255
-0.0536552 -0.0378644 0.615 255 255 255
-0.176346 -0.0782233 0.382 255 255 255
-0.105589 -0.129011 0.409 255 255 255
-0.173197 -0.0347091 0.428 255 255 255
0.169937 -0.033929 0.635 255 255 255
-0.0242734 -0.217769 0.724 255 255 255
0.0291203 0.144929 0.454 255 255 255
0.127923 0.173424 0.493 255 255 255
-0.0430367 -0.261774 0.685 255 255 255
-0.138638 -0.0478997 0.454 255 255 255
-0.219313 0.0765668 0.431 0 0 0
0.256386 0.00835879 0.629 255 255 255
0.246187 0.0792754 0.572 255 255 255
0.153596 0.0771965 0.557 255 255 255
0.216206 0.16724 0.516 0 0 0
0.108253 -0.191042 0.625 255 255 255
-0.163404 -0.00430059 0.453 255 255 255
-0.0673523 -0.102009 0.661 255 255 255
-0.166082 -0.111714 0.356 255 255 255
0.18197 -0.109376 0.724 255 255 255
0.223594 -0.0555901 0.672 255 255 255
0.0269617 -0.0666679 0.652 255 255 255
-0.127825 0.0829283 0.48 255 255 255
0.0650716 -0.0321657 0.602 255 255 255
0.00356269 0.119834 0.497 255 255 255
-0.00343417 0.172668 0.459 255 255 255
0.0184839 -0.0209185 0.617 255 255 255
-0.114731 -0.142485 0.386 255 255 255
0.103987 -0.25907 0.748 255 255 255
0.179986 -0.313246 0.896 255 255 255
0.153452 0.121424 0.514 255 255 255
0.18268 -0.338268 0.874 255 255 255
-0.141888 -0.118618 0.378 255 255 255
-0.152817 0.0671465 0.468 255 255 255
-0.123955 0.163642 0.424 255 255 255
-0.133671 0.0712563 0.465 255 255 255
-0.0383442 0.0442453 0.553 255 255 255
0.226294 -0.275581 0.856 255 255 255
-0.21234 0.0633797 0.452 255 255 255
0.078934 0.136833 0.503 255 255 255
0.335508 -0.196883 0.743 255 255 255
0.100516 -0.0194625 0.603 255 255 255
-0.112796 -0.11961 0.411 255 255 255
0.235014 0.0746212 0.572 255 255 255
0.0563398 0.151244 0.453 255 255 255
0.00272721 -0.127982 0.697 255 255 255
0.142368 0.172622 0.493 255 255 255
-0.116432 0.109477 0.451 255 255 255
0.0267847 0.161208 0.452 255 255 255
-0.202639 0.0638004 0.455 255 255 255
0.196701 0.17077 0.509 255 255 255
0.140847 0.0393236 0.587 255 255 255
-0.180468 0.143984 0.419 255 255 255
0.169024 -0.0755886 0.695 255 255 255
0.055955 0.130191 0.462 255 255 255
0.0827162 -0.284826 0.789 255 255 255
-0.0391676 -0.0675238 0.64 255 255 255
-0.100244 -0.104704 0.651 255 255 255
0.0496612 0.159068 0.446 255 255 255
-0.059904 0.0879659 0.514 255 255 255
-0.206085 0.0803159 0.448 255 255 255
-0.0738614 0.077692 0.518 255 255 255
0.112932 0.0127697 0.596 255 255 255
0.20662 -0.105819 0.732 0 0 0
0.0545563 -0.123963 0.652 255 255 255
0.110429 -0.0596967 0.669 255 255 255
-0.162667 0.00159684 0.453 255 255 255
-0.0670611 0.150711 0.465 255 255 255
-0.253782 0.045152 0.494 255 255 255
0.166625 0.0677618 0.577 255 255 255
0.0321177 -0.152123 0.72 255 255 255
0.306136 0.0579622 0.602 255 255 255
-0.201138 -0.0270452 0.407 255 255 255
0.306645 0.056096 0.603 255 255 255
-0.0891279 0.120139 0.482 255 255 255
-0.0454978 0.136746 0.477 255 255 255
0.241474 -0.0475785 0.667 255 255 255
0.444257 0.316818 0.963 255 255 255
-0.0643483 0.0167914 0.568 255 255 255
0.319862 -0.223172 0.746 255 255 255
-0.100104 -0.140891 0.403 255 255 255
0.0602276 0.169637 0.449 255 255 255
-0.0355606 -0.208951 0.714 255 255 255
0.343296 -0.0950375 0.813 255 255 255
0.157133 0.159285 0.489 255 255 255
0.0519623 -0.0362127 0.621 0 0 0
-0.0796622 -0.0813758 0.477 255 255 255
0.272627 -0.265332 0.796 255 255 255
-0.0943674 -0.0259385 0.594 255 255 255
0.0725477 0.0157583 0.599 255 255 255
0.134565 0.0271805 0.593 255 255 255
0.145638 0.119518 0.513 255 255 255
-0.221088 0.0817965 0.429 255 255 255
0.0493708 -0.0759133 0.668 255 255 255
-0.131592 -0.105477 0.403 255 255 255
0.346773 0.0114648 0.693 255 255 255
-0.108405 -0.142594 0.395 255 255 255
-0.14777 0.131446 0.427 255 255 255
-0.135369 -0.0838655 0.423 255 255 255
-0.132396 0.0391756 0.533 255 255 255
0.0296392 -0.25047 0.778 255 255 255
0.181653 0.06025 0.577 255 255 255
0.050348 -0.152687 0.639 255 255 255
0.464861 0.36866 0.98 255 255 255
0.351756 -0.177776 0.734 255 255 255
-0.00331339 0.0388379 0.566 255 255 255
-0.012571 0.0315806 0.568 255 255 255
-0.117615 -0.242029 0.748 255 255 255
0.0704362 0.00312234 0.606 255 255 255
-0.225269 0.0232978 0.527 255 255 255
0.146978 0.0938197 0.533 255 255 255
-0.11146 0.0208852 0.554 255 255 255
0.0601752 -0.0356878 0.612 0 0 0
0.268848 -0.164372 0.872 255 255 255
-0.196605 0.0810449 0.448 255 255 255
-0.142394 -0.114599 0.381 255 255 255
0.0548945 0.10844 0.493 255 255 255
-0.0307817 -0.220801 0.711 255 255 255
-0.190265 -0.060042 0.385 255 255 255
0.0544943 0.0980949 0.528 255 255 255
0.142767 0.0185578 0.595 255 255 255
-0.179104 0.144666 0.419 255 255 255
0.343668 -0.196193 0.727 255 255 255
-0.155486 -0.0436575 0.441 255 255 255
0.000440306 -0.0914049 0.67 255 255 255
0.0778108 -0.0282471 0.602 255 255 255
-0.177931 0.0647819 0.462 255 255 255
-0.138219 -0.0919642 0.413 255 255 255
0.292587 0.015598 0.632 255 255 255
-0.178519 0.0151966 0.544 255 255 255
0.22852 0.0930084 0.554 255 255 255
-0.000723121 -0.18044 0.745 255 255 255
0.365635 -0.156592 0.719 255 255 255
0.349321 -0.191849 0.724 255 255 255
-0.141848 -0.0264724 0.467 255 255 255
-0.172143 -0.0431501 0.422 255 255 255
-0.0551866 0.148319 0.467 255 255 255
0.188435 0.0914975 0.545 255 255 255
-0.207437 0.121581 0.417 255 255 255
-0.129703 -0.172932 0.714 255 255 255
0.171595 -0.118598 0.73 255 255 255
0.0761131 0.114188 0.523 255 255 255
0.0268738 0.0752562 0.543 255 255 255
-0.0723139 0.120098 0.485 255 255 255
0.201439 -0.316534 0.869 255 255 255
-0.162777 0.0262248 0.501 255 255 255
-0.0286648 0.103676 0.509 255 255 255
0.268074 0.0093973 0.63 255 255 255
0.316945 -0.179086 0.787 255 255 255
0.10016 -0.127762 0.619 255 255 255
-0.152615 0.111355 0.441 255 255 255
0.147061 0.11036 0.521 255 255 255
0.190977 0.172574 0.507 255 255 255
0.120144 -0.136499 0.613 255 255 255
-0.102103 -0.0597288 0.484 0 0 0
-0.141467 0.0413858 0.528 255 255 255
-0.107576 -0.033426 0.491 255 255 255
-0.0273434 0.165199 0.459 255 255 255
0.0920346 0.145837 0.503 255 255 255
0.357281 -0.183389 0.714 255 255 255
-0.147064 0.143301 0.421 0 0 0
0.0504141 0.0232418 0.591 255 255 255
0.0430395 0.108482 0.486 255 255 255
-0.0929424 -0.108983 0.444 255 255 255
0.165977 -0.0150631 0.624 255 255 255
0.446463 0.319288 0.961 255 255 255
-0.121085 -0.0505669 0.472 0 0 0
0.155291 0.0811514 0.547 255 255 255
-0.129811 -0.123641 0.386 255 255 255
-0.18331 -0.101842 0.348 255 255 255
-0.125654 -0.208769 0.738 255 255 255
0.0295304 0.167445 0.449 255 255 255
-0.0581756 0.078142 0.521 255 255 255
0.194618 0.00717194 0.615 255 255 255
0.34302 -0.11821 0.791 255 255 255
0.114173 0.133327 0.518 255 255 255
-0.195487 0.0334171 0.487 255 255 255
-0.187509 0.00296273 0.437 255 255 255
-0.0829561 -0.0530485 0.617 255 255 255
-0.0997829 -0.0737659 0.473 255 255 255
-0.126624 -0.108905 0.406 255 255 255
0.109881 0.14753 0.506 255 255 255
0.125477 0.0594922 0.561 255 255 255
0.120693 0.0253782 0.596 255 255 255
0.0433367 -0.273447 0.797 255 255 255
-0.118958 0.0428051 0.535 255 255 255
0.419295 0.402862 1.085 255 255 255
0.339578 -0.108458 0.795 255 255 255
-0.06333 0.109686 0.495 255 255 255
-0.100682 -0.132016 0.408 255 255 255
-0.0359929 0.167461 0.455 255 255 255
-0.0722921 -0.0992538 0.657 255 255 255
0.351917 -0.215414 0.701 255 255 255
-0.156462 0.0901943 0.45 0 0 0
-0.143208 0.12957 0.43 255 255 255
0.112051 0.0518242 0.567 0 0 0
0.191424 0.170586 0.506 255 255 255
0.22478 0.0792247 0.565 255 255 255
0.232271 0.165152 0.52 255 255 255
0.079435 0.0818932 0.552 255 255 255
0.183333 -0.327448 0.891 255 255 255
0.127714 -0.0929531 0.698 255 255 255
0.13145 0.105677 0.523 255 255 255
-0.198616 -0.0279117 0.41 255 255 255
-0.139408 0.0282662 0.54 255 255 255
0.249288 -0.268611 0.826 255 255 255
-0.0559399 0.0650743 0.532 255 255 255
0.152007 0.0722507 0.568 255 255 255
0.267825 -0.236257 0.821 255 255 255
0.21967 -0.130508 0.765 255 255 255
-0.210402 0.0705788 0.451 255 255 255
-0.103742 -0.0554576 0.488 255 255 255
0.379528 -0.0539271 0.756 255 255 255
-0.188104 -0.0590943 0.387 255 255 255
-0.150683 0.00106082 0.559 255 255 255
-0.162407 -0.106514 0.366 255 255 255
0.314238 0.0451291 0.614 255 255 255
-0.0402108 0.0862879 0.519 255 255 255
0.356535 -0.0595245 0.734 255 255 255
-0.106573 -0.073142 0.469 255 255 255
-0.0188204 0.00207978 0.59 255 255 255
0.0519511 -0.0502855 0.646 255 255 255
0.0868439 -0.388273 0.999 255 255 255
-0.136707 -0.0081797 0.569 255 255 255
-0.0979385 -0.117715 0.431 255 255 255
0.108795 0.155856 0.501 255 255 255
-0.0842158 -0.12415 0.429 255 255 255
-0.109011 0.152664 0.436 255 255 255
0.112269 0.135594 0.517 255 255 255
0.283798 0.0927489 0.569 255 255 255
-0.0234687 -0.139924 0.7 255 255 255
-0.125586 0.117235 0.447 255 255 255
0.223004 -0.0070729 0.636 255 255 255
-0.0513548 0.104298 0.504 255 255 255
-0.0849191 0.127939 0.476 255 255 255
0.200409 0.128656 0.523 255 255 255
-0.251852 0.036036 0.513 255 255 255
0.359275 -0.192873 0.702 255 255 255
0.0783278 0.00115001 0.606 255 255 255
0.227961 0.0353125 0.6 0 0 0
-0.0528485 -0.184616 0.728 255 255 255
0.180222 0.0882726 0.547 255 255 255
-0.0521087 -0.132853 0.687 255 255 255
0.17303 0.00814617 0.613 255 255 255
0.174385 0.184759 0.502 255 255 255
-0.118408 -0.169413 0.709 255 255 255
-0.150786 -0.0833426 0.407 255 255 255
0.290745 -0.245395 0.782 255 255 255
0.243757 0.0912818 0.56 255 255 255
0.100791 0.0898883 0.546 0 0 0
0.222101 -0.31502 0.835 255 255 255
-0.00286263 0.133821 0.489 255 255 255
0.0822553 0.0943475 0.541 255 255 255
-0.0317968 -0.0911147 0.66 255 255 255
-0.182463 -0.0849382 0.368 255 255 255
-0.170614 -0.024391 0.443 0 0 0
0.126605 0.178314 0.491 255 255 255
-0.210229 0.0125344 0.424 255 255 255
-0.0428277 0.0839155 0.52 255 255 255
-0.137408 0.0670255 0.478 255 255 255
0.193028 0.0723779 0.569 255 255 255
0.00506607 0.137745 0.486 255 255 255
0.0149083 0.133009 0.472 255 255 255
-0.113308 -0.0377277 0.597 255 255 255
-0.0888207 -0.088219 0.464 255 255 255
-0.129198 0.0957441 0.452 255 255 255
0.228039 0.16769 0.52 255 255 255
0.128445 0.0595983 0.562 255 255 255
-0.167345 -0.125687 0.342 255 255 255
0.178328 -0.309984 0.895 255 255 255
-0.171112 -0.00500441 0.45 255 255 255
-0.134935 0.081541 0.459 255 255 255
0.0754729 -0.0251821 0.599 255 255 255
-0.104918 -0.0962352 0.452 255 255 255
-0.00926254 0.0744246 0.537 255 255 255
0.376451 -0.0376258 0.775 255 255 255
-0.0341192 0.150801 0.47 255 255 255
-0.184458 0.0762199 0.454 255 255 255
0.132207 0.0818705 0.54 255 255 255
-0.101538 -0.255813 0.681 255 255 255
0.130988 0.145634 0.508 255 255 255
-0.124254 -0.0324296 0.589 255 255 255
-0.155356 0.0433606 0.483 255 255 255
-0.0675654 0.0839467 0.515 255 255 255
-0.192609 -0.031915 0.41 255 255 255
-0.0233142 0.0905108 0.519 255 255 255
0.469439 0.361136 0.96 255 255 255
0.244464 0.0222562 0.617 255 255 255
0.12789 0.0920849 0.533 255 255 255
-0.0237705 -0.150953 0.709 255 255 255
0.0173721 0.164861 0.456 255 255 255
0.180105 0.147998 0.502 255 255 255
-0.190011 0.147692 0.416 255 255 255
0.094974 -0.155801 0.599 255 255 255
-0.177218 0.10883 0.431 255 255 255
0.110107 -0.242101 0.709 255 255 255
-0.1606 -0.0623181 0.417 255 255 255
-0.158347 -0.0745488 0.406 255 255 255
0.132019 0.129283 0.512 0 0 0
-0.109261 0.147325 0.437 255 255 255
0.217083 0.00624137 0.622 255 255 255
-0.0919184 0.0882436 0.506 255 255 255
-0.179765 0.0725777 0.459 255 255 255
0.251478 0.0899385 0.563 255 255 255
-0.12875 -0.21473 0.742 255 255 255
-0.173206 0.0327585 0.489 255 255 255
-0.15078 0.0613228 0.476 255 255 255
0.143387 -0.00380575 0.61 255 255 255
0.0361287 -0.167304 0.73 255 255 255
0.10267 0.143697 0.507 255 255 255
0.209087 -0.0809135 0.712 255 255 255
0.279478 -0.293439 0.755 255 255 255
0.155378 0.154343 0.491 255 255 255
-0.079193 0.0534516 0.537 255 255 255
0.137692 0.0905197 0.534 255 255 255
-0.149025 0.116379 0.441 255 255 255
-0.160994 -0.0868427 0.39 255 255 255
-0.14319 -0.0128095 0.569 255 255 255
-0.0756123 -0.135215 0.42 255 255 255
0.122046 0.0983407 0.534 255 255 255
-0.0860664 -0.0618729 0.625 255 255 255
-0.203085 0.0609724 0.456 255 255 255
0.153871 0.0310405 0.593 255 255 255
-0.0491796 -0.226488 0.693 255 255 255
0.0418182 0.0957624 0.52 255 255 255
-0.193193 0.042014 0.468 255 255 255
0.345378 -0.255412 0.677 255 255 255
0.182356 0.153803 0.497 255 255 255
0.47904 0.363933 0.939 255 255 255
-0.0800672 0.0534516 0.537 255 255 255
0.205018 -0.223365 0.91 255 255 255
-0.129952 -0.0682562 0.447 255 255 255
0.132898 0.106324 0.522 255 255 255
0.0098563 0.0209937 0.582 255 255 255
0.226285 0.147087 0.516 255 255 255
-0.0124271 0.168553 0.46 255 255 255
0.256191 0.0551657 0.593 255 255 255
-0.107586 -0.134009 0.404 255 255 255
0.0837715 -0.284817 0.775 255 255 255
0.232588 -0.301484 0.824 255 255 255
0.256312 -0.201756 0.868 255 255 255
0.0844085 -0.0475118 0.637 255 255 255
-0.0211101 -0.213283 0.737 255 255 255
-0.134972 0.00923137 0.558 255 255 255
-0.0643368 0.08327 0.516 255 255 255
0.0202038 0.060553 0.554 255 255 255
-0.139721 0.0779758 0.46 255 255 255
-0.192498 0.125592 0.426 255 255 255
0.285139 -0.205856 0.817 255 255 255
0.0865138 0.125139 0.519 255 255 255
-0.025156 0.0402488 0.56 255 255 255
0.322679 -0.0531212 0.697 255 255 255
-0.0922576 -0.148547 0.406 255 255 255
0.0926221 0.0906106 0.545 255 255 255
0.15298 0.191098 0.491 255 255 255
0.293385 -0.264302 0.756 255 255 255
0.0257735 -0.275082 0.776 0 0 0
-0.0310934 0.0039729 0.586 255 255 255
0.293727 -0.21638 0.797 255 255 255
0.243217 -0.2589 0.847 255 255 255
-0.0890737 -0.0371871 0.604 255 255 255
-0.0236371 -0.180677 0.741 255 255 255
0.0745803 0.0734387 0.556 255 255 255
-0.0694942 0.109242 0.493 255 255 255
-0.086759 -0.0494983 0.5 0 0 0
-0.149529 -0.104525 0.385 255 255 255
-0.0117136 0.128497 0.493 255 255 255
0.241545 0.0935121 0.557 255 255 255
0.278396 -0.231487 0.809 255 255 255
-0.113506 -0.241058 0.745 255 255 255
0.340054 -0.218794 0.712 255 255 255
0.34141 -0.222801 0.71 255 255 255
0.0340718 0.128409 0.461 255 255 255
-0.136934 -0.110253 0.392 255 255 255
-0.137852 -0.0624578 0.442 255 255 255
-0.0108263 0.0826288 0.528 255 255 255
-0.132017 0.0716332 0.505 255 255 255
0.0303877 -0.0118241 0.614 255 255 255
-0.18599 -0.0949929 0.352 255 255 255
-0.0146514 -0.0881589 0.662 255 255 255
0.207313 0.0937847 0.548 255 255 255
-0.0256643 -0.0665862 0.641 255 255 255
-0.100383 -0.128878 0.415 255 255 255
-0.155014 -0.106648 0.377 255 255 255
-0.0385765 -0.266233 0.685 255 255 255
0.059449 0.11992 0.478 255 255 255
0.0364256 -0.175865 0.736 255 255 255
-0.00123426 0.153952 0.475 255 255 255
0.268976 0.0720134 0.581 255 255 255
-0.174468 0.0401537 0.473 255 255 255
-0.150161 -0.0713061 0.422 255 255 255
-0.154652 0.0943779 0.449 0 0 0
-0.168128 0.122932 0.424 255 255 255
-0.180772 -0.0876935 0.367 255 255 255
-0.0281336 0.054447 0.547 255 255 255
-0.11448 -0.0287898 0.593 255 255 255
0.101658 0.158165 0.498 255 255 255
0.155027 0.109498 0.525 255 255 255
0.0993694 -0.155602 0.602 255 255 255
-0.121853 -0.0497988 0.472 0 0 0
0.0663274 -0.137712 0.623 255 255 255
-0.0828439 0.13406 0.473 255 255 255
-0.0681991 -0.166193 0.715 255 255 255
-0.206851 0.0035898 0.427 0 0 0
-0.0297348 0.0791919 0.528 255 255 255
0.142086 0.0677482 0.569 255 255 255
-0.0385211 0.0862879 0.519 255 255 255
-0.242711 0.0503915 0.468 255 255 255
-0.0928879 -0.149417 0.403 255 255 255
0.212149 0.0842963 0.556 255 255 255
0.214033 -0.247752 0.886 255 255 255
-0.156088 -0.123647 0.357 255 255 255
0.179407 -0.18518 0.808 255 255 255
0.0286778 0.0540146 0.561 255 255 255
0.320291 -0.217393 0.747 255 255 255
-0.206369 0.041605 0.472 255 255 255
0.0365111 0.156539 0.445 255 255 255
0.224129 -0.241985 0.886 255 255 255
-0.055648 0.0380831 0.555 255 255 255
-0.13277 -0.0942121 0.417 255 255 255
-0.0124654 0.131172 0.491 255 255 255
-0.161548 -0.0205638 0.454 255 255 255
0.228751 -0.267072 0.86 255 255 255
0.0521585 0.0109026 0.6 255 255 255
-0.148257 -0.127146 0.362 255 255 255
0.0718201 0.0901118 0.542 255 255 255
0.10708 0.0422626 0.575 255 255 255
-0.111692 0.035427 0.542 255 255 255
-0.195236 0.153344 0.399 255 255 255
0.10305 0.135379 0.513 255 255 255
0.00738019 -0.141523 0.708 255 255 255
0.319497 -0.0617618 0.705 255 255 255
0.332164 -0.244754 0.71 255 255 255
-0.0128152 -0.0425484 0.625 255 255 255
-0.0895719 0.0384243 0.547 255 255 255
-0.0328322 0.00585003 0.583 255 255 255
0.0396743 0.148117 0.448 255 255 255
0.0065115 0.152727 0.476 255 255 255
0.0644032 -0.0605792 0.655 255 255 255
-0.148534 -0.132362 0.357 255 255 255
-0.110326 -0.134654 0.402 255 255 255
-0.0338174 -0.116942 0.679 255 255 255
-0.137505 -0.112229 0.39 255 255 255
-0.0578294 -0.0757372 0.639 255 255 255
-0.0641653 0.175141 0.45 255 255 255
0.326845 -0.257161 0.706 255 255 255
0.112083 0.122081 0.524 255 255 255
0.288996 -0.0169804 0.659 255 255 255
-0.0964664 -0.0852292 0.64 255 255 255
0.384151 -0.079446 0.753 255 255 255
0.0135276 -0.0280828 0.62 255 255 255
-0.12062 -0.221363 0.744 255 255 255
-0.069927 0.059125 0.533 255 255 255
0.0579926 -0.180501 0.61 255 255 255
-0.00521485 -0.132519 0.697 255 255 255
-0.124173 -0.128096 0.39 255 255 255
0.354929 -0.195397 0.707 255 255 255
-0.0452468 0.000157905 0.584 255 255 255
0.100351 -0.131726 0.614 255 255 255
-0.109046 0.126567 0.439 255 255 255
-0.161783 -0.0454731 0.431 255 255 255
-0.136201 -0.100728 0.405 255 255 255
-0.148727 -0.0855694 0.405 255 255 255
-0.017964 0.102421 0.511 255 255 255
0.291922 0.0541334 0.603 255 255 255
0.159932 0.0291596 0.594 255 255 255
-0.0711211 0.130537 0.477 255 255 255
-0.0822199 -0.142696 0.412 255 255 255
0.0626421 0.1278 0.467 255 255 255
-0.109825 -0.0908848 0.451 255 255 255
0.170172 0.0263481 0.596 255 255 255
0.148317 -0.0631689 0.683 255 255 255
-0.181729 -0.104894 0.345 255 255 255
0.0774827 -0.12656 0.623 255 255 255
0.0676973 -0.145422 0.617 255 255 255
-0.093012 -0.202108 0.727 255 255 255
-0.0840044 -0.0457026 0.503 255 255 255
0.193731 0.0403475 0.588 0 0 0
-0.170364 -0.0464733 0.421 255 255 255
0.106308 0.164317 0.497 255 255 255
0.050736 -0.282974 0.791 255 255 255
0.0478855 -0.222922 0.766 255 255 255
0.393333 -0.0273943 0.771 255 255 255
-0.192016 -0.0576853 0.386 255 255 255
-0.150802 0.111608 0.442 255 255 255
-0.176042 -0.0802873 0.38 255 255 255
0.143389 0.184706 0.491 255 255 255
0.0115833 -0.0343567 0.624 255 255 255
0.0318644 0.151311 0.451 255 255 255
0.288568 -0.246983 0.783 255 255 255
-0.0948964 0.150789 0.443 255 255 255
0.220327 -0.101331 0.734 255 255 255
0.0803102 0.0568359 0.571 255 255 255
-0.00983465 0.0925552 0.521 255 255 255
0.207954 -0.11315 0.741 255 255 255
0.159989 0.160547 0.488 255 255 255
-0.132809 0.0768111 0.462 255 255 255
-0.0800725 -0.0521287 0.618 255 255 255
0.122564 0.0486428 0.573 255 255 255
0.144423 0.0459319 0.586 255 255 255
-0.161215 -0.110087 0.366 255 255 255
0.0907527 0.105293 0.534 255 255 255
0.243564 0.0103398 0.625 255 255 255
0.071398 -0.0413984 0.623 255 255 255
0.27812 0.112842 0.554 255 255 255
0.336118 -0.124139 0.796 255 255 255
0.016986 0.04352 0.567 255 255 255
-0.104755 0.123116 0.442 255 255 255
0.257174 -0.0513683 0.674 255 255 255
0.021644 -0.202448 0.764 255 255 255
0.466751 0.30004 0.912 255 255 255
0.078229 -0.122661 0.629 255 255 255
-0.147377 0.162686 0.418 255 255 255
-0.155603 -0.0661838 0.42 255 255 255
0.169764 0.102973 0.531 255 255 255
-0.14945 0.0677629 0.467 255 255 255
-0.0785094 -0.143035 0.693 255 255 255
-0.000619263 -0.0527775 0.638 255 255 255
0.0739836 0.116071 0.52 255 255 255
0.0617582 0.104174 0.524 255 255 255
0.0929881 0.158017 0.495 255 255 255
0.443444 0.330286 0.975 255 255 255
0.176335 -0.0255409 0.632 255 255 255
0.167164 0.125012 0.515 255 255 255
-0.0312823 0.161767 0.462 255 255 255
-0.168194 -0.00355555 0.452 255 255 255
0.132903 0.14095 0.509 255 255 255
-0.135866 0.0383082 0.533 255 255 255
0.31419 -0.255212 0.73 255 255 255
0.221363 0.0267902 0.606 255 255 255
0.377188 -0.111339 0.737 255 255 255
0.114872 0.0147095 0.596 255 255 255
-0.189368 -0.0804609 0.364 255 255 255
-0.151144 -0.0460182 0.443 0 0 0
0.111716 0.0483881 0.57 255 255 255
