ply
format ascii 1.0
comment Created by Open3D
element vertex 1285
property double x
property double y
property double z
property uchar red
property uchar green
property uchar blue
end_header
0.249997 -0.121917 0.79 255 255 255
0.0636377 0.0643387 0.58 255 255 255
-0.174652 -0.125053 0.377 255 255 255
0.23358 0.103037 0.58 255 255 255
0.126172 0.165153 0.502 255 255 255
-0.218804 -0.000583486 0.43 255 255 255
-0.188916 -0.131859 0.362 255 255 255
-0.167561 -0.152828 0.707 255 255 255
0.137995 -0.222887 0.836 255 255 255
0.214368 -0.177949 0.782 255 255 255
0.113089 0.0481657 0.602 255 255 255
-0.113451 0.164849 0.482 255 255 255
0.204925 0.118833 0.561 255 255 255
-0.0433365 0.012374 0.625 255 255 255
0.25049 0.0634227 0.617 255 255 255
0.127518 0.103827 0.554 255 255 255
0.0733606 -0.279668 0.86 255 255 255
-0.214029 0.0339571 0.462 255 255 255
-0.070058 0.157038 0.497 255 255 255
0.0856549 0.0348512 0.609 255 255 255
0.0951442 0.0642692 0.588 255 255 255
-0.0382863 0.0562253 0.594 255 255 255
0.0444467 -0.0829591 0.73 255 255 255
-0.18866 0.123895 0.507 255 255 255
-0.0191051 -0.0616891 0.667 255 255 255
-0.117254 -0.251331 0.709 255 255 255
0.0323883 0.0998389 0.562 0 0 0
0.0773629 0.0291422 0.614 255 255 255
0.250936 -0.195204 0.719 255 255 255
-0.191073 -0.0297032 0.447 255 255 255
0.153118 -0.180013 0.852 255 255 255
-0.199077 0.13833 0.447 255 255 255
0.0231619 0.176815 0.468 255 255 255
0.00145325 -0.0143178 0.636 255 255 255
0.146407 0.0585502 0.598 255 255 255
-0.183864 -0.0704297 0.678 255 255 255
0.104269 0.1701 0.495 0 0 0
0.286001 -0.103137 0.756 255 255 255
0.166594 0.116028 0.552 255 255 255
-0.00900409 0.144509 0.477 255 255 255
0.406537 0.103321 0.802 255 255 255
-0.12062 -0.0477925 0.67 255 255 255
-0.0743175 -0.254651 0.696 255 255 255
0.264786 0.114511 0.576 255 255 255
-0.174336 -0.12744 0.375 255 255 255
0.182559 0.128983 0.546 255 255 255
0.323254 -0.174334 0.646 255 255 255
0.126736 0.170531 0.501 255 255 255
0.188121 -0.153321 0.835 255 255 255
0.0146306 -0.136917 0.624 255 255 255
0.125778 0.19815 0.507 255 255 255
-0.187972 0.00167792 0.476 0 0 0
-0.176592 -0.0886274 0.41 255 255 255
-0.205281 0.165642 0.431 255 255 255
-0.198554 -0.110343 0.715 255 255 255
-0.215069 0.00442515 0.441 255 255 255
-0.1262 -0.265607 0.701 255 255 255
-0.0446819 0.159561 0.485 255 255 255
0.163962 -0.039 0.688 255 255 255
0.33482 -0.0187081 0.775 255 255 255
-0.179715 -0.088859 0.408 255 255 255
0.0166771 0.141056 0.528 255 255 255
0.055007 -0.0365471 0.684 0 0 0
-0.0356354 -0.139947 0.615 255 255 255
-0.126699 0.0450551 0.587 255 255 255
-0.166965 -0.24498 0.655 255 255 255
0.300104 -0.187599 0.667 255 255 255
-0.157841 -0.245478 0.68 255 255 255
0.162635 -0.165953 0.851 255 255 255
-0.17591 0.0495753 0.573 255 255 255
-0.319922 -0.258421 0.729 255 255 255
-0.0267454 -0.0596074 0.668 0 0 0
-0.151581 0.15981 0.481 255 255 255
-0.18785 -0.0193701 0.632 255 255 255
0.192203 -0.132092 0.847 255 255 255
-0.193797 -0.166419 0.678 255 255 255
0.200048 -0.0896473 0.863 255 255 255
-0.182428 0.0301849 0.486 255 255 255
0.0695952 -0.10341 0.758 255 255 255
0.231131 -0.236146 0.705 255 255 255
0.332261 -0.147855 0.664 255 255 255
-0.0733602 0.14993 0.503 255 255 255
0.00412542 0.151244 0.469 255 255 255
-0.258086 -0.137982 0.732 255 255 255
0.202563 -0.251451 0.726 255 255 255
0.169304 -0.0207799 0.678 255 255 255
0.282069 -0.0977559 0.762 255 255 255
-0.0261047 -0.174892 0.652 255 255 255
0.0445521 0.185835 0.494 255 255 255
0.436188 0.272961 0.901 255 255 255
-0.148349 0.118382 0.519 255 255 255
-0.210984 0.148747 0.437 255 255 255
0.00818318 -0.0738485 0.679 255 255 255
-0.245453 -0.150918 0.737 255 255 255
-0.164432 -0.0365556 0.46 255 255 255
0.37254 0.101648 0.831 255 255 255
0.248578 -0.148597 0.762 255 255 255
-0.161511 0.00716028 0.614 255 255 255
0.421002 0.388415 1.037 255 255 255
-0.132111 -0.0407581 0.662 255 255 255
-0.0229152 -0.222767 0.757 255 255 255
0.278807 -0.215056 0.668 255 255 255
-0.213987 -0.00551999 0.433 255 255 255
0.0336081 0.162293 0.511 255 255 255
0.143438 -0.216085 0.836 255 255 255
0.181013 0.0480483 0.613 255 255 255
-0.217288 0.0436735 0.569 255 255 255
0.116963 -0.0313909 0.669 255 255 255
-0.1247 0.16807 0.48 255 255 255
0.200486 0.163036 0.544 255 255 255
-0.0853404 0.141504 0.511 255 255 255
-0.0579377 0.0987814 0.551 255 255 255
-0.0713051 0.12805 0.524 255 255 255
-0.00729551 0.0664081 0.59 255 255 255
0.0823677 0.190152 0.499 255 255 255
0.0746222 0.0421473 0.6 255 255 255
0.258763 -0.223547 0.684 255 255 255
-0.0744242 -0.101894 0.697 255 255 255
0.0266572 0.177514 0.476 255 255 255
-0.177755 0.0904901 0.539 255 255 255
0.0362597 0.133222 0.538 255 255 255
-0.00148371 0.0865704 0.571 255 255 255
-0.14706 0.169826 0.474 255 255 255
0.253212 -0.120326 0.788 255 255 255
-0.093056 0.0410337 0.598 255 255 255
-0.175667 -0.104139 0.393 255 255 255
-0.213439 0.112005 0.513 255 255 255
0.0846604 -0.283711 0.847 255 255 255
-0.245453 -0.14612 0.737 255 255 255
-0.0567088 -0.0981963 0.65 255 255 255
-0.173197 0.169303 0.435 255 255 255
0.336204 -0.0295158 0.761 255 255 255
-0.231643 -0.0522109 0.657 255 255 255
-0.00363536 -0.128175 0.621 0 0 0
-0.0942283 -0.166481 0.776 255 255 255
0.047075 -0.0353304 0.682 0 0 0
-0.175589 -0.03534 0.454 255 255 255
0.317819 -0.205571 0.629 255 255 255
0.402621 0.0981007 0.802 255 255 255
0.0712142 0.0467158 0.596 255 255 255
0.257627 0.107942 0.581 255 255 255
-0.0281408 -0.171182 0.65 255 255 255
0.00530411 0.0168448 0.603 255 255 255
0.167678 0.131324 0.541 255 255 255
-0.00365863 0.138595 0.489 255 255 255
-0.181334 0.000130055 0.481 255 255 255
0.00566435 0.150801 0.47 255 255 255
0.139169 0.132851 0.533 255 255 255
-0.209651 0.124864 0.459 255 255 255
0.0213924 0.0121562 0.614 0 0 0
-0.300391 -0.254417 0.767 255 255 255
0.0838533 0.164647 0.508 255 255 255
-0.0409934 -0.16025 0.636 255 255 255
0.0167429 0.0588266 0.591 0 0 0
0.0300149 0.116926 0.552 255 255 255
0.329318 0.417496 1.16 255 255 255
-0.0126101 -0.124935 0.615 255 255 255
0.335648 0.0228812 0.774 0 0 0
0.263279 -0.214279 0.69 255 255 255
0.148852 0.121205 0.543 255 255 255
0.171741 0.0987073 0.566 255 255 255
0.266656 0.132332 0.568 255 255 255
-0.220904 0.151962 0.43 255 255 255
-0.032356 0.131717 0.515 255 255 255
-0.0432843 -0.0232727 0.655 255 255 255
-0.182434 0.131685 0.499 255 255 255
0.369356 -0.0292589 0.724 255 255 255
0.190444 -0.00958851 0.667 255 255 255
-0.115218 0.120765 0.522 255 255 255
0.151371 -0.225293 0.82 255 255 255
0.261277 -0.0340105 0.809 255 255 255
-0.0784926 0.0743603 0.57 255 255 255
-0.207177 -0.0321623 0.422 255 255 255
0.08345 -0.128025 0.796 255 255 255
-0.139119 0.126196 0.513 255 255 255
0.191978 -0.0961479 0.871 255 255 255
-0.0127127 -0.142093 0.62 255 255 255
0.266148 -0.0723246 0.796 255 255 255
0.0221348 0.154345 0.515 255 255 255
-0.154993 -0.243533 0.687 255 255 255
-0.214186 -0.0822561 0.694 255 255 255
-0.0682212 -0.0298493 0.659 255 255 255
0.113589 0.166744 0.497 255 255 255
-0.118962 0.0248179 0.606 0 0 0
0.288119 0.0514971 0.657 255 255 255
-0.134583 0.087702 0.549 255 255 255
-0.19126 -0.00996981 0.623 255 255 255
-0.0998474 -0.00189501 0.635 255 255 255
-0.147636 0.13409 0.505 255 255 255
0.393938 0.0978818 0.811 255 255 255
-0.20438 -0.0762949 0.388 255 255 255
-0.215568 -0.0130258 0.425 255 255 255
0.0614163 0.163246 0.514 255 255 255
0.32911 0.470903 1.215 255 255 255
-0.151663 -0.249825 0.708 0 0 0
-0.0439449 0.185649 0.477 255 255 255
-0.15253 -0.256921 0.681 255 255 255
0.346539 0.0278834 0.773 0 0 0
-0.00499788 -0.0683039 0.668 255 255 255
-0.140718 -0.158309 0.761 255 255 255
0.344537 0.00147452 0.777 255 255 255
0.0483862 -0.302059 0.864 255 255 255
-0.0309552 -0.0301211 0.665 255 255 255
-0.0665371 -0.022139 0.653 255 255 255
0.294984 0.0494339 0.658 255 255 255
-0.150873 -0.237549 0.699 255 255 255
0.152736 0.128844 0.538 255 255 255
0.0986481 -0.272189 0.837 255 255 255
-0.175377 -0.202462 0.688 255 255 255
-0.224363 0.0860134 0.533 255 255 255
0.394283 0.0963239 0.809 255 255 255
0.14883 0.0901291 0.57 255 255 255
-0.218658 0.00944872 0.441 255 255 255
0.145875 0.138741 0.529 255 255 255
-0.178241 -0.00376794 0.479 255 255 255
-0.152948 -0.207789 0.714 0 0 0
-0.222983 0.115499 0.51 255 255 255
-0.269153 -0.110331 0.693 255 255 255
0.168536 -0.170439 0.839 255 255 255
0.0747571 0.177048 0.508 255 255 255
-0.0128303 0.120536 0.54 255 255 255
-0.20545 0.0859447 0.538 255 255 255
0.312938 -0.186849 0.653 255 255 255
-0.0241216 -0.0958947 0.628 255 255 255
-0.177049 -0.129189 0.373 255 255 255
-0.0437005 -0.0560864 0.678 255 255 255
0.31123 -0.222216 0.624 255 255 255
0.105322 0.164495 0.5 255 255 255
-0.160647 -0.0358433 0.651 255 255 255
-0.18843 -0.191868 0.663 255 255 255
0.0248286 0.131227 0.537 255 255 255
0.178658 -0.212713 0.793 255 255 255
0.306316 -0.0295779 0.796 255 255 255
-0.213432 0.119414 0.509 255 255 255
-0.185803 0.0848197 0.542 255 255 255
0.047672 0.191074 0.493 255 255 255
0.370408 0.0669794 0.789 255 255 255
0.248392 -0.139421 0.773 255 255 255
0.269384 -0.182852 0.703 255 255 255
-0.200821 0.0898186 0.535 255 255 255
0.239559 -0.146464 0.777 255 255 255
0.0287642 0.143906 0.529 255 255 255
-0.0800816 0.000171424 0.634 255 255 255
-0.214271 0.109089 0.515 255 255 255
-0.0360286 0.153952 0.475 255 255 255
0.236658 0.107013 0.576 255 255 255
0.213739 -0.228564 0.736 255 255 255
-0.185762 -0.033564 0.45 255 255 255
-0.131786 0.0228456 0.606 255 255 255
0.101455 0.164824 0.501 0 0 0
0.141351 0.126218 0.538 255 255 255
0.209385 -0.192254 0.773 255 255 255
0.0651439 0.182215 0.504 255 255 255
-0.197883 0.132775 0.497 255 255 255
0.0448227 0.180493 0.497 255 255 255
0.0253372 0.117863 0.548 255 255 255
-0.177397 0.0801146 0.546 255 255 255
-0.149291 0.0130482 0.609 255 255 255
0.245175 -0.235397 0.696 255 255 255
0.0263249 0.117398 0.55 255 255 255
-0.143108 -0.238254 0.729 255 255 255
0.276465 0.125104 0.573 255 255 255
-0.303857 -0.221447 0.806 255 255 255
0.257684 -0.0470006 0.806 0 0 0
-0.0182832 0.14498 0.476 255 255 255
0.318141 -0.155335 0.673 255 255 255
-0.0401921 0.146253 0.488 255 255 255
0.472918 0.341179 0.927 255 255 255
0.0367581 0.0460887 0.588 255 255 255
-0.302996 -0.258619 0.761 255 255 255
0.0755209 -0.125612 0.781 255 255 255
-0.19543 0.131685 0.499 255 255 255
-0.22861 0.0551566 0.445 255 255 255
-0.184839 0.069694 0.555 255 255 255
-0.151515 0.0169286 0.606 255 255 255
-0.133948 -0.0294416 0.65 255 255 255
0.0862337 -0.0565817 0.712 255 255 255
-0.210765 -0.104233 0.713 255 255 255
-0.00779414 0.103483 0.557 255 255 255
-0.195346 -0.113708 0.372 255 255 255
-0.192707 0.139541 0.484 255 255 255
0.36334 0.373474 1.092 255 255 255
0.0660952 0.178467 0.505 255 255 255
0.44914 0.384576 0.984 255 255 255
-0.170401 -0.0418043 0.452 255 255 255
0.353251 -0.0490157 0.72 255 255 255
0.132787 0.114767 0.546 255 255 255
0.109108 0.146517 0.514 255 255 255
-0.309478 -0.271965 0.724 255 255 255
-0.180905 -0.0275728 0.46 0 0 0
-0.165927 -0.0130122 0.475 255 255 255
-0.162881 0.0337639 0.59 255 255 255
0.233435 -0.0993657 0.827 255 255 255
-0.00167339 -0.17589 0.644 255 255 255
-0.225976 0.011286 0.429 255 255 255
-0.111796 -0.262735 0.676 0 0 0
0.109324 0.140341 0.519 255 255 255
-0.0188329 0.175184 0.452 255 255 255
0.229483 -0.121498 0.813 255 255 255
-0.17448 -0.129535 0.374 255 255 255
-0.128254 -0.0499731 0.67 255 255 255
0.0645818 0.0643387 0.58 255 255 255
0.115516 0.00950171 0.637 255 255 255
0.444643 0.252279 0.88 255 255 255
-0.191835 -0.146549 0.699 255 255 255
-0.267288 0.0895951 0.509 255 255 255
-0.076427 0.0931763 0.555 255 255 255
-0.185702 -0.211127 0.646 255 255 255
0.215065 -0.265975 0.705 255 255 255
-0.166709 -0.0853904 0.417 255 255 255
-0.212675 -0.0414118 0.405 255 255 255
-0.0283019 0.0318257 0.608 255 255 255
0.234358 -0.121914 0.807 255 255 255
0.288119 0.0557737 0.657 255 255 255
-0.163156 0.0742098 0.555 255 255 255
0.344912 0.000209549 0.775 255 255 255
0.175183 -0.04745 0.697 255 255 255
-0.199194 0.127526 0.466 255 255 255
-0.235943 -0.173047 0.705 255 255 255
-0.0193454 -0.227958 0.762 255 255 255
-0.206471 -0.061874 0.669 255 255 255
-0.0962298 -0.240304 0.782 255 255 255
-0.037918 0.094927 0.56 255 255 255
0.0240437 0.128207 0.539 255 255 255
0.169181 0.128275 0.543 255 255 255
-0.185806 0.136268 0.495 255 255 255
-0.227454 0.0372191 0.447 255 255 255
-0.0484234 0.0154252 0.625 255 255 255
-0.0393399 0.069177 0.581 255 255 255
0.281333 -0.140782 0.728 255 255 255
0.174169 0.0507911 0.61 255 255 255
0.0202913 -0.269137 0.93 255 255 255
-0.179954 0.11184 0.52 255 255 255
0.176831 -0.271482 0.742 255 255 255
0.0536686 0.154151 0.52 255 255 255
-0.192229 0.136452 0.448 255 255 255
0.170527 0.107493 0.559 255 255 255
-0.258582 0.0815233 0.532 255 255 255
-0.188539 -0.127708 0.367 255 255 255
0.00670263 -0.0929533 0.643 255 255 255
0.0908589 -0.0113891 0.646 255 255 255
-0.241391 0.0700832 0.544 255 255 255
-0.21726 0.0228229 0.45 255 255 255
-0.15625 0.0310929 0.594 255 255 255
-0.0612508 0.118973 0.533 255 255 255
0.159963 -0.207368 0.823 255 255 255
-0.0297252 -0.10526 0.617 255 255 255
-0.0145408 -0.0254821 0.657 0 0 0
0.0702879 0.148515 0.524 0 0 0
0.246971 0.109825 0.576 255 255 255
-0.200324 0.088242 0.536 255 255 255
0.145929 -0.236309 0.812 255 255 255
-0.194775 -0.0897852 0.389 255 255 255
-0.183439 -0.0747116 0.418 255 255 255
0.104017 0.0235241 0.624 255 255 255
0.178151 0.0606989 0.6 255 255 255
-0.176478 -0.113296 0.385 255 255 255
-0.00846652 0.1201 0.542 255 255 255
-0.20312 0.125879 0.477 255 255 255
-0.128011 0.144678 0.499 255 255 255
0.436952 0.230285 0.862 255 255 255
0.287546 -0.153179 0.714 255 255 255
-0.198183 -0.0861747 0.387 255 255 255
-0.170439 0.0419019 0.583 255 255 255
0.243353 -0.143935 0.777 255 255 255
-0.121495 -0.241245 0.757 255 255 255
-0.141121 -0.23177 0.731 255 255 255
0.259348 -0.0934009 0.799 255 255 255
0.224537 -0.204518 0.74 255 255 255
0.258573 0.107942 0.581 255 255 255
0.277913 0.141694 0.576 255 255 255
0.159269 0.0786318 0.581 255 255 255
0.184905 0.106619 0.564 255 255 255
-0.199206 0.0543998 0.565 255 255 255
-0.219352 -0.0418755 0.646 255 255 255
0.138739 0.107944 0.552 255 255 255
0.211215 -0.150789 0.814 255 255 255
-0.185304 -0.0412034 0.652 255 255 255
0.211858 -0.220768 0.742 255 255 255
0.015033 -0.0760573 0.689 255 255 255
0.0278799 -0.133069 0.625 255 255 255
-0.0256801 0.172282 0.456 255 255 255
0.0763727 -0.0177514 0.648 255 255 255
0.171916 -0.0309817 0.684 255 255 255
-0.138417 -0.0981554 0.711 255 255 255
0.0982559 -0.162471 0.909 255 255 255
-0.122692 0.00525439 0.625 255 255 255
-0.218617 0.121129 0.459 0 0 0
-0.134352 -0.272856 0.714 255 255 255
-0.189426 -0.229406 0.627 255 255 255
-0.165768 -0.0219596 0.468 255 255 255
-0.0512126 -0.0299399 0.661 255 255 255
0.298644 -0.164939 0.681 255 255 255
-0.000599851 -0.124538 0.618 255 255 255
-0.183515 -0.10196 0.392 255 255 255
0.207897 -0.246045 0.724 255 255 255
-0.188797 -0.0385464 0.44 255 255 255
0.317504 -0.190858 0.645 255 255 255
0.23144 -0.242099 0.699 255 255 255
-0.0298823 0.0710679 0.581 255 255 255
0.179744 -0.0607005 0.706 255 255 255
-0.181506 -0.0204954 0.635 255 255 255
-0.109142 -0.250241 0.687 0 0 0
0.0915333 0.0234487 0.622 255 255 255
0.279535 -0.220666 0.662 255 255 255
0.414832 0.140506 0.821 255 255 255
0.201904 -0.0186281 0.68 255 255 255
0.218778 -0.2059 0.745 255 255 255
-0.112723 0.0936135 0.547 255 255 255
0.216628 0.161854 0.549 0 0 0
-0.147225 0.116295 0.521 255 255 255
-0.0208884 0.153737 0.465 255 255 255
0.0571719 -0.204506 0.939 255 255 255
-0.201106 0.134113 0.493 255 255 255
0.022477 0.0452854 0.59 0 0 0
-0.197488 -0.0937643 0.382 255 255 255
0.288998 -0.231038 0.64 255 255 255
0.342031 -0.106176 0.688 255 255 255
0.16293 0.0336787 0.624 255 255 255
0.0830001 -0.21895 0.904 255 255 255
0.121941 0.0370147 0.612 255 255 255
-0.180457 -0.155649 0.699 255 255 255
-0.10286 -0.0363939 0.661 255 255 255
0.290271 -0.0855797 0.764 255 255 255
-0.196744 -0.10358 0.377 255 255 255
0.176868 -0.243157 0.763 255 255 255
0.31816 -0.0089301 0.803 255 255 255
-0.209091 -0.00631088 0.439 255 255 255
-0.105479 0.146595 0.5 255 255 255
-0.172014 -0.0458657 0.658 255 255 255
-0.00251884 0.0593243 0.596 255 255 255
-0.179321 -0.101839 0.394 255 255 255
-0.203521 -0.0880239 0.704 255 255 255
0.0399895 0.0738385 0.566 255 255 255
0.000371303 0.0920968 0.565 255 255 255
0.228366 0.0917054 0.586 255 255 255
-0.225592 0.0806917 0.538 255 255 255
-0.0862623 -0.247355 0.701 255 255 255
0.200857 -0.234098 0.746 255 255 255
-0.0824182 0.0280972 0.613 255 255 255
-0.140968 0.146229 0.496 255 255 255
0.296396 -0.235528 0.627 255 255 255
0.202568 0.0665572 0.6 255 255 255
0.125969 -0.126531 0.856 0 0 0
0.121536 -0.115491 0.808 0 0 0
0.190715 -0.172618 0.817 255 255 255
0.305292 -0.134995 0.704 255 255 255
0.055923 0.189433 0.495 255 255 255
0.119535 0.0341937 0.615 255 255 255
-0.0347015 -0.0168515 0.654 255 255 255
0.145332 0.0749787 0.582 255 255 255
-0.199346 -0.0269668 0.438 255 255 255
-0.229933 0.0518167 0.557 255 255 255
0.437539 0.286997 0.913 255 255 255
-0.0285689 0.0570957 0.593 255 255 255
-0.105672 0.0219676 0.609 255 255 255
0.0841801 0.179289 0.505 0 0 0
0.0381458 0.171071 0.505 255 255 255
-0.192736 -0.0925546 0.39 255 255 255
0.290626 -0.178761 0.683 255 255 255
-0.179686 -0.104512 0.392 255 255 255
0.337013 0.00532884 0.786 255 255 255
-0.101283 -0.181954 0.772 255 255 255
-0.119382 0.00119366 0.629 255 255 255
0.149204 -0.293439 0.755 255 255 255
-0.141779 0.16702 0.477 255 255 255
-0.0647725 0.0262299 0.616 255 255 255
0.152621 -0.176885 0.857 255 255 255
-0.057059 0.143999 0.511 255 255 255
-0.197212 -0.0299833 0.639 255 255 255
-0.196135 -0.0940097 0.383 255 255 255
-0.123438 0.0333041 0.599 255 255 255
0.251059 -0.144877 0.762 255 255 255
0.32622 -0.0713717 0.733 255 255 255
0.06079 0.0528766 0.589 255 255 255
-0.0258034 -0.269749 0.734 255 255 255
0.177024 0.0415343 0.62 255 255 255
-0.0546766 -0.0930504 0.651 255 255 255
0.147308 0.167937 0.513 255 255 255
0.211946 0.0570262 0.613 255 255 255
-0.0778192 0.176662 0.48 255 255 255
-0.202792 -0.0707794 0.396 255 255 255
0.070462 0.154699 0.519 255 255 255
0.040499 0.16241 0.514 255 255 255
-0.186295 -0.109927 0.382 0 0 0
0.115438 -0.143292 0.882 255 255 255
0.205721 -0.189644 0.783 255 255 255
-0.0603314 0.128294 0.525 255 255 255
-0.203878 -0.0279386 0.431 255 255 255
0.269817 -0.0359383 0.823 255 255 255
0.0408385 0.0884191 0.565 255 255 255
0.137524 -0.259497 0.794 255 255 255
0.219329 -0.106395 0.84 255 255 255
0.0425269 0.0807766 0.563 0 0 0
0.393963 0.372838 1.055 255 255 255
0.115636 0.0644878 0.59 255 255 255
0.169339 -0.138962 0.864 255 255 255
0.142076 0.111335 0.551 255 255 255
0.239891 -0.250272 0.681 255 255 255
0.043239 0.145077 0.527 255 255 255
-0.301918 -0.232363 0.794 255 255 255
0.178598 0.118938 0.553 255 255 255
-0.18415 -0.181061 0.675 255 255 255
-0.174832 0.0372857 0.585 255 255 255
0.0956584 -0.132367 0.823 255 255 255
-0.152791 0.0856022 0.547 255 255 255
-0.189908 -0.216837 0.632 255 255 255
-0.0196497 -0.135162 0.616 255 255 255
0.133631 0.150993 0.515 255 255 255
0.331779 -0.131436 0.674 255 255 255
-0.0337426 0.00217495 0.617 255 255 255
-0.174519 -0.216532 0.676 255 255 255
-0.215796 0.0638117 0.551 255 255 255
0.00811201 0.0609557 0.593 255 255 255
-0.220236 -0.00196454 0.426 255 255 255
-0.0652885 -0.101671 0.673 255 255 255
-0.196505 0.109092 0.519 255 255 255
-0.184743 -0.149747 0.698 255 255 255
0.0267336 -0.00286842 0.622 255 255 255
-0.126348 0.010224 0.618 255 255 255
-0.0632223 0.115937 0.535 255 255 255
-0.210857 0.0495301 0.46 255 255 255
-0.201504 -0.0978793 0.709 255 255 255
-0.206003 -0.019658 0.434 255 255 255
0.238907 -0.145574 0.779 255 255 255
0.0795257 -0.170734 0.898 255 255 255
-0.209051 0.141332 0.445 255 255 255
0.177331 -0.24255 0.765 255 255 255
0.173439 0.0552061 0.604 255 255 255
0.110205 0.194601 0.5 255 255 255
-0.201985 0.152664 0.436 255 255 255
-0.142731 0.168638 0.475 255 255 255
0.0535423 0.0682245 0.573 255 255 255
0.120932 0.196158 0.504 255 255 255
0.0463118 -0.291237 0.878 255 255 255
0.16807 -0.277801 0.746 255 255 255
0.204665 0.0975413 0.581 255 255 255
-0.18236 -0.0683549 0.425 0 0 0
-0.159644 -0.249128 0.669 255 255 255
-0.222625 0.0593057 0.449 255 255 255
-0.201985 -0.0261342 0.436 255 255 255
0.0905568 0.113961 0.538 255 255 255
0.308099 -0.168978 0.675 255 255 255
0.142967 -0.0421126 0.684 255 255 255
0.0558805 -0.00496361 0.631 255 255 255
0.143412 0.175793 0.514 255 255 255
0.321252 -0.186836 0.642 255 255 255
0.243917 -0.174144 0.744 255 255 255
0.00580617 0.104389 0.557 255 255 255
-0.191403 0.0604052 0.561 255 255 255
0.0397543 0.117398 0.55 255 255 255
0.0901579 -0.203787 0.902 255 255 255
0.0352754 -0.0933493 0.737 255 255 255
0.166137 0.176138 0.525 255 255 255
0.0343035 -0.127436 0.769 255 255 255
0.235191 0.098045 0.584 255 255 255
-0.121337 0.179101 0.47 255 255 255
-0.113588 0.174416 0.476 255 255 255
0.156344 -0.132407 0.886 255 255 255
-0.128668 -0.148792 0.763 255 255 255
0.225413 -0.150961 0.794 255 255 255
-0.169226 0.0114343 0.496 255 255 255
-0.19444 -0.0018413 0.617 255 255 255
-0.0929632 0.100551 0.546 255 255 255
0.242061 -0.00315433 0.684 255 255 255
-0.194437 0.122245 0.507 255 255 255
0.0887594 0.176942 0.503 0 0 0
-0.0710187 0.0212866 0.618 255 255 255
-0.0735882 0.173837 0.483 255 255 255
0.0707888 -0.115221 0.771 255 255 255
0.135538 -0.171998 0.882 255 255 255
-0.113745 0.149759 0.497 255 255 255
-0.213387 0.0516632 0.459 255 255 255
-0.153119 0.0897237 0.545 255 255 255
0.143691 0.177811 0.515 255 255 255
-0.0173211 0.115904 0.543 255 255 255
0.235735 0.138987 0.554 255 255 255
-0.0505031 0.138448 0.512 255 255 255
0.213913 -0.176076 0.785 255 255 255
0.428335 0.320945 0.952 255 255 255
-0.175751 -0.133208 0.369 255 255 255
0.0794478 -0.0847234 0.735 255 255 255
0.191391 -0.262225 0.733 255 255 255
0.285768 -0.0435466 0.815 255 255 255
-0.0926491 0.167108 0.484 255 255 255
-0.192137 -0.0428656 0.433 255 255 255
0.384434 0.312405 0.999 255 255 255
0.123396 0.0592248 0.595 255 255 255
0.175709 -0.248965 0.758 255 255 255
-0.177785 -0.130053 0.372 255 255 255
-0.244364 0.081983 0.535 255 255 255
-0.195689 -0.0526083 0.662 255 255 255
0.211896 -0.175244 0.787 255 255 255
0.27735 0.0184154 0.7 255 255 255
-0.113466 0.0603544 0.578 255 255 255
0.0316461 0.0531953 0.582 255 255 255
-0.0615974 -0.0276204 0.657 255 255 255
-0.0134784 0.0378243 0.609 255 255 255
0.118045 -0.0479569 0.688 255 255 255
-0.180336 -0.134212 0.712 255 255 255
-0.20124 0.0732738 0.548 255 255 255
-0.148925 0.110995 0.524 255 255 255
-0.170717 0.143956 0.491 255 255 255
0.103904 0.15089 0.509 255 255 255
-0.0348242 0.0480857 0.601 255 255 255
0.258514 0.106416 0.583 255 255 255
0.15373 0.000176832 0.654 255 255 255
-0.0592774 -0.106413 0.655 255 255 255
-0.0517873 0.171399 0.485 255 255 255
0.239932 -0.12657 0.795 255 255 255
0.165619 -0.264651 0.757 255 255 255
-0.219828 0.0434432 0.566 255 255 255
-0.00720895 0.0722613 0.583 255 255 255
0.119202 -0.298331 0.784 255 255 255
-0.104853 -0.248569 0.711 255 255 255
-0.190394 0.0344886 0.586 255 255 255
-0.050685 0.0550726 0.592 255 255 255
0.279206 -0.0307298 0.827 255 255 255
0.0857926 0.0423581 0.603 255 255 255
0.160158 -0.204938 0.824 255 255 255
0.14469 -0.173505 0.868 255 255 255
-0.186821 0.119052 0.511 255 255 255
-0.0496943 -0.256784 0.752 255 255 255
0.0994245 -0.0267129 0.661 255 255 255
0.430731 0.393259 1.032 255 255 255
0.12726 -0.232688 0.837 255 255 255
-0.116194 0.0228833 0.607 255 255 255
0.289129 -0.0370059 0.817 255 255 255
-0.192334 -0.0938853 0.705 255 255 255
0.22847 -0.0020293 0.68 0 0 0
0.0950545 0.154118 0.506 255 255 255
-0.1694 -0.250798 0.648 255 255 255
0.201354 -0.160652 0.817 255 255 255
-0.0451306 0.0534152 0.595 255 255 255
0.217016 -0.219875 0.739 255 255 255
-0.026279 0.0667973 0.585 255 255 255
-0.245651 -0.116973 0.72 255 255 255
-0.20185 -0.189138 0.661 255 255 255
-0.108792 0.179095 0.472 255 255 255
0.227445 -0.0687037 0.73 255 255 255
0.193613 0.106451 0.568 255 255 255
-0.174151 0.154414 0.441 255 255 255
-0.0507706 0.0542007 0.593 255 255 255
0.2194 0.143462 0.547 255 255 255
0.193326 -0.144994 0.834 255 255 255
-0.153784 0.155759 0.483 255 255 255
-0.025264 -0.0942991 0.631 255 255 255
0.0289524 0.0487095 0.585 255 255 255
-0.115638 0.0342789 0.599 255 255 255
-0.187972 0.00322714 0.476 255 255 255
-0.0070223 -0.0232372 0.654 255 255 255
0.412919 0.358223 1.009 255 255 255
0.193838 0.118197 0.558 255 255 255
-0.208434 0.0898417 0.53 255 255 255
0.0606546 -0.0133246 0.638 255 255 255
-0.0279577 -0.0576913 0.671 255 255 255
0.318626 -0.08676 0.732 255 255 255
0.134769 -0.264332 0.793 255 255 255
-0.18653 -0.116648 0.718 255 255 255
-0.219266 0.10644 0.47 255 255 255
0.10878 0.0135839 0.634 255 255 255
-0.152228 -0.248141 0.7 0 0 0
0.109124 0.0819244 0.571 255 255 255
-0.00877958 0.132667 0.509 255 255 255
-0.168135 -0.000841305 0.62 255 255 255
-0.169536 0.163039 0.47 255 255 255
-0.0257927 0.16782 0.458 255 255 255
-0.112901 0.0314069 0.6 255 255 255
0.0563736 0.0827557 0.564 255 255 255
0.0880534 0.0756841 0.573 255 255 255
0.287259 -0.128935 0.728 255 255 255
0.100501 -0.0189801 0.654 255 255 255
0.378428 0.315532 1.009 255 255 255
-0.0875725 -0.15829 0.773 255 255 255
-0.148922 -0.19116 0.717 255 255 255
-0.177792 0.00316871 0.615 255 255 255
-0.208703 0.0616764 0.556 255 255 255
-0.0799181 0.111793 0.536 255 255 255
-0.117965 0.061189 0.577 255 255 255
0.21959 -0.102416 0.841 255 255 255
0.151031 -0.287204 0.758 255 255 255
-0.210242 0.161145 0.434 255 255 255
0.288744 -0.0579298 0.794 255 255 255
-0.169062 -0.123279 0.381 255 255 255
0.0856193 0.109991 0.54 255 255 255
0.330019 -0.0581475 0.747 255 255 255
0.266468 0.0355677 0.659 255 255 255
0.364155 0.0215937 0.773 255 255 255
0.151866 -0.103778 0.83 0 0 0
0.184786 -0.261116 0.74 255 255 255
0.128851 0.148767 0.516 255 255 255
0.0047325 0.167832 0.454 255 255 255
0.207052 -0.268638 0.709 255 255 255
-0.0494189 0.17061 0.485 255 255 255
0.0373207 0.0361075 0.597 255 255 255
0.318555 -0.022956 0.791 255 255 255
-0.232306 -0.104525 0.715 255 255 255
-0.205312 0.127758 0.456 255 255 255
0.0267766 -0.00490068 0.623 255 255 255
-0.211435 0.1601 0.435 255 255 255
0.0135276 -0.121915 0.62 255 255 255
0.0972021 -0.164672 0.913 255 255 255
0.303235 -0.201278 0.655 255 255 255
-0.196229 0.0798211 0.544 255 255 255
0.040188 0.109631 0.556 0 0 0
-0.193689 0.114339 0.516 255 255 255
0.281594 -0.130706 0.738 255 255 255
-0.035056 0.0424985 0.605 255 255 255
-0.0330036 -0.104088 0.622 255 255 255
-0.237857 0.0733536 0.542 255 255 255
0.203072 -0.132939 0.835 255 255 255
0.285119 -0.233167 0.643 255 255 255
-0.234316 0.0889792 0.53 255 255 255
-0.196388 -0.157241 0.691 255 255 255
0.195654 0.120013 0.558 255 255 255
-0.149753 -0.188707 0.721 255 255 255
-0.321448 -0.190529 0.814 255 255 255
0.292751 -0.124692 0.724 255 255 255
0.228496 0.109062 0.572 255 255 255
-0.196441 0.0271255 0.474 255 255 255
0.12089 0.00847839 0.638 255 255 255
-0.211527 0.017153 0.455 0 0 0
-0.142279 -0.22048 0.737 255 255 255
0.0451154 0.0923578 0.561 255 255 255
0.412159 0.137834 0.821 255 255 255
0.178458 0.00865115 0.651 255 255 255
-0.171073 0.167179 0.435 255 255 255
-0.172706 -0.0617477 0.432 255 255 255
0.314273 -0.109073 0.722 255 255 255
-0.321222 -0.208598 0.797 255 255 255
-0.154326 -0.189464 0.715 255 255 255
0.0463561 0.10563 0.554 0 0 0
0.261515 0.039434 0.652 255 255 255
-0.215353 -0.0978793 0.709 255 255 255
0.303964 -0.109692 0.734 255 255 255
-0.181329 -0.0745627 0.421 255 255 255
-0.0320245 -0.165153 0.643 255 255 255
0.444269 0.376023 0.991 255 255 255
0.0981548 0.157101 0.505 255 255 255
0.13833 0.0285556 0.623 255 255 255
-0.239046 0.0975449 0.516 255 255 255
0.0525232 0.177869 0.501 255 255 255
-0.196673 0.0361474 0.582 255 255 255
0.276167 -0.07094 0.795 255 255 255
-0.118229 -0.196788 0.776 255 255 255
-0.182863 -0.243444 0.629 255 255 255
-0.224691 0.106787 0.512 255 255 255
-0.106717 -0.00814613 0.639 255 255 255
-0.123816 -0.0101778 0.636 255 255 255
0.13171 -0.0994237 0.775 255 255 255
-0.101682 0.0526072 0.586 255 255 255
-0.142877 -0.0361736 0.657 255 255 255
0.349039 -0.101921 0.682 255 255 255
0.237532 -0.249123 0.687 255 255 255
-0.177671 0.120715 0.511 255 255 255
0.0181174 0.148228 0.52 255 255 255
0.175888 -0.210159 0.798 255 255 255
0.309563 -0.180272 0.664 255 255 255
-0.190208 -0.213059 0.633 255 255 255
-0.173368 -0.0951652 0.401 255 255 255
0.113907 -0.252359 0.839 255 255 255
0.0748249 0.11875 0.532 255 255 255
-0.198444 0.130092 0.459 0 0 0
-0.0122616 0.0205977 0.598 255 255 255
-0.21234 0.0170399 0.452 0 0 0
0.298513 -0.207356 0.654 255 255 255
-0.128358 0.164064 0.482 255 255 255
-0.271033 -0.165343 0.748 255 255 255
-0.15494 -0.253208 0.677 255 255 255
-0.214251 -0.0330872 0.408 255 255 255
0.0731372 0.147381 0.52 255 255 255
0.0250436 -0.316244 0.884 255 255 255
-0.204805 0.166657 0.43 255 255 255
0.243441 -0.105362 0.811 255 255 255
-0.178467 0.135201 0.497 255 255 255
-0.216134 -0.0821376 0.693 255 255 255
-0.125755 -0.254522 0.718 255 255 255
-0.173131 0.0881848 0.541 255 255 255
-0.144094 0.132971 0.507 255 255 255
-0.235151 0.101152 0.513 255 255 255
0.317215 -0.198544 0.636 255 255 255
0.108049 0.138339 0.521 255 255 255
0.296833 -0.030061 0.809 255 255 255
0.286547 -0.225474 0.651 255 255 255
-0.19405 -0.112193 0.373 255 255 255
0.262011 -0.224896 0.678 255 255 255
0.0188984 0.089971 0.569 255 255 255
0.00833213 0.14505 0.492 255 255 255
-0.0118356 -0.095742 0.627 255 255 255
0.288271 -0.0927958 0.762 255 255 255
-0.120422 -0.171254 0.758 255 255 255
0.165432 -0.219589 0.804 255 255 255
-0.118922 -0.00291453 0.632 255 255 255
0.199743 -0.250297 0.733 255 255 255
0.276848 -0.0375041 0.828 255 255 255
0.0448547 -0.0353304 0.682 0 0 0
0.170428 0.124769 0.547 255 255 255
-0.221903 0.0988615 0.474 255 255 255
0.128855 0.106147 0.552 255 255 255
0.313293 -0.160572 0.672 255 255 255
-0.168877 -0.0625953 0.433 255 255 255
-0.126982 -0.133363 0.753 255 255 255
0.230784 -0.0945507 0.832 255 255 255
0.0468167 -0.309417 0.861 255 255 255
-0.196493 -0.0828137 0.395 255 255 255
-0.248823 -0.180951 0.709 255 255 255
0.0260064 0.0561329 0.583 255 255 255
0.324087 -0.112242 0.705 255 255 255
-0.0380067 -0.0911922 0.638 255 255 255
-0.199698 -0.0525288 0.661 255 255 255
-0.0808301 -0.262505 0.684 255 255 255
0.0386604 -0.0646015 0.711 255 255 255
0.355715 -0.0708393 0.704 255 255 255
-0.0557381 0.133507 0.522 255 255 255
0.393865 0.293106 0.978 255 255 255
-0.256324 -0.113399 0.698 255 255 255
-0.210139 -0.195296 0.66 255 255 255
0.268044 -0.229125 0.671 255 255 255
0.187079 -0.213122 0.785 255 255 255
-0.100978 0.177141 0.475 255 255 255
-0.2214 0.0278248 0.448 0 0 0
-0.225598 -0.225777 0.634 0 0 0
0.123375 0.124876 0.536 255 255 255
-0.1278 -0.0396808 0.662 255 255 255
0.130598 0.112512 0.548 255 255 255
0.0642995 0.15831 0.517 255 255 255
-0.124004 0.100828 0.538 255 255 255
0.000300328 0.162248 0.457 255 255 255
-0.108348 -0.250639 0.682 0 0 0
0.158562 0.121875 0.546 255 255 255
-0.098181 0.161342 0.488 255 255 255
-0.128518 -0.0218339 0.644 255 255 255
-0.176008 0.121547 0.511 255 255 255
0.228089 -0.178826 0.764 255 255 255
-0.170096 0.0657653 0.56 255 255 255
0.034157 0.101487 0.561 0 0 0
0.267052 -0.0924658 0.791 255 255 255
0.118617 0.142875 0.519 255 255 255
0.0759501 0.108233 0.54 255 255 255
-0.157636 0.0559067 0.571 255 255 255
-0.0826303 -0.0944179 0.709 255 255 255
-0.0666471 0.147287 0.508 255 255 255
0.351343 0.405292 1.116 255 255 255
-0.00263295 -0.132643 0.623 255 255 255
0.14803 -0.258819 0.788 255 255 255
-0.180894 0.135201 0.497 255 255 255
0.165976 0.122098 0.547 255 255 255
-0.0538157 0.0758162 0.574 255 255 255
0.274046 0.0403087 0.649 255 255 255
0.299049 -0.219589 0.637 255 255 255
0.257724 -0.0828952 0.798 255 255 255
-0.213945 0.0239216 0.457 255 255 255
-0.184711 -0.135177 0.363 255 255 255
0.0335638 0.175183 0.498 255 255 255
-0.164953 -0.0270318 0.643 255 255 255
-0.209217 0.122938 0.463 255 255 255
0.00842761 0.170048 0.454 255 255 255
0.00349057 -0.011107 0.63 0 0 0
0.0696172 0.156388 0.519 0 0 0
-0.191067 0.113096 0.518 255 255 255
0.0388019 0.147944 0.525 255 255 255
0.321701 -0.103362 0.715 255 255 255
-0.175322 0.167887 0.435 255 255 255
-0.185616 0.0253349 0.484 255 255 255
-0.172056 -0.0517855 0.443 255 255 255
-0.121116 -0.0804584 0.698 255 255 255
-0.172489 0.165763 0.435 255 255 255
0.0190581 0.117648 0.547 255 255 255
0.20117 0.0744658 0.593 255 255 255
-0.0823343 0.158181 0.493 255 255 255
0.44614 0.374885 0.988 255 255 255
-0.301836 -0.263952 0.755 255 255 255
0.110847 -0.0870885 0.745 255 255 255
0.268151 -0.0372323 0.822 255 255 255
-0.220021 0.11977 0.507 255 255 255
-0.180935 -0.233661 0.633 255 255 255
-0.308224 -0.229034 0.787 255 255 255
0.0482564 -0.0685513 0.716 255 255 255
0.064402 -0.25495 0.891 255 255 255
-0.0573137 0.172978 0.485 255 255 255
0.143209 -0.283863 0.769 255 255 255
-0.210483 -0.213751 0.632 255 255 255
0.175878 -0.276023 0.738 255 255 255
-0.1885 0.164725 0.436 255 255 255
0.0682337 -0.274573 0.866 255 255 255
0.23234 0.0989954 0.584 255 255 255
0.301542 -0.0324919 0.804 255 255 255
0.196687 0.0349165 0.628 255 255 255
0.134858 -0.1088 0.817 255 255 255
-0.155661 0.0543322 0.574 255 255 255
0.377442 0.00992689 0.747 255 255 255
-0.164111 -0.0167706 0.472 255 255 255
-0.0821316 0.066707 0.576 0 0 0
-0.204293 -0.178363 0.669 255 255 255
-0.163295 -0.0760573 0.689 255 255 255
0.191073 0.146409 0.535 255 255 255
-0.184208 0.144472 0.448 255 255 255
0.358443 -0.0486073 0.714 255 255 255
0.380069 0.00990032 0.745 255 255 255
0.242333 -0.132812 0.786 255 255 255
0.186541 -0.0633552 0.71 255 255 255
0.070825 0.0243036 0.618 255 255 255
0.10074 -0.298998 0.81 255 255 255
-0.234483 -0.205584 0.662 255 255 255
-0.0592774 -0.103215 0.655 255 255 255
0.178936 -0.174097 0.824 255 255 255
-0.19427 0.0252079 0.592 255 255 255
-0.266932 -0.114699 0.699 255 255 255
-0.0492188 -0.0593964 0.678 255 255 255
0.220062 -0.263712 0.699 255 255 255
0.231727 0.121304 0.564 255 255 255
-0.0836004 0.0411709 0.6 255 255 255
0.0572005 -0.0276624 0.658 0 0 0
0.277835 -0.0992558 0.764 255 255 255
-0.211215 -0.163276 0.688 255 255 255
0.223958 0.0810839 0.592 255 255 255
0.16125 -0.107789 0.851 255 255 255
0.369918 0.00385913 0.749 255 255 255
-0.051585 0.0817809 0.57 255 255 255
-0.220152 -0.166068 0.695 255 255 255
0.296428 -0.141362 0.713 255 255 255
0.296146 -0.2005 0.663 255 255 255
0.133855 -0.258518 0.803 255 255 255
-0.00880164 -0.00904224 0.629 255 255 255
-0.0334145 -0.115173 0.611 255 255 255
-0.149507 0.136833 0.503 255 255 255
0.0252702 -0.308945 0.892 255 255 255
-0.0116376 -0.256819 0.745 255 255 255
0.327127 -0.134423 0.678 255 255 255
-0.067469 -0.0554697 0.684 255 255 255
0.262275 -0.179743 0.718 255 255 255
-0.105393 0.155458 0.492 255 255 255
0.390807 0.0650293 0.781 255 255 255
-0.211773 0.122673 0.462 255 255 255
-0.0547859 -0.241 0.772 255 255 255
-0.175122 -0.198814 0.687 255 255 255
0.0870593 -0.252062 0.871 255 255 255
0.0149693 0.0293069 0.597 255 255 255
-0.230799 0.0759996 0.542 255 255 255
-0.117093 0.0541424 0.582 255 255 255
0.116325 0.108053 0.548 255 255 255
-0.086242 0.0420068 0.598 255 255 255
-0.171696 -0.0576629 0.433 255 255 255
-0.205166 0.120595 0.507 255 255 255
0.236147 -0.153916 0.77 255 255 255
-0.22461 -0.212179 0.646 0 0 0
-0.119937 0.0304813 0.601 255 255 255
-0.127601 0.116112 0.524 255 255 255
0.401899 0.331279 1.002 255 255 255
0.0117936 0.148293 0.503 255 255 255
0.198627 -0.12903 0.845 255 255 255
-0.0236143 -0.162807 0.642 255 255 255
0.167056 -0.241268 0.781 255 255 255
-0.201083 0.147125 0.445 255 255 255
-0.214497 -0.0103076 0.427 255 255 255
0.00587586 -0.0780874 0.668 255 255 255
-0.0191313 -0.0913631 0.632 255 255 255
-0.182057 0.12307 0.507 255 255 255
-0.176312 0.0217063 0.491 255 255 255
0.205542 -0.231323 0.741 255 255 255
0.313604 -0.088552 0.737 255 255 255
-0.196374 -0.0421348 0.65 255 255 255
-0.230839 0.0518167 0.557 255 255 255
0.21868 0.0767823 0.596 255 255 255
-0.187916 0.125872 0.505 255 255 255
-0.197276 -0.222928 0.626 255 255 255
0.123182 -0.208718 0.856 255 255 255
-0.184712 -0.101626 0.711 255 255 255
0.0707104 0.0262724 0.617 255 255 255
-0.297032 -0.259748 0.768 255 255 255
-0.119084 -0.0186899 0.644 255 255 255
-0.145796 0.163383 0.48 255 255 255
-0.0461938 0.101287 0.55 255 255 255
0.000398904 0.0278222 0.607 255 255 255
-0.0467506 -0.0920498 0.644 255 255 255
-0.215083 -0.0183403 0.42 255 255 255
0.204169 0.084885 0.585 255 255 255
-0.167458 -0.045482 0.452 255 255 255
0.150326 0.0540436 0.602 255 255 255
-0.164641 0.165036 0.478 255 255 255
-0.322015 -0.22233 0.777 255 255 255
0.0600165 0.122944 0.539 255 255 255
-0.148715 -0.194389 0.716 255 255 255
-0.218052 0.0401102 0.571 255 255 255
-0.112613 -0.0209472 0.649 255 255 255
-0.163056 0.14505 0.492 255 255 255
-0.312699 -0.227973 0.779 255 255 255
0.00476754 0.120982 0.542 255 255 255
-0.00177733 -0.0499042 0.684 255 255 255
-0.0876785 0.123168 0.525 255 255 255
0.276107 -0.144134 0.733 255 255 255
0.296207 -0.0727507 0.773 255 255 255
0.342059 0.00274953 0.78 255 255 255
-0.1386 -0.124337 0.743 255 255 255
0.0870269 0.018506 0.626 255 255 255
-0.212848 0.117668 0.466 255 255 255
-0.153426 0.16702 0.477 255 255 255
-0.178628 0.150022 0.445 255 255 255
-0.200367 -0.0915907 0.705 255 255 255
0.326493 0.472841 1.22 255 255 255
0.0145312 -0.0269149 0.666 255 255 255
-0.0442962 0.0657327 0.584 255 255 255
0.0113336 0.175184 0.452 255 255 255
-0.22067 0.0378019 0.454 255 255 255
0.293805 0.0416197 0.653 255 255 255
-0.194326 -0.168129 0.676 255 255 255
0.350548 0.000207656 0.768 255 255 255
-0.0850144 -0.0156424 0.648 255 255 255
-0.0806878 0.126344 0.524 255 255 255
-0.216019 0.0221888 0.452 255 255 255
0.0984155 0.193012 0.498 0 0 0
-0.23326 0.062131 0.552 255 255 255
0.0138509 -0.0779588 0.686 255 255 255
0.0861907 0.096789 0.555 255 255 255
0.301762 -0.12099 0.723 255 255 255
0.0129625 -0.100122 0.642 255 255 255
0.0516997 -0.102183 0.749 255 255 255
0.353819 -0.0781867 0.698 255 255 255
0.278755 -0.0696463 0.795 255 255 255
0.127988 0.0706052 0.585 255 255 255
-0.209001 -0.0497329 0.403 255 255 255
-0.176125 0.15181 0.446 255 255 255
0.228012 -0.238779 0.706 255 255 255
0.149606 0.14936 0.521 255 255 255
-0.186221 -0.206797 0.659 255 255 255
0.0471547 0.182551 0.496 255 255 255
-0.088357 -0.22585 0.803 255 255 255
-0.220771 -0.225064 0.632 255 255 255
-0.168323 -0.242797 0.652 255 255 255
-0.0606996 -0.0509427 0.683 255 255 255
-0.119384 0.158633 0.487 255 255 255
0.435186 0.249955 0.887 255 255 255
-0.130868 0.0788675 0.556 255 255 255
0.413004 0.26906 0.928 255 255 255
0.0878599 -0.0232727 0.655 255 255 255
0.0217909 0.157723 0.507 255 255 255
0.240638 0.132488 0.557 255 255 255
-0.197963 0.0936436 0.532 255 255 255
0.0744628 0.178821 0.506 255 255 255
0.231356 0.0428864 0.625 255 255 255
0.016582 -0.123122 0.621 255 255 255
-0.00313192 0.128126 0.535 255 255 255
0.0979865 0.0273207 0.618 255 255 255
0.00704663 -0.0746223 0.676 255 255 255
0.164934 -0.24316 0.783 255 255 255
-0.251291 0.0910033 0.517 255 255 255
0.0817167 0.0644496 0.581 255 255 255
0.122993 -0.051987 0.697 255 255 255
-0.137773 0.161711 0.482 255 255 255
0.12534 -0.189697 0.871 255 255 255
0.083941 -0.090482 0.743 255 255 255
-0.0744044 0.113983 0.534 255 255 255
0.176484 0.0189199 0.64 255 255 255
-0.101381 -0.249726 0.711 255 255 255
-0.0575635 0.121983 0.531 255 255 255
-0.0562911 0.177767 0.483 255 255 255
-0.139557 0.0844348 0.551 255 255 255
-0.03917 -0.0570211 0.676 255 255 255
-0.224263 0.0290868 0.445 0 0 0
-0.0923906 0.160735 0.491 255 255 255
-0.043064 -0.000863016 0.636 255 255 255
0.324079 -0.0695507 0.739 255 255 255
-0.208032 0.167275 0.428 255 255 255
-0.197738 0.12142 0.507 255 255 255
0.0184143 0.07321 0.583 255 255 255
0.181446 0.113861 0.559 255 255 255
0.262294 0.0324977 0.662 255 255 255
0.248015 0.00795327 0.682 255 255 255
-0.23356 0.115153 0.459 255 255 255
0.284425 -0.125561 0.736 255 255 255
0.00453042 -0.0995909 0.632 255 255 255
-0.00862685 -0.281762 0.947 0 0 0
0.261905 -0.16374 0.73 255 255 255
0.295108 -0.123514 0.724 255 255 255
-0.155169 -0.0901869 0.703 255 255 255
0.466315 0.339122 0.938 255 255 255
-0.00247235 0.0715572 0.585 255 255 255
-0.00233859 -0.335149 0.9 255 255 255
-0.236141 -0.0691219 0.676 255 255 255
0.0906135 0.0912818 0.56 255 255 255
-0.0957724 -0.109094 0.73 255 255 255
0.0593724 0.0261447 0.614 255 255 255
0.0232825 -0.0579891 0.701 255 255 255
-0.173424 -0.125666 0.377 255 255 255
-0.0485438 -0.09981 0.64 255 255 255
-0.00438175 0.143372 0.481 255 255 255
-0.0475577 0.0113932 0.627 255 255 255
0.128779 0.136242 0.526 255 255 255
-0.0981208 0.095022 0.55 255 255 255
0.0315069 0.169092 0.504 255 255 255
0.365568 0.0267288 0.776 255 255 255
-0.217898 -0.187836 0.664 255 255 255
-0.139228 -0.0629839 0.681 255 255 255
-0.134525 -0.164501 0.761 255 255 255
-0.224062 -0.148665 0.726 255 255 255
0.108456 0.0954961 0.558 255 255 255
-0.254234 -0.11848 0.708 255 255 255
-0.114292 -0.192751 0.775 255 255 255
0.106538 -0.300708 0.804 255 255 255
-0.0907542 -0.0492476 0.675 255 255 255
-0.293774 -0.27088 0.747 255 255 255
-0.137801 0.171369 0.474 255 255 255
-0.0578472 0.0252684 0.617 255 255 255
-0.11839 0.0650845 0.57 255 255 255
-0.0145886 -0.108745 0.614 255 255 255
-0.0751747 0.0719543 0.573 0 0 0
-0.0239427 0.0517382 0.598 255 255 255
0.0379647 0.185883 0.492 255 255 255
0.140231 0.142546 0.524 255 255 255
-0.156782 0.1291 0.508 255 255 255
0.0323695 0.0594138 0.578 255 255 255
0.430493 0.355951 0.989 255 255 255
0.118794 -0.194839 0.875 255 255 255
-0.177072 -0.133446 0.368 255 255 255
0.244288 0.00129804 0.684 255 255 255
-0.151877 -0.122134 0.737 255 255 255
0.342269 -0.108898 0.684 255 255 255
-0.0391871 0.0551657 0.593 255 255 255
0.165672 0.122764 0.546 255 255 255
-0.0415153 0.0648933 0.585 255 255 255
0.084422 -0.238196 0.888 255 255 255
-0.188488 0.0261713 0.592 255 255 255
-0.00193985 0.15997 0.459 255 255 255
0.372989 0.104478 0.832 255 255 255
0.349526 0.399843 1.116 255 255 255
-0.000434843 0.173633 0.448 255 255 255
-0.206835 0.0357747 0.576 255 255 255
0.0509852 0.187442 0.494 255 255 255
-0.203807 -0.0330826 0.425 255 255 255
0.397312 0.0880774 0.794 255 255 255
0.21148 -0.119493 0.836 255 255 255
-0.0296957 0.113253 0.543 255 255 255
0.00288665 0.135795 0.521 255 255 255
-0.236489 0.0677992 0.547 255 255 255
-0.216586 0.055741 0.56 255 255 255
0.279844 -0.0861026 0.78 255 255 255
0.0932386 -0.086504 0.74 255 255 255
-0.186937 -0.0434584 0.654 255 255 255
0.119972 0.165309 0.5 255 255 255
0.226448 -0.106608 0.831 255 255 255
0.292306 -0.131033 0.72 255 255 255
0.354656 0.0267632 0.777 255 255 255
-0.180676 0.142648 0.492 255 255 255
0.21215 0.0850301 0.586 255 255 255
-0.137414 0.00720692 0.618 255 255 255
-0.171545 0.0496618 0.574 255 255 255
-0.188738 0.125872 0.505 255 255 255
-0.0865203 0.0879154 0.556 255 255 255
-0.180396 0.165103 0.437 255 255 255
-0.195236 -0.0804058 0.399 255 255 255
0.0886878 0.191391 0.498 0 0 0
0.185499 0.013841 0.646 255 255 255
-0.204089 0.148713 0.439 255 255 255
-0.218929 0.0152588 0.443 255 255 255
-0.0787506 0.113983 0.534 255 255 255
0.21755 -0.147048 0.808 255 255 255
-0.207403 0.0393896 0.464 255 255 255
0.0587403 -0.301669 0.851 255 255 255
0.129131 0.0911774 0.565 255 255 255
-0.162611 0.118537 0.516 255 255 255
0.291233 0.040495 0.652 255 255 255
0.432742 0.213452 0.862 255 255 255
-0.179049 0.0933011 0.535 255 255 255
0.272832 -0.17559 0.706 255 255 255
-0.209028 -0.120321 0.719 255 255 255
0.179237 -0.0207799 0.678 255 255 255
-0.162947 -0.210009 0.702 255 255 255
-0.261362 0.0917896 0.512 255 255 255
-0.0317563 0.156586 0.469 255 255 255
0.0683613 -0.104644 0.758 255 255 255
0.19846 0.110681 0.566 255 255 255
-0.204966 -0.099033 0.709 255 255 255
-0.205997 0.00232372 0.451 255 255 255
-0.152491 -0.0802279 0.696 255 255 255
-0.114472 0.163619 0.483 255 255 255
0.252095 0.0758471 0.604 255 255 255
-0.2336 -0.174736 0.698 0 0 0
-0.100152 0.162262 0.486 255 255 255
0.207057 -0.172709 0.793 255 255 255
0.100976 0.106076 0.547 255 255 255
-0.185935 -0.0792865 0.41 0 0 0
0.297076 -0.0883743 0.756 255 255 255
0.124575 -0.127924 0.856 255 255 255
-0.1674 0.00254012 0.493 255 255 255
-0.172522 -0.0122135 0.474 255 255 255
-0.0655283 -0.0680107 0.687 255 255 255
-0.256705 -0.0958063 0.678 255 255 255
0.326836 -0.128557 0.682 255 255 255
-0.223024 0.110953 0.512 255 255 255
0.210725 0.138878 0.543 255 255 255
-0.0786395 0.156406 0.495 255 255 255
0.283789 -0.23937 0.64 255 255 255
-0.213387 0.12337 0.459 0 0 0
0.212547 -0.155479 0.804 255 255 255
0.334476 -0.0887741 0.71 255 255 255
0.11397 -0.187222 0.893 255 255 255
-0.0839559 0.0871671 0.557 255 255 255
-0.223054 0.115906 0.462 255 255 255
0.1385 0.118773 0.544 255 255 255
0.0855463 -0.083641 0.736 255 255 255
-0.161399 0.0836686 0.546 255 255 255
0.194085 -0.167914 0.82 255 255 255
0.124532 0.0893385 0.565 255 255 255
-0.0108108 0.16524 0.455 255 255 255
-0.193942 0.0270888 0.591 255 255 255
-0.140772 0.122736 0.516 255 255 255
-0.151436 0.117311 0.518 255 255 255
0.290276 -0.144086 0.715 255 255 255
0.212361 0.0397077 0.623 255 255 255
-0.235698 -0.228597 0.639 255 255 255
-0.00702546 -0.291606 0.939 0 0 0
0.405995 0.123412 0.814 255 255 255
-0.0308156 -0.0644585 0.662 255 255 255
-0.17371 -0.0651117 0.431 255 255 255
-0.0203834 -0.0861359 0.639 255 255 255
0.319901 -0.11204 0.711 255 255 255
0.185889 0.102573 0.567 255 255 255
-0.245383 0.0631168 0.545 255 255 255
-0.0570578 -0.0200444 0.654 255 255 255
0.0258535 -0.332606 0.863 255 255 255
-0.0285305 -0.0266321 0.659 0 0 0
0.336682 -0.0619978 0.735 255 255 255
0.249125 -0.238431 0.682 255 255 255
-0.0533391 0.0174035 0.623 255 255 255
-0.152124 -0.0438571 0.66 255 255 255
-0.0855392 -0.0284712 0.652 255 255 255
0.231158 -0.0154884 0.688 255 255 255
0.124213 0.0811371 0.572 255 255 255
-0.0830229 0.169907 0.483 255 255 255
0.146913 0.0296643 0.625 255 255 255
-0.191661 -0.21444 0.631 255 255 255
-0.105884 -0.107315 0.726 255 255 255
-0.205019 0.145803 0.441 255 255 255
0.08225 -0.204563 0.912 255 255 255
-0.0265937 0.10435 0.552 255 255 255
-0.164448 -0.0152803 0.633 255 255 255
0.231226 0.133578 0.554 255 255 255
-0.306861 -0.19283 0.807 255 255 255
-0.144656 -0.227965 0.719 255 255 255
-0.100408 0.101765 0.543 255 255 255
-0.187287 -0.136989 0.36 255 255 255
-0.17638 0.159027 0.474 255 255 255
0.250243 -0.109004 0.799 255 255 255
-0.145967 0.165036 0.478 255 255 255
0.175311 0.0481266 0.614 255 255 255
0.345327 0.396097 1.126 255 255 255
-0.0180813 -0.233851 0.761 255 255 255
-0.173222 0.00714861 0.613 255 255 255
0.272264 -0.195191 0.69 255 255 255
0.146521 -0.0421742 0.685 255 255 255
0.247967 -0.193027 0.724 255 255 255
-0.14442 0.148051 0.494 255 255 255
-0.151053 -0.0132201 0.633 255 255 255
-0.192097 0.158003 0.441 255 255 255
-0.216712 0.0430682 0.455 255 255 255
-0.00364122 -0.103076 0.622 255 255 255
-0.241832 0.0651288 0.547 255 255 255
-0.13948 -0.199176 0.761 255 255 255
-0.174305 0.159759 0.436 255 255 255
-0.224003 -0.153721 0.722 255 255 255
0.0972262 0.111955 0.541 255 255 255
-0.0602228 0.0855091 0.564 255 255 255
-0.190022 0.165706 0.433 0 0 0
0.230665 0.155149 0.557 255 255 255
-0.279192 -0.146705 0.728 255 255 255
-0.20872 -0.0493206 0.405 255 255 255
0.0358009 0.0460887 0.588 255 255 255
-0.233252 -0.227201 0.638 255 255 255
0.193316 0.0880866 0.581 255 255 255
-0.209821 -0.196073 0.659 255 255 255
-0.159335 0.0901118 0.542 255 255 255
0.153659 -0.0422973 0.687 255 255 255
-0.222353 0.120382 0.459 255 255 255
-0.0236222 -0.136944 0.615 255 255 255
0.139194 -0.162869 0.887 255 255 255
0.187497 -0.128073 0.857 255 255 255
-0.15456 0.114379 0.52 255 255 255
-0.200993 0.128318 0.458 255 255 255
0.06143 0.0658838 0.577 255 255 255
0.410181 0.418392 1.075 255 255 255
0.0729575 -0.0903602 0.742 255 255 255
0.180678 -0.249774 0.753 255 255 255
0.237137 -0.133488 0.79 255 255 255
-0.0623333 0.0712697 0.575 255 255 255
0.10069 0.0359011 0.61 255 255 255
