ply
format ascii 1.0
comment Created by Open3D
element vertex 1289
property double x
property double y
property double z
property uchar red
property uchar green
property uchar blue
end_header
0.123275 -0.335173 0.908 255 255 255
-0.665748 -0.550209 1.484 255 255 255
-0.336084 0.23942 0.642 255 255 255
-0.0223497 -0.139835 1.09 255 255 255
-1.2535 -0.503617 2.44 255 255 255
-0.115414 -0.104033 1.21 255 255 255
0.382292 -0.0784068 0.895 255 255 255
0.361831 0.0559924 0.816 255 255 255
-0.490423 -0.210141 1.876 255 255 255
-0.102919 -0.347374 1.079 255 255 255
0.174238 -0.247145 0.889 255 255 255
-0.119554 0.125764 0.689 255 255 255
-0.297574 0.0954545 1.668 255 255 255
-0.277392 -0.0449272 0.554 255 255 255
0.209077 0.24467 1.39 255 255 255
0.0961623 -0.241648 0.978 255 255 255
0.156537 0.000304454 1.126 255 255 255
-0.198317 0.16094 0.686 255 255 255
-0.247733 -0.00364353 0.584 255 255 255
-0.28089 0.0665572 0.6 255 255 255
0.179337 -0.192495 0.963 255 255 255
-0.103694 -0.284073 1.106 255 255 255
0.077538 0.210909 1.47 255 255 255
-0.220612 0.113335 0.656 255 255 255
0.361687 0.207878 1.192 255 255 255
-0.253062 -0.244894 1.322 255 255 255
-0.177495 0.266829 1.502 255 255 255
-0.556573 -0.463684 1.47 255 255 255
0.250406 -0.215047 0.848 255 255 255
0.429139 0.331772 1.265 255 255 255
-0.408329 -0.333521 1.445 255 255 255
0.183231 0.131522 1.366 255 255 255
-0.448125 -0.268976 1.452 255 255 255
-0.287838 0.0169392 0.573 255 255 255
0.262244 0.00335232 0.951 255 255 255
-0.169951 0.00414918 0.612 255 255 255
0.310493 -0.151925 0.85 255 255 255
-0.0359279 -0.270814 1.022 255 255 255
0.264717 -0.286778 0.828 255 255 255
0.287245 0.157429 1.222 255 255 255
-0.304128 0.0810839 0.592 255 255 255
-0.0101664 -0.108664 1.116 255 255 255
-0.294119 0.190777 0.658 255 255 255
0.266702 -0.190609 0.856 255 255 255
0.361108 0.432972 1.203 255 255 255
-0.928844 -0.398466 2.078 255 255 255
0.371741 0.375223 1.252 255 255 255
-0.23734 0.153226 0.667 255 255 255
-0.441415 -0.307257 1.477 255 255 255
0.337205 0.0940875 0.994 255 255 255
0.135332 -0.186495 1.034 255 255 255
0.0643046 0.171189 0.604 255 255 255
-0.306632 0.195708 0.646 255 255 255
0.0289898 0.170565 0.627 255 255 255
-0.609639 -0.160688 1.905 255 255 255
0.314594 -0.212982 0.794 255 255 255
0.0790759 -0.327101 0.927 255 255 255
-0.149404 0.194865 0.725 255 255 255
0.283285 -0.0532985 0.914 255 255 255
0.522906 0.422429 1.158 255 255 255
0.0244342 0.128838 0.67 255 255 255
-0.0451091 0.263522 0.801 255 255 255
0.339578 0.0135658 0.82 255 255 255
0.131161 0.175107 0.578 255 255 255
-0.272156 0.212022 0.678 255 255 255
0.452883 0.413495 1.192 255 255 255
0.398536 0.385893 1.234 255 255 255
0.300113 -0.0280157 0.868 255 255 255
-0.167888 -0.346014 1.126 255 255 255
-0.241245 -0.0779414 0.558 255 255 255
-0.52201 -0.295404 1.409 255 255 255
0.0575504 0.015615 1.339 255 255 255
-0.268718 -0.00638341 0.574 255 255 255
0.0799368 0.222855 0.575 255 255 255
0.25306 -0.290214 0.834 255 255 255
0.370294 0.371741 1.254 255 255 255
-0.406621 -0.489319 1.297 255 255 255
0.0611911 -0.290054 0.954 255 255 255
-0.701983 -0.557454 1.484 255 255 255
-0.255633 0.218021 0.69 255 255 255
-0.21599 0.014981 0.607 255 255 255
-0.144777 0.0197199 1.691 255 255 255
-0.181839 0.0513496 0.629 255 255 255
-0.294468 0.160213 0.647 255 255 255
0.177115 -0.0136789 1.073 255 255 255
-0.268271 0.104742 0.63 255 255 255
-0.188803 0.0927076 1.62 255 255 255
-0.450669 -0.312357 1.445 255 255 255
-0.332788 -0.0546776 1.784 255 255 255
-0.427901 -0.452866 1.372 255 255 255
-0.109429 0.167961 0.726 255 255 255
-0.227462 -0.211289 1.275 255 255 255
0.143527 -0.0345355 1.07 255 255 255
-0.137547 0.22103 0.771 0 0 0
-0.541008 -0.0791196 1.882 255 255 255
-0.678372 -0.389539 1.587 255 255 255
-0.0518866 -0.201262 1.077 255 255 255
0.2937 -0.133617 0.914 255 255 255
-0.260474 0.104705 0.636 255 255 255
-0.120949 -0.115577 1.187 255 255 255
0.437981 0.232742 1.066 255 255 255
0.399625 0.460397 1.178 255 255 255
-0.272454 0.205897 0.676 255 255 255
0.305648 -0.0859409 0.981 255 255 255
0.0915229 0.1223 0.636 255 255 255
-0.198361 -0.37152 1.154 255 255 255
-0.205835 -0.292174 1.257 0 0 0
0.328092 -0.246036 0.78 255 255 255
0.397407 0.100397 0.81 255 255 255
-0.268903 0.0642643 0.606 255 255 255
-0.254783 0.148564 0.656 255 255 255
0.0331252 0.144643 0.648 255 255 255
0.117033 -0.235568 0.941 255 255 255
-0.218214 -0.0544772 0.569 255 255 255
0.296466 -0.250924 0.808 255 255 255
0.344417 0.14628 1.094 255 255 255
-0.292674 0.20271 0.662 255 255 255
0.362136 0.412883 1.213 255 255 255
-0.766376 -0.372135 1.696 0 0 0
-0.16604 0.288363 1.487 255 255 255
0.132129 0.19309 0.57 255 255 255
0.344188 -0.0495394 0.679 255 255 255
0.111793 -0.215395 1.004 255 255 255
0.0807506 0.162785 0.602 255 255 255
0.199303 0.0944353 1.257 255 255 255
-0.284102 0.116571 0.622 255 255 255
0.0451432 -0.223699 1.012 255 255 255
0.0254394 -0.0650357 1.085 255 255 255
0.0259956 0.0678597 1.535 255 255 255
0.310572 0.00295751 0.839 255 255 255
0.313274 -0.0928697 0.97 255 255 255
0.0427859 0.277458 0.764 255 255 255
-0.1623 0.00819932 0.617 255 255 255
-0.275054 -0.0227928 0.564 255 255 255
0.0502051 0.186654 0.6 255 255 255
-0.134362 -0.275383 1.137 255 255 255
-0.296834 0.0643785 0.589 255 255 255
0.458841 0.221454 0.964 255 255 255
-0.288765 0.0694573 1.696 255 255 255
0.38541 0.241895 1.237 255 255 255
-0.29006 0.099269 0.609 255 255 255
-0.150001 0.229073 0.777 255 255 255
-0.0639944 0.280915 0.777 255 255 255
0.315113 0.261024 1.369 255 255 255
0.0496206 0.177884 1.494 255 255 255
0.235486 -0.284079 0.844 255 255 255
-0.0140864 0.126517 0.687 255 255 255
-0.0956584 -0.378133 1.057 255 255 255
0.211387 -0.213389 0.887 255 255 255
-0.201673 0.0573083 0.627 255 255 255
0.458151 0.28986 1.085 255 255 255
-0.684393 -0.404014 1.583 255 255 255
-0.277145 0.0512191 0.592 255 255 255
0.287713 -0.252477 0.813 255 255 255
-0.294251 0.243315 0.673 255 255 255
0.0356155 0.135546 0.655 255 255 255
0.0149354 0.168103 0.637 255 255 255
-0.440745 -0.312596 1.491 255 255 255
-0.466643 -0.365237 1.422 255 255 255
0.188065 -0.213935 0.914 255 255 255
0.207817 -0.0845832 1.043 255 255 255
-0.247308 0.148564 0.656 255 255 255
-0.330552 -0.222208 1.52 255 255 255
-0.0815402 -0.134315 1.149 255 255 255
-0.266091 0.227465 0.688 255 255 255
-0.00101043 -0.20131 1.041 255 255 255
0.0364592 0.0991098 1.555 255 255 255
0.110748 -0.14575 1.108 255 255 255
0.212272 -0.0615681 1 255 255 255
0.324944 -0.111306 0.914 255 255 255
0.303258 -0.124688 0.925 255 255 255
0.236666 -0.200021 0.879 255 255 255
-0.242592 0.246593 0.701 255 255 255
-0.292961 0.170478 0.646 255 255 255
-0.307374 0.114559 0.606 255 255 255
-0.106524 0.286038 0.802 255 255 255
0.3684 0.140888 1.041 255 255 255
-0.256971 -0.401713 1.267 255 255 255
-0.0939075 0.166228 0.734 255 255 255
-0.494391 -0.163094 1.456 255 255 255
0.410323 0.114981 0.82 255 255 255
-0.0811601 -0.181633 1.118 255 255 255
0.314012 -0.175062 0.816 255 255 255
-0.335561 0.232469 0.643 255 255 255
-0.499049 -0.367551 1.422 255 255 255
0.129956 -0.181307 1.073 255 255 255
0.266767 -0.236351 0.826 255 255 255
0.00594623 0.133292 0.676 255 255 255
-0.0686399 0.184418 1.528 255 255 255
-0.18103 -0.0279656 0.596 255 255 255
-0.00149769 0.161119 1.543 255 255 255
-0.09716 0.145432 0.714 255 255 255
0.259855 -0.178768 0.88 255 255 255
0.396258 -0.0824718 0.847 255 255 255
0.012042 -0.0129967 1.369 255 255 255
-0.248792 0.215386 0.696 255 255 255
0.0610502 0.176207 0.601 255 255 255
0.399588 -0.0311234 0.918 255 255 255
-0.0803891 0.158121 1.563 255 255 255
-0.245073 0.0751303 0.631 255 255 255
0.0498532 0.281446 0.758 255 255 255
0.245017 -0.29878 0.839 255 255 255
-0.080815 0.266478 0.806 255 255 255
-0.282946 0.159329 0.652 255 255 255
-0.184323 0.0491456 0.627 255 255 255
-0.0974684 -0.348483 1.077 255 255 255
-1.2027 -0.620857 2.402 255 255 255
0.315384 -0.143964 0.852 255 255 255
-0.183602 0.125379 0.669 255 255 255
0.117792 0.00436753 1.239 255 255 255
-0.229142 0.157342 1.607 255 255 255
0.494424 0.353645 1.18 255 255 255
0.0780655 0.0943296 1.48 255 255 255
0.283857 -0.115206 0.972 255 255 255
0.0353932 0.102824 0.671 255 255 255
-0.340383 -0.431332 1.294 255 255 255
-0.394504 -0.360059 1.429 255 255 255
0.117329 0.211347 0.557 255 255 255
-0.376368 -0.316642 1.422 255 255 255
-0.520606 -0.0537769 1.853 255 255 255
-0.0978166 0.00578812 1.642 255 255 255
0.254112 -0.285799 0.833 255 255 255
0.315717 -0.133547 0.884 255 255 255
0.0554014 -0.0185301 1.289 255 255 255
-0.613505 -0.538335 1.498 255 255 255
0.180108 0.0110579 1.102 255 255 255
-0.253372 -0.0230757 0.571 255 255 255
0.424656 0.201141 1.046 255 255 255
-0.091919 0.171163 1.543 255 255 255
-0.305761 -0.367992 1.406 255 255 255
-0.230167 -0.0839875 0.562 255 255 255
-0.290316 0.21953 0.664 255 255 255
0.0320547 -0.114633 1.07 255 255 255
0.103599 -0.290743 0.917 255 255 255
-0.267763 -0.351733 1.387 255 255 255
-0.183324 -0.0278718 0.594 255 255 255
0.123379 -0.290564 0.898 255 255 255
0.140107 0.0710275 1.316 255 255 255
-0.30646 0.0567879 0.58 255 255 255
-0.166467 0.193234 1.559 255 255 255
0.123982 -0.0258215 1.147 255 255 255
0.364109 0.00252393 0.716 255 255 255
-0.449733 -0.325789 1.442 255 255 255
0.312989 -0.125852 0.901 255 255 255
0.156136 0.16446 0.587 255 255 255
0.357939 -0.00619075 0.787 255 255 255
0.362831 0.13437 1.03 255 255 255
0.0908195 0.180007 0.591 255 255 255
0.184048 -0.0251775 1.043 255 255 255
0.0929176 -0.358058 0.945 255 255 255
-0.0187367 -0.0650077 1.339 255 255 255
-0.201995 0.0645534 0.628 255 255 255
0.343374 -0.257176 0.783 255 255 255
0.0659189 -0.363401 0.955 255 255 255
0.576521 0.438509 1.141 255 255 255
-0.722335 -0.407176 1.616 255 255 255
-0.328913 -0.393953 1.369 255 255 255
0.498572 0.311367 1.062 255 255 255
-0.166429 0.193882 0.717 255 255 255
-0.219986 0.284358 0.783 255 255 255
0.376655 0.0757232 0.892 255 255 255
-0.144563 0.308609 0.803 255 255 255
0.00581831 0.203668 1.487 255 255 255
-0.163487 -0.00790428 1.714 255 255 255
-0.0647543 -0.204899 1.087 255 255 255
-0.0268534 -0.373389 0.994 255 255 255
-0.403088 -0.459032 1.313 255 255 255
0.362699 -0.105826 0.869 255 255 255
0.384607 0.231331 1.203 255 255 255
0.368091 -0.071147 0.914 255 255 255
0.272396 0.100751 1.143 255 255 255
-0.667151 -0.572463 1.498 255 255 255
0.427185 0.24312 1.139 255 255 255
0.000426505 0.170213 0.649 255 255 255
0.00937675 -0.167981 1.066 255 255 255
0.158127 -0.0616791 1.029 255 255 255
-0.637336 -0.480014 1.491 255 255 255
0.252371 0.026939 1.024 255 255 255
0.373076 0.157852 1.064 255 255 255
0.192186 -0.149188 1.032 255 255 255
-0.468102 -0.526545 1.372 255 255 255
0.0277164 0.279715 0.76 255 255 255
0.0357395 -0.2549 0.98 255 255 255
0.50559 0.304164 1.055 255 255 255
0.188193 0.16862 1.456 255 255 255
0.230003 -0.192819 0.892 255 255 255
-0.13391 -0.194149 1.149 255 255 255
0.317578 -0.297342 0.795 255 255 255
-0.536907 -0.238839 1.4 255 255 255
0.273424 -0.27257 0.834 255 255 255
-0.299766 0.0761381 0.591 255 255 255
-0.0380097 -0.073063 1.327 255 255 255
0.253275 0.00339814 0.964 255 255 255
-0.198192 0.377904 1.406 255 255 255
-0.304481 0.252755 0.669 255 255 255
-0.0488033 -0.367338 1.013 255 255 255
0.341568 -0.189211 0.776 255 255 255
-0.630575 -0.567588 1.498 255 255 255
0.341505 -0.204833 0.773 255 255 255
0.0951555 -0.269306 0.952 255 255 255
-0.30853 0.182111 0.65 255 255 255
-0.269165 -0.0450405 1.748 255 255 255
0.351965 -0.132528 0.824 255 255 255
-0.251693 -0.064878 0.555 255 255 255
0.15321 0.177313 0.576 255 255 255
-0.23528 -0.03611 1.729 255 255 255
0.423878 0.19615 0.963 255 255 255
0.32911 0.194095 1.215 255 255 255
-0.248688 0.448161 1.369 255 255 255
-0.00275175 -0.178941 1.059 255 255 255
0.407593 0.385072 1.225 255 255 255
-0.250643 0.227364 0.698 255 255 255
-0.0680402 0.0615624 1.633 255 255 255
-0.143583 -0.109935 1.232 255 255 255
0.0628016 0.210999 0.581 255 255 255
0.0833687 -0.0474213 1.128 255 255 255
-0.310768 -0.0281331 1.758 255 255 255
-0.0657423 0.0431972 1.642 255 255 255
0.309397 0.0112558 0.847 255 255 255
0.460213 0.40489 1.201 255 255 255
0.0184634 0.16745 1.532 255 255 255
0.381741 0.12457 0.992 255 255 255
0.369668 -0.282299 0.782 255 255 255
-0.210722 -0.390441 1.16 255 255 255
0.585997 0.358062 1.145 255 255 255
0.101799 0.1571 0.599 255 255 255
0.0258564 0.232101 0.709 0 0 0
-0.233983 0.0897412 0.64 255 255 255
0.350776 -0.0260479 0.701 255 255 255
0.196682 -0.2498 0.873 255 255 255
-0.780922 -0.471174 1.575 255 255 255
-0.297199 0.205267 0.653 255 255 255
-0.0120593 0.274082 0.772 255 255 255
-0.224434 -0.0753745 0.566 255 255 255
0.222651 -0.104639 1.057 255 255 255
0.0412609 -0.28563 0.96 255 255 255
-0.658755 -0.409931 1.547 255 255 255
-0.319032 0.237844 0.652 255 255 255
-0.298562 0.148591 0.629 255 255 255
-0.248601 0.271298 0.715 255 255 255
0.159588 -0.301779 0.888 255 255 255
0.42872 0.206316 0.974 255 255 255
0.270971 0.0436455 1.025 255 255 255
0.472826 0.449587 1.16 255 255 255
0.0326609 0.0230453 1.393 255 255 255
-0.238072 0.144099 0.66 255 255 255
0.402738 -0.045225 0.873 255 255 255
-0.0735179 0.272923 0.798 255 255 255
-0.19298 -0.0258075 0.591 255 255 255
0.327077 -0.106048 0.92 255 255 255
0.359362 0.0382918 0.755 255 255 255
-0.443367 -0.239657 1.696 255 255 255
-0.126959 -0.25688 1.137 255 255 255
-0.215231 0.0886997 0.64 255 255 255
-0.319493 -0.377144 1.406 255 255 255
-0.279356 -0.056136 0.549 255 255 255
0.0391961 0.159342 0.627 255 255 255
-0.111475 -0.109967 1.189 0 0 0
-0.251664 0.0251653 0.591 255 255 255
-0.124004 -0.403147 1.064 255 255 255
-1.28204 -0.525401 2.449 255 255 255
-0.238038 -0.0771714 0.559 255 255 255
-0.352465 0.070604 1.724 255 255 255
-0.568212 -0.41148 1.463 255 255 255
-0.550703 -0.217908 1.412 255 255 255
-0.299236 0.142332 0.624 255 255 255
-0.0412296 0.050652 1.624 255 255 255
0.381469 0.0753457 0.796 255 255 255
-0.39616 -0.398934 1.435 255 255 255
-0.324307 -0.192123 1.599 255 255 255
-0.310768 -0.0224114 1.758 255 255 255
0.230929 -0.053352 0.969 255 255 255
0.187488 -0.221634 0.897 255 255 255
0.37322 0.341421 1.278 255 255 255
-0.168354 0.0672461 0.644 255 255 255
0.30064 -0.134217 0.908 255 255 255
0.247167 -0.164079 0.918 255 255 255
0.154591 -0.0105569 1.112 255 255 255
-0.283936 -0.0289067 0.558 255 255 255
0.146346 0.191975 0.564 255 255 255
-0.0434412 -0.179803 1.085 255 255 255
-0.185246 0.126352 1.612 255 255 255
0.0408215 0.133007 0.653 255 255 255
0.0740819 0.147473 0.62 255 255 255
0.384982 0.36179 1.262 255 255 255
-0.257856 0.244834 0.696 255 255 255
0.216664 -0.1645 0.983 255 255 255
-0.0242918 0.12388 0.691 255 255 255
-0.475481 -0.220072 1.673 255 255 255
0.100613 -0.29522 0.917 255 255 255
-0.0358429 0.289661 0.77 255 255 255
0.359362 -0.214807 0.755 255 255 255
0.481559 0.215146 0.95 255 255 255
-0.23307 0.105701 0.655 255 255 255
0.293112 -0.0689068 0.966 255 255 255
0.215551 -0.193746 0.917 255 255 255
-0.193598 0.0489105 0.624 255 255 255
0.0397348 -0.193211 1.043 255 255 255
0.340418 -0.179909 0.785 255 255 255
0.225614 0.0863193 1.201 255 255 255
0.466075 0.345171 1.232 255 255 255
0.0513881 0.137435 0.639 255 255 255
-0.047002 0.272413 0.789 255 255 255
0.209974 -0.189332 0.932 255 255 255
0.403568 0.160719 1.027 255 255 255
0.0109533 0.169499 1.528 255 255 255
0.129108 -0.0933873 1.066 0 0 0
0.332321 0.316947 1.297 255 255 255
0.212917 -0.174231 0.966 255 255 255
-0.302177 -0.2639 1.4 255 255 255
-0.0347379 -0.162744 1.089 255 255 255
0.233966 0.246932 1.39 255 255 255
0.452175 0.333673 1.249 255 255 255
-0.292095 0.0907407 0.605 255 255 255
0.0699223 -0.212381 1.013 255 255 255
0.469227 0.258319 1.01 255 255 255
-0.635038 -0.289538 1.563 255 255 255
-0.0368239 0.141358 0.694 255 255 255
0.26913 -0.23875 0.825 255 255 255
0.438863 0.153311 0.863 255 255 255
0.247926 -0.290562 0.835 255 255 255
0.184735 -0.255226 0.877 255 255 255
0.0601752 0.164493 0.612 255 255 255
-0.114653 0.301653 0.795 255 255 255
0.114267 0.130111 0.619 255 255 255
0.151393 0.229477 1.422 255 255 255
-0.0973977 0.267469 0.813 255 255 255
0.370387 -0.0519245 0.916 255 255 255
-0.367799 -0.0404995 1.799 255 255 255
0.167619 0.0479781 1.22 255 255 255
0.166439 -0.291007 0.886 255 255 255
0.0971476 0.0674991 1.375 255 255 255
-0.0994555 0.142111 1.583 255 255 255
-0.27403 -0.0836446 0.542 255 255 255
-0.316774 0.13154 0.607 255 255 255
0.359073 -0.0841635 0.91 255 255 255
-0.136234 0.176924 0.724 255 255 255
-0.205401 -0.0275902 0.588 255 255 255
0.569091 0.442223 1.141 255 255 255
0.295881 -0.254181 0.81 255 255 255
-0.000641588 0.186269 0.661 255 255 255
0.0411789 0.145393 0.642 255 255 255
-0.234161 0.0298469 0.608 255 255 255
-0.185081 -0.299227 1.165 255 255 255
-0.126735 0.299269 0.806 255 255 255
-0.19804 0.0457171 0.622 255 255 255
-0.250789 -0.0847477 0.555 255 255 255
0.328296 0.0191801 0.832 255 255 255
-0.275089 0.0395128 1.714 255 255 255
-0.34614 -0.360371 1.412 255 255 255
0.00562957 0.178268 0.64 255 255 255
0.39685 0.269888 1.294 255 255 255
0.219069 -0.301349 0.866 255 255 255
-0.127182 -0.253625 1.139 255 255 255
0.470176 0.34976 1.227 255 255 255
0.553006 0.338003 1.098 255 255 255
0.155979 0.188122 0.569 255 255 255
-0.0308489 -0.174972 1.077 255 255 255
-0.0674418 -0.17724 1.102 255 255 255
0.103166 0.129338 0.625 255 255 255
0.215477 0.00535331 1.039 255 255 255
-0.475581 -0.205111 1.435 255 255 255
-0.20871 -0.0476487 0.576 255 255 255
0.225596 -0.299247 0.864 255 255 255
-0.000949278 -0.343506 0.978 255 255 255
0.382647 0.105826 0.954 255 255 255
0.266217 0.22933 1.393 255 255 255
0.324164 0.043476 0.916 255 255 255
0.348604 -0.185723 0.772 255 255 255
-0.275719 0.164326 0.655 255 255 255
-0.233313 0.065471 0.627 255 255 255
-0.287969 0.0273861 0.577 0 0 0
0.0636903 -0.299621 0.945 255 255 255
0.102885 -0.335065 0.924 255 255 255
0.057907 0.119141 1.52 255 255 255
0.419713 0.243385 1.149 255 255 255
0.350806 0.0450128 0.834 255 255 255
-0.258852 -0.00735574 0.577 255 255 255
0.143523 -0.282627 0.896 255 255 255
0.11987 0.181691 0.578 255 255 255
0.0239208 -0.325761 0.954 255 255 255
-0.372884 -0.190579 1.677 255 255 255
0.118055 -0.283051 0.902 255 255 255
0.301091 0.0307495 0.937 255 255 255
-0.197878 0.0041085 0.606 255 255 255
0.282736 0.184686 1.302 255 255 255
-0.472221 -0.189291 1.439 255 255 255
-0.187208 -0.0344632 0.591 255 255 255
-0.213268 0.0808025 1.646 255 255 255
0.218599 0.238398 1.393 255 255 255
-0.0605419 -0.0981009 1.141 255 255 255
0.212949 0.146114 1.357 255 255 255
0.422209 0.179378 0.925 255 255 255
0.0445704 -0.197162 1.037 255 255 255
-0.306988 0.0578313 0.581 255 255 255
-0.294454 -0.00803594 0.559 255 255 255
0.337116 0.0765691 0.957 255 255 255
-0.0725064 -0.0142878 1.505 255 255 255
0.389438 0.46196 1.182 255 255 255
-0.185801 -0.271701 1.194 255 255 255
-0.312828 0.101428 1.677 255 255 255
-0.185418 -0.243267 1.217 0 0 0
0.10715 -0.111358 1.072 255 255 255
-0.299659 0.0404614 0.576 255 255 255
0.24986 -0.151407 0.951 255 255 255
-0.0193708 0.294478 0.763 255 255 255
-0.267675 -0.0318576 0.562 0 0 0
-1.13259 -0.452127 2.338 255 255 255
0.110552 -0.26382 0.938 255 255 255
-0.158016 0.0392528 0.632 255 255 255
-0.0156209 -0.334959 1 255 255 255
0.0275366 -0.273382 0.972 255 255 255
0.340129 -0.052548 0.927 255 255 255
0.109467 0.161316 0.593 255 255 255
0.357895 -0.232591 0.765 255 255 255
0.425296 0.250078 1.154 255 255 255
-0.314556 0.183859 0.645 255 255 255
0.533293 0.4217 1.156 255 255 255
0.41174 0.141976 0.871 255 255 255
-0.158531 -0.230977 1.165 255 255 255
-0.474586 -0.283914 1.432 255 255 255
-0.238012 0.0524629 0.618 255 255 255
0.0259544 -0.274964 0.972 255 255 255
0.19066 -0.198858 0.934 255 255 255
-0.0850985 0.288917 0.785 255 255 255
-0.271079 -0.051238 0.554 255 255 255
-0.241969 0.113335 0.656 255 255 255
0.229951 -0.14502 0.992 255 255 255
0.0656389 0.210999 0.581 255 255 255
-0.410314 -0.247372 1.62 255 255 255
0.257132 -0.256284 0.834 255 255 255
-0.219873 0.423792 1.384 255 255 255
0.369165 -0.23107 0.76 255 255 255
0.10615 -0.0671135 1.062 255 255 255
-0.368623 0.051261 1.734 255 255 255
-0.122714 0.198294 1.52 255 255 255
-0.506314 -0.518814 1.484 0 0 0
0.501962 0.299591 1.051 255 255 255
-0.0850703 -0.239135 1.098 255 255 255
0.0093295 0.120047 0.682 255 255 255
0.376796 -0.222815 0.753 255 255 255
-0.316146 0.519011 1.362 255 255 255
0.0312352 0.126292 1.547 255 255 255
-0.17047 0.0467352 1.673 255 255 255
-0.277501 0.123196 0.63 255 255 255
-0.198252 0.0812821 0.639 255 255 255
-0.533409 -0.438846 1.459 255 255 255
0.245097 0.0582075 1.112 255 255 255
-0.327868 -0.431598 1.27 255 255 255
0.0848364 -0.303488 0.924 255 255 255
0.088 0.126873 0.633 255 255 255
-0.0291589 -0.278037 1.018 255 255 255
-0.243062 -0.0652287 0.558 255 255 255
-0.185347 0.170081 0.696 255 255 255
0.308717 -0.112582 0.937 255 255 255
-0.246642 -0.0251961 0.577 255 255 255
-0.249373 0.279426 0.724 255 255 255
0.284006 -0.172306 0.862 255 255 255
-0.0670995 -0.246505 1.068 255 255 255
-0.496397 -0.182112 1.935 255 255 255
0.455304 0.27093 1.046 255 255 255
-0.347501 -0.401514 1.372 255 255 255
-0.354322 -0.332136 1.39 255 255 255
-0.366855 0.0315994 1.739 255 255 255
0.265914 -0.216085 0.836 255 255 255
0.362254 -0.00637954 0.811 255 255 255
0.0492788 -0.27427 0.964 255 255 255
0.377914 -0.0544862 0.909 255 255 255
0.0104856 0.117231 0.685 255 255 255
0.0510225 -0.157572 1.066 255 255 255
-0.0352952 -0.355905 1.004 255 255 255
-0.142264 -0.24293 1.141 255 255 255
0.323456 -0.152326 0.837 255 255 255
0.313919 0.00976083 0.837 255 255 255
0.386965 -0.0764345 0.889 255 255 255
-0.00672395 0.0755135 1.591 255 255 255
0.271896 -0.115261 0.986 255 255 255
-0.696663 -0.352366 1.655 255 255 255
0.377018 0.0805656 0.914 255 255 255
0.310987 0.0268426 0.908 255 255 255
-0.274368 0.07105 0.605 255 255 255
-0.0397929 -0.250921 1.036 255 255 255
0.387358 -0.0539467 0.9 255 255 255
-0.329793 0.23283 0.644 255 255 255
-0.275693 -0.417275 1.222 255 255 255
0.0321172 -0.276697 0.967 255 255 255
-0.0529756 -0.289695 1.03 255 255 255
0.217598 0.205465 1.416 255 255 255
-0.0988743 0.293151 0.793 255 255 255
0.244599 0.0585216 1.118 255 255 255
-0.262376 -0.449019 1.18 255 255 255
-0.324298 0.515656 1.359 255 255 255
0.314185 -0.118613 0.913 255 255 255
-0.496397 -0.172665 1.935 255 255 255
-0.256744 0.225735 0.693 255 255 255
0.319198 -0.158376 0.833 255 255 255
-0.212951 -0.417819 1.122 255 255 255
-0.309714 0.240737 0.657 255 255 255
-1.1899 -0.622164 2.392 255 255 255
0.297656 0.151625 1.192 255 255 255
-0.315532 0.212857 0.647 255 255 255
0.516256 0.425046 1.16 255 255 255
0.348918 -0.26516 0.784 255 255 255
-0.286435 -0.421372 1.234 255 255 255
0.391473 0.214213 1.143 255 255 255
-0.291161 0.2565 0.676 255 255 255
-0.396586 -0.433694 1.327 255 255 255
-0.71814 -0.414863 1.595 255 255 255
-0.28959 0.0258649 1.734 255 255 255
0.0276783 -0.260479 0.977 255 255 255
0.137968 0.18262 0.575 255 255 255
0.238979 -0.0297264 0.921 255 255 255
-0.187358 0.273535 0.796 255 255 255
-0.0907844 0.285614 0.79 255 255 255
-0.203634 -0.129347 1.351 255 255 255
-0.764007 -0.532469 1.516 255 255 255
0.363258 -0.0158307 0.758 255 255 255
-0.232087 0.0834771 0.632 255 255 255
0.351358 -0.116196 0.862 255 255 255
-0.194034 -0.242649 1.234 255 255 255
-0.914368 -0.380025 2.107 255 255 255
0.237105 -0.245825 0.84 255 255 255
-0.527752 -0.149689 1.923 255 255 255
-0.187718 0.149339 0.684 255 255 255
-0.285298 0.0703454 0.599 255 255 255
0.22004 -0.152937 0.991 255 255 255
0.1028 -0.218758 1.012 255 255 255
-0.516947 -0.483807 1.473 255 255 255
0.356219 -0.108404 0.867 255 255 255
0.293007 -0.21014 0.813 255 255 255
-0.185222 0.088754 0.648 255 255 255
-0.333073 -0.232878 1.509 255 255 255
0.275091 0.0174078 0.958 255 255 255
0.041921 0.161108 0.622 255 255 255
0.131528 -0.344825 0.914 255 255 255
0.150284 0.195074 0.565 255 255 255
-0.130503 0.10909 0.676 255 255 255
-0.586848 -0.587291 1.591 0 0 0
-0.428863 -0.41061 1.435 255 255 255
-0.173007 -0.414391 1.089 255 255 255
0.498454 0.342953 1.12 255 255 255
0.220988 -0.220119 0.868 255 255 255
0.451097 0.391523 1.208 255 255 255
-0.384915 -0.420184 1.339 255 255 255
0.342843 0.150497 1.112 255 255 255
0.295881 -0.281862 0.81 255 255 255
0.12582 -0.0665448 1.053 255 255 255
0.173374 -0.246527 0.892 255 255 255
0.267625 -0.146865 0.932 255 255 255
-0.166515 0.30929 1.449 255 255 255
-0.0172852 0.267109 0.781 255 255 255
0.539421 0.360534 1.118 255 255 255
-0.246716 -0.0722333 0.556 255 255 255
-0.100811 0.139404 0.707 255 255 255
0.375143 0.131631 1.009 255 255 255
-0.0813423 -0.0900211 1.262 255 255 255
0.0803115 0.190281 1.477 255 255 255
0.0946558 -0.36498 0.947 255 255 255
0.342063 0.0311393 0.826 255 255 255
0.48201 0.2449 0.989 255 255 255
-0.0524144 -0.102308 1.126 255 255 255
0.13736 0.14632 1.47 255 255 255
-0.181567 0.14866 0.686 255 255 255
-0.216086 0.235734 0.731 255 255 255
-0.0116044 0.154383 1.551 255 255 255
0.339138 0.0691637 0.941 255 255 255
0.190473 -0.108138 1.041 255 255 255
0.138817 0.190229 0.567 255 255 255
0.157554 0.197034 0.568 255 255 255
0.302429 -0.27699 0.796 255 255 255
-0.397666 -0.383962 1.449 255 255 255
-0.183237 0.0994574 0.656 255 255 255
-0.138988 0.30784 0.801 255 255 255
0.151132 -0.114267 1.1 255 255 255
-0.0038344 0.164326 0.655 255 255 255
-0.34322 -0.00239229 1.763 255 255 255
-0.270555 0.175786 0.658 255 255 255
-0.48017 -0.49244 1.456 255 255 255
0.130026 0.188512 0.573 255 255 255
0.265619 -0.189437 0.857 255 255 255
-0.214147 0.0912083 0.643 255 255 255
0.151744 0.180434 0.574 255 255 255
-0.0146244 -0.0461766 1.362 255 255 255
0.172838 -0.0593048 1.017 255 255 255
0.377996 -0.139421 0.773 255 255 255
0.329404 -0.0279835 0.867 255 255 255
-0.265277 0.076475 0.609 255 255 255
-0.0150985 -0.150715 1.079 255 255 255
0.38582 0.0759671 0.789 255 255 255
0.228057 -0.0684178 1.005 0 0 0
-0.480326 -0.183646 1.616 255 255 255
0.450979 0.325583 1.257 255 255 255
-0.519882 -0.312014 1.422 255 255 255
0.354167 0.370005 1.262 255 255 255
0.200852 0.00546151 1.06 255 255 255
0.00483867 0.135291 0.675 255 255 255
0.388466 -0.0484089 0.906 255 255 255
-0.245133 -0.0391487 1.739 255 255 255
0.381165 -0.119346 0.79 255 255 255
-0.168556 0.141298 1.603 255 255 255
0.420731 0.128539 0.83 255 255 255
0.0222983 0.157438 0.64 255 255 255
0.325791 -0.149423 0.836 255 255 255
0.235512 -0.0194438 0.931 255 255 255
-0.543704 -0.531648 1.535 255 255 255
-0.264797 0.0201844 0.586 255 255 255
-0.00525974 0.106583 0.703 255 255 255
0.0726636 0.187056 0.592 255 255 255
0.281279 -0.0555651 0.927 255 255 255
-0.106351 0.0460927 1.65 255 255 255
-0.265319 0.0476291 1.705 255 255 255
0.502185 0.314275 1.066 255 255 255
0.203181 -0.318033 0.889 255 255 255
0.0256074 0.262435 0.771 255 255 255
0.280752 0.0711443 1.062 255 255 255
-0.169777 0.146854 0.688 255 255 255
0.494324 0.3873 1.189 255 255 255
-0.596436 -0.516396 1.498 255 255 255
-0.302307 0.203695 0.648 255 255 255
0.260639 0.0407813 1.037 255 255 255
-0.234241 -0.347924 1.313 255 255 255
0.209202 -0.235113 0.866 255 255 255
-0.565162 -0.533034 1.539 255 255 255
-0.273218 -0.0255463 0.564 255 255 255
0.319386 -0.163171 0.823 255 255 255
0.193829 -0.131286 1.05 255 255 255
-0.0409313 -0.0275191 1.429 255 255 255
-0.0947621 0.293699 0.791 255 255 255
0.26097 -0.206674 0.842 255 255 255
0.293968 -0.257452 0.812 255 255 255
-0.185726 0.160522 0.689 255 255 255
0.238803 0.125343 1.239 255 255 255
-0.144558 0.117482 0.68 255 255 255
-1.018 -0.400442 2.261 255 255 255
-0.0528213 -0.340661 1.027 255 255 255
0.170724 -0.32819 0.901 255 255 255
-0.47438 -0.0411073 1.826 255 255 255
0.121773 0.203349 0.565 255 255 255
0.438933 0.276331 1.229 255 255 255
0.186162 -0.256653 0.877 255 255 255
0.0537195 0.133901 0.642 255 255 255
-0.301956 0.117108 0.609 255 255 255
-0.180893 -0.0135524 0.602 255 255 255
0.395456 0.109366 0.828 255 255 255
-0.00922013 0.115763 1.575 255 255 255
0.0232671 0.157984 0.638 255 255 255
-0.574538 -0.527838 1.524 255 255 255
0.373147 -0.276345 0.776 255 255 255
-0.263977 0.176043 0.663 255 255 255
-0.334704 0.0864735 1.705 255 255 255
-0.269409 0.127179 0.645 255 255 255
-0.301252 0.199477 0.648 255 255 255
0.273836 -0.295761 0.823 255 255 255
-0.180404 0.229033 0.756 255 255 255
0.393655 0.130737 0.901 255 255 255
-0.21997 0.194026 0.709 255 255 255
-0.194219 0.018033 0.61 255 255 255
0.0113309 -0.102303 1.087 255 255 255
0.0679901 -0.075612 1.06 0 0 0
-0.320489 0.188093 0.638 255 255 255
-0.736516 -0.344596 1.71 255 255 255
-0.385789 -0.00818098 1.774 255 255 255
-0.303112 0.192221 0.652 255 255 255
0.026814 0.110027 0.675 255 255 255
0.300925 0.16614 1.213 255 255 255
0.301742 0.252113 1.369 255 255 255
0.372411 -0.118852 0.813 255 255 255
-0.293019 -0.0134699 0.558 255 255 255
-0.157123 -0.259641 1.141 255 255 255
0.135345 -0.223734 0.93 255 255 255
-0.659153 -0.466445 1.502 255 255 255
-0.226843 -0.00559172 0.589 255 255 255
0.336432 -0.0855901 0.942 255 255 255
-0.23675 0.0207355 0.602 255 255 255
-0.408615 -0.145174 1.865 255 255 255
0.416631 0.398395 1.205 255 255 255
-0.13053 -0.214765 1.12 255 255 255
0.346126 -0.123745 0.856 255 255 255
-0.166844 0.0518995 1.664 255 255 255
-0.805014 -0.537631 1.567 255 255 255
-0.110769 -0.368854 1.07 255 255 255
-0.277381 -0.0191555 0.565 255 255 255
-0.468511 -0.182646 1.442 255 255 255
-0.359014 -0.043427 1.799 255 255 255
-0.328117 -0.391204 1.375 255 255 255
-0.285237 -0.0472879 0.55 255 255 255
-0.0187821 -0.349476 0.995 255 255 255
-0.0739384 0.254161 0.817 255 255 255
0.316476 0.0868445 1.043 255 255 255
-0.242313 -0.0638749 1.719 255 255 255
-0.145275 0.147005 0.694 255 255 255
0.227211 -0.186586 0.904 255 255 255
0.121643 0.212777 0.556 255 255 255
-0.285633 -0.0315175 0.556 255 255 255
-0.152136 0.161358 1.595 255 255 255
0.147285 -0.0311111 1.072 255 255 255
0.301317 -0.199801 0.814 255 255 255
-0.157794 0.0245003 0.623 255 255 255
0.201124 -0.231754 0.88 255 255 255
0.127253 0.163227 0.586 255 255 255
-0.0591361 -0.014022 1.477 255 255 255
0.374625 0.0853683 0.934 255 255 255
-0.266378 -0.434423 1.198 255 255 255
-0.306377 0.148961 0.622 255 255 255
0.356548 0.01473 0.744 255 255 255
-1.27 -0.470167 2.411 255 255 255
0.326441 0.0532782 0.931 255 255 255
-0.136926 0.212154 1.513 255 255 255
-0.141705 0.0461424 0.642 255 255 255
-0.308837 0.106493 0.605 255 255 255
-0.0108448 -0.267634 1.01 255 255 255
-0.23947 0.0431308 0.614 255 255 255
0.356767 -0.0396423 0.72 255 255 255
-0.216758 -0.351614 1.215 255 255 255
-0.432579 -0.448789 1.387 255 255 255
0.350713 0.159832 1.114 255 255 255
0.00690069 0.145613 0.662 255 255 255
0.228907 -0.164304 0.954 255 255 255
0.361218 -0.15524 0.783 255 255 255
0.561859 0.419146 1.149 255 255 255
0.115618 0.0609613 1.33 255 255 255
-0.292095 0.0917252 0.605 255 255 255
-0.181681 -0.364437 1.132 255 255 255
-0.21597 0.0657842 0.63 255 255 255
0.309106 0.0286945 0.92 255 255 255
-0.0139511 -0.340444 0.997 255 255 255
0.00897483 -0.0628214 1.252 255 255 255
0.373848 -0.177241 0.752 255 255 255
-0.239129 0.138099 0.657 255 255 255
0.00072289 -0.108896 1.1 255 255 255
-0.728156 -0.567057 1.459 255 255 255
0.28499 -0.0269097 0.878 255 255 255
0.22215 -0.0487719 0.972 255 255 255
0.119818 0.0491971 1.305 255 255 255
0.296958 -0.172624 0.843 255 255 255
0.222611 -0.320541 0.88 255 255 255
0.0608 -0.176548 1.055 255 255 255
-0.733732 -0.347379 1.71 255 255 255
-0.0890216 -0.145534 1.149 255 255 255
0.225619 -0.330111 0.875 255 255 255
-0.150816 -0.180379 1.194 0 0 0
-0.323343 0.241346 0.65 255 255 255
-0.398672 -0.408341 1.419 255 255 255
0.0037953 0.123919 0.685 255 255 255
0.120526 0.147598 0.6 255 255 255
0.348401 -0.0489966 0.917 255 255 255
-0.239689 0.0207355 0.602 255 255 255
-0.247162 0.11653 0.65 255 255 255
0.276809 0.249286 1.378 255 255 255
-0.21488 -0.0357095 0.58 255 255 255
0.350698 -0.298571 0.788 255 255 255
0.148728 -0.247059 0.91 255 255 255
-0.200587 0.0668095 0.63 255 255 255
0.19538 -0.277191 0.861 255 255 255
0.09055 0.161805 0.602 255 255 255
0.357192 0.438845 1.203 255 255 255
0.130704 0.155526 0.593 255 255 255
-0.770971 -0.541294 1.52 255 255 255
-0.238531 0.0811625 0.63 255 255 255
-0.340738 0.522573 1.354 255 255 255
0.238004 -0.122554 1.034 255 255 255
0.105313 0.17467 0.586 255 255 255
0.241755 0.142383 1.265 255 255 255
-0.398947 -0.312698 1.48 255 255 255
-0.234658 -0.0585876 0.564 255 255 255
0.0793841 0.147355 1.505 255 255 255
0.287793 0.0454231 0.991 255 255 255
-0.0107053 -0.32422 0.997 255 255 255
0.278856 -0.294064 0.822 255 255 255
0.133515 0.194261 0.568 255 255 255
-0.467537 -0.203341 1.439 255 255 255
-0.285809 0.0651436 0.596 255 255 255
0.478206 0.342369 1.222 255 255 255
0.253156 0.218466 1.396 255 255 255
0.0701101 -0.0673663 1.066 255 255 255
0.332192 -0.0220564 0.856 255 255 255
-0.30547 0.163956 0.637 255 255 255
0.263568 -0.106812 0.997 255 255 255
0.220982 -0.0576137 0.988 255 255 255
0.240228 -0.215683 0.856 255 255 255
0.339572 -0.178859 0.786 255 255 255
-0.496943 -0.347566 1.416 255 255 255
-0.214558 0.0842696 0.638 255 255 255
0.0105491 -0.228639 1.012 255 255 255
0.0224382 -0.339244 0.957 255 255 255
0.199349 -0.202921 0.918 255 255 255
0.401765 0.380923 1.244 255 255 255
-0.182624 0.231187 0.755 255 255 255
0.251438 0.0320318 1.027 255 255 255
0.0753878 0.201684 0.576 255 255 255
-0.256421 -0.000787027 0.58 255 255 255
0.258786 -0.141365 0.967 255 255 255
-0.20284 0.0949343 0.647 255 255 255
0.161249 -0.00510965 1.108 255 255 255
-0.296589 0.203453 0.654 255 255 255
0.0435997 0.0855677 1.539 255 255 255
-0.257501 0.213408 0.686 255 255 255
0.322528 -0.256556 0.785 255 255 255
0.37679 0.156517 1.055 255 255 255
-0.193956 0.24958 1.516 255 255 255
0.372185 -0.150937 0.774 255 255 255
0.362609 0.216566 1.208 255 255 255
-0.0725858 -0.247429 1.072 255 255 255
-0.271205 -0.256291 1.348 255 255 255
0.300833 0.00162065 0.854 255 255 255
-0.247002 0.0156794 0.596 255 255 255
0.309942 -0.168611 0.83 255 255 255
0.179195 -0.011955 1.075 255 255 255
-0.106639 -0.258046 1.118 255 255 255
-0.242595 -0.0123221 0.59 255 255 255
-0.30405 -0.425135 1.257 255 255 255
-0.595903 -0.350748 1.509 255 255 255
-0.0272258 0.162852 0.68 255 255 255
-0.266382 0.0673337 0.607 255 255 255
-0.503611 -0.391928 1.435 255 255 255
-0.201491 0.00114812 0.605 255 255 255
0.204209 -0.0378934 0.977 255 255 255
-0.200887 0.169984 0.691 255 255 255
0.28499 -0.155501 0.878 255 255 255
-0.210528 0.0447768 0.623 255 255 255
-0.325899 0.254149 0.653 255 255 255
0.0474559 0.1663 0.615 255 255 255
0.360822 -0.0153086 0.733 255 255 255
-0.318129 0.222677 0.648 255 255 255
-0.303614 0.0770999 0.591 255 255 255
0.0249867 0.17418 0.629 255 255 255
-0.250336 -0.0849004 0.556 255 255 255
0.36537 0.0543456 0.792 255 255 255
-0.178771 0.27105 0.804 0 0 0
0.367144 0.0626319 0.816 255 255 255
0.391879 0.127978 0.981 255 255 255
-0.120243 0.0967024 0.674 255 255 255
-0.809657 -0.46894 1.677 255 255 255
-0.26965 0.00674045 0.578 255 255 255
0.39565 0.207709 1.118 255 255 255
0.415796 0.347415 1.262 255 255 255
-0.560023 -0.101787 1.905 255 255 255
-0.116591 0.150818 0.712 255 255 255
0.395064 0.294863 1.302 255 255 255
0.386276 0.0722829 0.777 255 255 255
0.335678 0.102424 1.029 255 255 255
-0.286221 0.0806279 0.603 255 255 255
-0.268992 0.130126 0.644 255 255 255
0.351589 0.236877 1.275 255 255 255
0.356144 -0.00356016 0.772 255 255 255
0.0977987 0.202366 0.57 255 255 255
-0.122169 0.0566953 1.646 255 255 255
-0.225149 0.195713 1.579 255 255 255
-0.207347 0.375616 1.406 255 255 255
0.207195 -0.0690986 1.015 255 255 255
0.00784547 0.0142087 1.416 255 255 255
-0.257538 0.0920173 1.655 255 255 255
-0.356166 0.520369 1.354 255 255 255
0.589745 0.389719 1.156 255 255 255
0.105708 0.131754 0.622 255 255 255
0.433571 0.158291 0.875 255 255 255
0.139087 0.140862 1.463 255 255 255
0.344843 0.0369581 0.836 255 255 255
0.294263 0.313356 1.345 255 255 255
0.00419422 0.289698 0.757 255 255 255
0.426358 0.201141 1.046 255 255 255
0.127641 -0.179472 1.083 255 255 255
0.141106 -0.181417 1.015 255 255 255
0.270145 -0.238461 0.824 255 255 255
-0.240947 0.134555 1.616 255 255 255
0.227812 0.0475203 1.116 255 255 255
0.327292 0.0397874 0.9 255 255 255
-0.0267527 0.0281832 1.551 255 255 255
0.312191 -0.100969 0.957 255 255 255
-0.251971 -0.389115 1.273 255 255 255
-0.228939 -0.0419517 0.575 255 255 255
-0.604759 -0.115626 1.929 255 255 255
0.356912 -0.120351 0.842 255 255 255
-0.309779 0.104179 0.603 255 255 255
-0.505692 -0.0697087 1.876 255 255 255
-0.167714 0.161358 1.595 255 255 255
0.205499 0.109879 1.27 255 255 255
-0.0221192 -0.0157472 1.416 255 255 255
-0.215347 0.00113294 0.597 255 255 255
0.175351 -0.146079 1.022 255 255 255
0.116552 -0.203289 1.017 255 255 255
0.242606 0.0168415 1.018 255 255 255
0.140415 0.191735 0.566 255 255 255
0.16779 -0.329657 0.901 255 255 255
0.357192 0.440802 1.203 255 255 255
0.0509491 -0.310807 0.937 255 255 255
-0.192628 0.00311718 0.605 255 255 255
-0.241925 0.110692 0.653 255 255 255
0.091541 -0.287606 0.931 255 255 255
0.350043 -0.0966342 0.902 255 255 255
0.0800428 -0.149511 1.083 255 255 255
-0.24727 0.0216069 0.599 255 255 255
-0.394581 -0.0864306 1.842 255 255 255
0.0786176 0.147524 0.616 255 255 255
-0.338523 -0.355019 1.409 255 255 255
-0.0423741 -0.350584 1.017 255 255 255
-0.244225 0.16834 0.671 255 255 255
0.11501 -0.246765 0.937 255 255 255
-0.248087 -0.451669 1.167 255 255 255
0.37646 -0.0197657 0.878 255 255 255
-0.193329 0.123548 0.665 255 255 255
0.33547 0.0015808 0.833 255 255 255
0.34232 -0.205824 0.772 255 255 255
0.0733955 -0.141478 1.089 255 255 255
0.162891 -0.108386 1.06 255 255 255
-0.422176 -0.318087 1.494 255 255 255
-0.450601 -0.0500218 1.826 255 255 255
0.167046 -0.24207 0.897 255 255 255
-0.283746 0.0807617 0.604 255 255 255
-0.368436 -0.272889 1.513 255 255 255
-0.117187 -0.237329 1.132 255 255 255
0.0375708 0.196745 0.601 255 255 255
0.0448766 0.17836 1.498 255 255 255
-0.11931 0.199409 0.751 0 0 0
0.217186 0.257128 1.384 255 255 255
0.322882 -0.0748056 0.961 255 255 255
0.277518 -0.287376 0.822 255 255 255
-0.392571 -0.402262 1.422 255 255 255
-0.0825346 0.26121 0.81 255 255 255
-0.00849494 0.193595 0.687 255 255 255
0.0362865 -0.240991 0.995 255 255 255
-0.426034 -0.260342 1.571 255 255 255
0.250949 -0.193503 0.869 255 255 255
-0.581668 -0.58988 1.591 255 255 255
0.321326 -0.157425 0.828 255 255 255
-0.283619 -0.117698 1.65 255 255 255
-0.216362 -0.0591069 0.569 255 255 255
0.033761 -0.272539 0.969 255 255 255
0.40654 0.131786 0.86 255 255 255
-0.0840601 0.257891 0.812 255 255 255
-0.24916 0.435053 1.384 255 255 255
0.348025 0.0447329 0.882 255 255 255
-0.00106187 -0.120764 1.094 255 255 255
0.355815 0.0195992 0.745 255 255 255
0.213311 -0.319479 0.889 255 255 255
-0.272825 -0.0192233 0.567 255 255 255
0.40183 0.328141 1.283 255 255 255
-0.118609 -0.275039 1.128 255 255 255
0.0948749 0.133193 0.624 255 255 255
-0.734069 -0.431258 1.579 255 255 255
0.359158 -0.209058 0.752 255 255 255
-0.280374 -0.0509605 0.551 255 255 255
-0.267331 -0.0642935 0.55 255 255 255
-0.376427 0.0316902 1.744 255 255 255
-0.232328 0.121913 0.662 255 255 255
-0.251928 0.187196 0.68 255 255 255
-0.425658 -0.390556 1.456 255 255 255
0.448713 0.195482 0.93 255 255 255
0.191628 -0.019816 1.029 255 255 255
0.300963 -0.126732 0.918 255 255 255
-0.292763 -0.0394639 1.753 255 255 255
0.0380504 0.0444452 1.425 255 255 255
-0.755352 -0.549054 1.494 255 255 255
0.363628 0.458109 1.192 255 255 255
0.300122 -0.134798 0.902 255 255 255
0.234402 -0.102043 1.048 255 255 255
-0.199351 0.11907 1.62 255 255 255
0.0450844 -0.0249193 1.294 255 255 255
0.3421 0.0269699 0.783 255 255 255
-0.12634 0.0721389 0.66 255 255 255
0.401467 0.149099 1.005 255 255 255
-0.257485 0.24109 0.695 255 255 255
-0.279984 -0.0501547 0.552 255 255 255
0.354602 0.0195992 0.745 255 255 255
0.0840873 0.0742774 1.419 255 255 255
-0.0838207 0.297859 0.785 255 255 255
0.0809326 -0.333058 0.931 255 255 255
0.178413 0.226204 1.416 255 255 255
0.385938 0.230574 1.189 255 255 255
0.220722 -0.178529 0.939 255 255 255
0.240215 -0.208337 0.866 255 255 255
0.250005 -0.0353724 0.912 255 255 255
-0.278985 -0.0307779 0.559 255 255 255
-0.210246 -0.408603 1.137 255 255 255
0.327626 -0.166565 0.807 255 255 255
-0.509718 -0.479122 1.466 255 255 255
0.210797 -0.247767 0.861 255 255 255
-0.128937 -0.295486 1.122 255 255 255
-0.667052 -0.449773 1.52 255 255 255
0.265407 -0.0286935 0.889 255 255 255
0.362724 -0.116668 0.711 255 255 255
0.350194 -0.262608 0.784 255 255 255
-0.168528 0.0359957 0.629 255 255 255
0.409803 0.255882 1.208 255 255 255
-0.156847 -0.277721 1.139 255 255 255
0.194429 -0.272217 0.863 255 255 255
-0.304416 0.196314 0.648 255 255 255
0.00222557 -0.369046 0.974 255 255 255
0.383484 0.0901378 0.891 255 255 255
-0.218699 0.0615855 0.629 255 255 255
-0.175561 -0.14524 1.26 255 255 255
0.381686 -0.0727432 0.897 255 255 255
0.293355 -0.0945931 0.988 255 255 255
0.0288655 0.114293 1.555 255 255 255
0.142205 0.174804 0.577 255 255 255
-0.124225 -0.358573 1.081 255 255 255
-0.0651518 -0.347353 1.037 255 255 255
0.213791 -0.325998 0.891 255 255 255
-0.0159017 -0.0687129 1.286 255 255 255
0.044074 -0.00611959 1.327 255 255 255
0.071855 -0.187758 1.041 255 255 255
0.242612 -0.0408291 0.935 255 255 255
0.285199 -0.268321 0.821 255 255 255
0.155018 -0.254638 0.895 255 255 255
0.280267 0.234605 1.384 255 255 255
0.223098 0.020808 1.051 255 255 255
0.00770602 -0.127414 1.075 255 255 255
0.236299 -0.251891 0.842 255 255 255
-0.278808 -0.0799687 0.541 255 255 255
0.424964 0.243974 1.143 255 255 255
-0.431018 -0.0968737 1.87 255 255 255
0.187026 0.0842075 1.257 255 255 255
0.255468 -0.253265 0.833 255 255 255
-0.26397 0.056375 0.606 255 255 255
-0.273586 0.167523 0.655 255 255 255
-0.432833 -0.417024 1.425 255 255 255
-0.514177 -0.399363 1.445 255 255 255
-0.194715 0.092972 0.648 255 255 255
0.169012 -0.215115 0.932 255 255 255
0.115789 -0.251245 0.931 255 255 255
0.347347 -0.188236 0.772 255 255 255
0.354319 0.0360718 0.76 255 255 255
-0.297948 0.140495 1.655 255 255 255
0.300607 -0.251302 0.805 255 255 255
0.0216001 0.0877917 1.579 255 255 255
0.0464986 0.039109 1.4 255 255 255
-0.00254127 -0.356238 0.978 255 255 255
0.284461 -0.0517544 0.913 255 255 255
-0.0640146 -0.292493 1.046 255 255 255
0.195933 -0.0930697 1.043 255 255 255
0.168724 -0.219885 0.914 255 255 255
-1.18052 -0.63364 2.32 255 255 255
0.271456 -0.215365 0.828 255 255 255
-0.220941 0.249721 1.532 255 255 255
-0.207487 0.0191504 0.614 255 255 255
0.0396589 0.193475 0.603 0 0 0
-1.23075 -0.466243 2.411 255 255 255
0.282175 0.124711 1.176 255 255 255
0.114406 -0.318919 0.908 255 255 255
0.244114 -0.142249 0.984 255 255 255
-0.227847 0.02881 0.607 255 255 255
0.119958 0.169032 0.583 255 255 255
-0.370997 -0.480222 1.262 255 255 255
0.0963487 0.190157 0.578 255 255 255
0.384635 0.214768 1.156 255 255 255
0.293596 -0.143287 0.9 255 255 255
-0.241678 0.0390066 0.612 255 255 255
0.43748 0.40948 1.203 255 255 255
-0.302172 0.483806 1.369 255 255 255
-0.249378 -0.0556361 0.562 255 255 255
0.0970408 0.199933 0.571 255 255 255
0.138401 -0.208667 0.951 255 255 255
-0.301355 0.132339 0.62 255 255 255
0.262169 -0.0443257 0.913 255 255 255
0.0355553 0.270514 0.769 255 255 255
-0.321074 -0.384991 1.393 255 255 255
-0.102046 -0.100509 1.215 255 255 255
0.0847966 0.171831 0.596 255 255 255
-0.0970159 -0.362565 1.072 255 255 255
-0.0701199 0.25345 0.819 255 255 255
0.102535 0.0127938 1.275 255 255 255
-0.0506855 0.293525 0.767 255 255 255
0.0393188 0.185711 0.613 255 255 255
-0.0791084 0.271681 0.802 255 255 255
0.187591 0.098937 1.289 255 255 255
-0.179514 0.124477 0.67 255 255 255
-0.109821 0.195039 0.753 255 255 255
-0.181885 0.140229 0.683 255 255 255
-0.114786 -0.356583 1.075 255 255 255
0.182015 -0.17142 0.986 255 255 255
0.332019 -0.0487829 0.913 255 255 255
-0.227681 0.0526327 0.62 255 255 255
0.180974 -0.0456119 1.007 255 255 255
0.309308 0.000227935 0.843 255 255 255
0.113311 0.152945 0.598 255 255 255
-0.0885949 0.0768899 1.62 255 255 255
0.0824162 -0.185255 1.046 255 255 255
0.0804746 0.101555 1.48 255 255 255
-0.242828 0.208993 0.705 255 255 255
0.334417 0.246052 1.348 255 255 255
0.0322916 0.0509775 1.48 255 255 255
0.0972454 0.166702 0.595 255 255 255
0.428973 0.219306 1.012 255 255 255
-0.177614 -0.379943 1.118 255 255 255
0.112054 0.0276177 1.289 255 255 255
-0.225386 -0.254861 1.275 255 255 255
0.35638 0.0765753 0.938 255 255 255
-0.191668 0.117781 0.663 255 255 255
-0.261231 0.215955 0.687 255 255 255
0.342992 0.0337867 0.825 255 255 255
-0.268156 0.484968 1.366 255 255 255
-0.201907 0.359853 1.416 255 255 255
0.0943484 0.206472 0.566 255 255 255
0.241494 -0.304967 0.841 255 255 255
0.0784455 0.181275 0.592 255 255 255
0.35041 0.0160478 0.749 255 255 255
-0.211034 0.193144 0.71 255 255 255
-0.204954 -0.0340551 0.584 255 255 255
-0.308827 0.199294 0.644 255 255 255
-0.341543 -0.364967 1.412 255 255 255
0.136967 0.104653 1.393 255 255 255
0.403475 0.338544 1.275 255 255 255
0.468996 0.249002 0.999 255 255 255
-0.216563 0.000160879 0.595 255 255 255
-0.75311 -0.520187 1.509 255 255 255
-0.260921 0.179814 0.669 255 255 255
-0.0292578 -0.160085 1.083 255 255 255
-0.318341 -0.425782 1.265 255 255 255
-1.21672 -0.513416 2.43 255 255 255
-0.126201 0.289248 0.811 255 255 255
-0.505993 -0.33284 1.422 255 255 255
-0.198941 -0.0815915 1.575 255 255 255
0.158339 -0.150789 1.009 255 255 255
-0.292864 0.197801 0.66 255 255 255
-0.304383 0.140411 0.62 255 255 255
0.48499 0.442798 1.162 255 255 255
0.0363767 0.109049 0.669 255 255 255
-0.188199 0.121566 0.666 255 255 255
0.38113 -0.104403 0.835 255 255 255
0.0402168 0.159342 0.627 255 255 255
0.527648 0.425462 1.156 255 255 255
-0.000632852 0.161451 0.652 255 255 255
0.139014 0.0180935 1.213 255 255 255
0.372623 -0.178464 0.752 255 255 255
0.312195 0.320124 1.31 255 255 255
0.0164096 -0.121825 1.072 255 255 255
-0.168556 0.146515 1.603 255 255 255
-0.147703 0.0710459 0.65 255 255 255
0.0817167 -0.0910507 1.059 255 255 255
-0.307278 0.512362 1.362 255 255 255
0.207557 -0.118624 1.059 255 255 255
0.106478 -0.0452624 1.12 255 255 255
-0.181783 0.372532 1.403 255 255 255
-0.46326 -0.0693 1.865 255 255 255
0.0874141 0.0109039 1.297 255 255 255
-0.60294 -0.48742 1.484 255 255 255
-0.165217 0.0413098 0.632 255 255 255
0.143834 0.176376 0.576 255 255 255
0.18362 -0.173024 0.986 255 255 255
0.00613133 0.112625 1.567 255 255 255
0.381293 -0.0471418 0.91 255 255 255
-0.0815402 -0.126836 1.149 255 255 255
-0.262428 -0.199257 1.348 255 255 255
0.114578 -0.0669872 1.06 0 0 0
0.343847 -0.27642 0.787 255 255 255
-0.210776 0.120836 0.662 255 255 255
0.325569 0.0680679 0.969 255 255 255
0.0939844 0.0864281 1.429 255 255 255
0.294417 0.0330665 0.96 255 255 255
-0.248548 0.087591 0.632 255 255 255
-0.186221 0.104202 0.659 255 255 255
0.362274 -0.00775626 0.817 255 255 255
-0.234803 0.262734 0.73 255 255 255
-0.241719 -0.0886788 0.557 0 0 0
0.0545719 0.284018 0.755 255 255 255
-0.179985 0.240792 0.77 255 255 255
-0.137651 -0.201628 1.149 255 255 255
-0.213066 0.256648 0.754 255 255 255
-0.636959 -0.260724 1.543 255 255 255
0.230784 -0.29925 0.852 255 255 255
-0.247456 0.110899 0.648 255 255 255
0.101465 0.194784 0.575 255 255 255
-0.0878069 -0.232717 1.11 255 255 255
-0.180868 -0.417395 1.083 255 255 255
0.279727 0.035747 0.991 255 255 255
0.345969 -0.0471204 0.676 255 255 255
0.277132 -0.193188 0.837 255 255 255
-0.290609 -0.0392326 0.55 255 255 255
-0.338301 0.111741 1.668 255 255 255
-0.17944 0.136421 1.607 255 255 255
-0.253411 -0.0313285 0.569 255 255 255
-0.111669 -0.392019 1.062 255 255 255
0.0209728 0.140651 0.664 255 255 255
-0.761319 -0.40623 1.655 255 255 255
0.0707059 0.128308 0.635 255 255 255
-0.146904 0.30431 0.816 255 255 255
-0.280209 -0.00999634 0.567 255 255 255
0.0665697 0.122981 0.645 255 255 255
0.38113 -0.0161956 0.841 255 255 255
0.293784 0.216588 1.384 255 255 255
0.304399 0.180038 1.227 255 255 255
-0.248086 -0.428359 1.176 255 255 255
-0.387888 -0.120117 1.853 255 255 255
0.38509 -0.0498282 0.905 255 255 255
0.196758 0.0585156 1.192 255 255 255
-0.236793 0.2154 0.711 255 255 255
0.377737 -0.213384 0.75 255 255 255
0.410746 0.404278 1.205 255 255 255
-0.299064 -0.301685 1.345 255 255 255
