ply
format ascii 1.0
comment Created by Open3D
element vertex 1281
property double x
property double y
property double z
property uchar red
property uchar green
property uchar blue
end_header
-0.203249 -0.0248155 0.414 255 255 255
0.0482206 0.085815 0.612 255 255 255
0.103764 0.00367364 0.713 255 255 255
-0.0357627 0.00127906 0.674 255 255 255
0.0527648 -0.00693032 0.73 255 255 255
0.0188881 0.0926102 0.598 255 255 255
0.419869 0.374023 0.961 255 255 255
-0.28197 -0.0317026 0.726 255 255 255
0.0160374 0.0291254 0.684 255 255 255
0.233152 0.15188 0.572 255 255 255
-0.219607 -0.19355 0.62 0 0 0
0.311178 -0.0527496 0.723 255 255 255
0.193868 0.0948551 0.619 255 255 255
-0.269633 -0.0343001 0.731 255 255 255
-0.193354 -0.0125083 0.431 255 255 255
0.336577 -0.0380432 0.712 255 255 255
0.198999 -0.220085 0.705 255 255 255
0.0247086 0.0629245 0.622 255 255 255
-0.227673 -0.0354411 0.73 255 255 255
-0.0607423 -0.160542 0.784 255 255 255
0.319241 0.0166477 0.777 255 255 255
0.204274 0.0960173 0.62 255 255 255
-0.254811 -0.221606 0.603 255 255 255
-0.344127 -0.185123 0.73 255 255 255
0.157971 -0.154554 0.806 255 255 255
0.263854 -0.0333378 0.793 255 255 255
0.0184459 0.117052 0.584 255 255 255
0.26753 -0.00504105 0.808 255 255 255
-0.207147 0.0966609 0.593 0 0 0
-0.139523 -0.0868119 0.775 255 255 255
-0.140593 0.133708 0.566 255 255 255
-0.0257265 0.177419 0.534 255 255 255
0.426535 0.365878 0.948 255 255 255
0.246962 0.177538 0.559 255 255 255
0.0955066 -0.287204 0.758 255 255 255
0.25044 -0.203429 0.662 255 255 255
-0.0101362 -0.205595 0.944 255 255 255
-0.182882 -0.0957076 0.375 255 255 255
0.293166 -0.142862 0.671 255 255 255
0.189247 -0.0735885 0.84 255 255 255
0.201416 -0.25424 0.671 255 255 255
-0.195965 -0.0151361 0.426 255 255 255
0.000448849 -0.0298249 0.683 255 255 255
-0.0321009 0.156116 0.554 255 255 255
0.145135 0.0972869 0.609 255 255 255
-0.188109 0.154533 0.536 255 255 255
0.421662 0.352045 0.944 255 255 255
0.188341 -0.262121 0.683 255 255 255
0.1886 -0.253964 0.688 255 255 255
0.214909 -0.142694 0.757 255 255 255
-0.188982 -0.109171 0.361 255 255 255
-0.200214 -0.0527355 0.396 255 255 255
0.304688 -0.0173119 0.769 255 255 255
-0.203394 -0.0429605 0.401 255 255 255
-0.207864 -0.00125936 0.422 255 255 255
0.184516 -0.106401 0.819 255 255 255
0.263507 0.0206574 0.837 255 255 255
-0.155659 -0.141953 0.78 255 255 255
-0.102646 -0.22035 0.681 255 255 255
-0.241392 0.164733 0.464 255 255 255
-0.0876603 0.00922258 0.694 255 255 255
-0.204149 0.0805712 0.61 255 255 255
-0.0132458 -0.0860282 0.646 255 255 255
-0.226965 0.160147 0.523 255 255 255
-0.169608 0.153333 0.541 255 255 255
0.21554 0.181627 0.544 255 255 255
0.246971 0.151068 0.576 255 255 255
0.168859 -0.265987 0.699 255 255 255
0.320646 -0.0228334 0.745 255 255 255
-0.117538 0.00472545 0.697 255 255 255
-0.0347546 -0.0158114 0.655 255 255 255
0.0946888 0.0451508 0.658 255 255 255
0.119784 0.14596 0.56 255 255 255
0.0277725 -0.00810715 0.729 255 255 255
-0.232829 0.163575 0.465 255 255 255
0.0960304 -0.104097 0.916 255 255 255
-0.00673239 -0.0651319 0.627 255 255 255
-0.0468788 -0.185526 0.766 255 255 255
-0.202415 -0.238081 0.623 255 255 255
-0.0442267 -0.31045 0.888 255 255 255
-0.155204 0.0907407 0.605 255 255 255
0.22345 0.151615 0.571 255 255 255
0.102447 0.190194 0.51 255 255 255
-0.202551 0.053852 0.465 255 255 255
0.159165 0.168611 0.542 255 255 255
-0.166653 0.0730465 0.622 255 255 255
0.360043 0.112772 0.786 255 255 255
-0.342972 -0.222297 0.694 255 255 255
-0.320215 -0.248035 0.684 255 255 255
0.330351 -0.0736006 0.687 255 255 255
0.291674 0.18358 0.581 255 255 255
0.269843 0.141535 0.587 255 255 255
0.223909 -0.137713 0.75 255 255 255
0.112295 0.101235 0.603 255 255 255
-0.201698 -0.176233 0.657 255 255 255
0.290474 -0.230473 0.598 255 255 255
-0.195919 0.0890144 0.6 255 255 255
0.166627 -0.0387331 0.887 255 255 255
-0.0607254 0.0405831 0.671 255 255 255
-0.182768 -0.0735561 0.731 255 255 255
-0.217868 -0.0330199 0.729 255 255 255
0.389522 0.162474 0.824 255 255 255
0.112378 -0.224725 0.799 255 255 255
-0.121627 0.152363 0.547 255 255 255
0.231495 -0.13401 0.743 255 255 255
-0.251455 -0.133327 0.667 255 255 255
-0.0866081 -0.336651 0.908 255 255 255
0.00673391 -0.0586956 0.646 255 255 255
-0.0021593 -0.322977 0.831 255 255 255
0.293988 -0.148712 0.663 255 255 255
0.150327 0.123493 0.583 255 255 255
0.163789 0.14792 0.564 255 255 255
0.188033 -0.172575 0.753 255 255 255
-0.059542 -0.159469 0.785 255 255 255
0.38944 0.155202 0.821 255 255 255
0.230933 -0.12601 0.753 255 255 255
0.0574196 0.00948836 0.714 255 255 255
-0.22549 -0.0209826 0.723 255 255 255
-0.155304 -0.192114 0.725 255 255 255
-0.259147 -0.0982934 0.712 255 255 255
0.182513 -0.248924 0.699 255 255 255
-0.162317 -0.0318773 0.73 255 255 255
-0.017964 0.184746 0.511 255 255 255
-0.152736 0.0200137 0.677 255 255 255
0.184923 -0.25732 0.691 255 255 255
0.204418 -0.241406 0.681 255 255 255
0.122642 -0.128821 0.862 255 255 255
-0.0913415 0.190939 0.512 255 255 255
-0.0483921 -0.0309746 0.638 255 255 255
-0.214017 -0.0587135 0.724 255 255 255
-0.155986 -0.225568 1.013 255 255 255
0.241252 -0.0343468 0.817 255 255 255
0.170145 -0.014135 0.734 255 255 255
-0.264798 -0.174842 0.644 255 255 255
0.260138 0.0738878 0.676 255 255 255
0.164185 -0.0637665 0.874 255 255 255
0.0787327 0.156855 0.541 255 255 255
-0.0649728 -0.0894581 0.648 255 255 255
-0.231184 -0.00672146 0.708 255 255 255
-0.161602 -0.110345 0.772 255 255 255
-0.03199 0.17492 0.537 255 255 255
0.0102654 0.162134 0.553 255 255 255
-0.0299791 0.145424 0.565 255 255 255
0.245968 -0.0329365 0.815 255 255 255
-0.158949 0.1866 0.507 255 255 255
0.0375216 -0.231331 0.873 255 255 255
0.00405014 0.149102 0.565 255 255 255
0.30746 -0.07365 0.709 255 255 255
0.315329 -0.143017 0.647 255 255 255
0.158399 -0.246045 0.724 255 255 255
-0.0199733 0.183768 0.52 255 255 255
0.111183 -0.0849034 0.918 255 255 255
-0.0108409 0.00470511 0.694 255 255 255
-0.0309342 0.128237 0.583 255 255 255
0.317501 -0.0433971 0.724 255 255 255
0.100798 0.134629 0.566 255 255 255
0.186631 -0.258818 0.689 255 255 255
-0.0425969 0.00680329 0.678 255 255 255
0.0951451 0.179537 0.52 255 255 255
0.29287 -0.214186 0.607 255 255 255
0.17178 0.0172022 0.697 255 255 255
0.188519 -0.211292 0.722 255 255 255
-0.188809 0.188402 0.503 255 255 255
-0.195474 0.0924739 0.485 255 255 255
-0.208615 0.020076 0.438 255 255 255
-0.206415 -0.174631 0.655 255 255 255
-0.000633823 -0.0986495 0.653 255 255 255
0.122216 0.0642016 0.645 255 255 255
0.335199 0.0074756 0.745 255 255 255
0.238213 -0.164798 0.709 255 255 255
-0.21005 -0.0317875 0.4 255 255 255
-0.0466637 0.129959 0.578 255 255 255
-0.227938 0.135298 0.55 255 255 255
0.232502 -0.245603 0.651 255 255 255
-0.200994 -0.0519596 0.395 255 255 255
0.00534751 0.194652 0.513 255 255 255
0.0266588 -0.0116981 0.731 255 255 255
-0.129538 -0.21493 0.671 0 0 0
0.337529 0.0412348 0.764 255 255 255
0.0877821 -0.277965 0.777 255 255 255
-0.164624 -0.0589259 0.757 255 255 255
0.0356204 -0.150381 0.935 255 255 255
0.183032 0.0599589 0.656 255 255 255
0.204014 -0.145827 0.767 255 255 255
0.253307 0.0911434 0.65 255 255 255
0.342227 -0.0196964 0.719 255 255 255
-0.226854 0.0591693 0.432 255 255 255
-0.0131815 -0.209759 0.942 255 255 255
0.255317 0.072357 0.672 255 255 255
0.218577 0.153591 0.568 255 255 255
-0.174883 -0.167865 0.743 255 255 255
0.131447 0.0268205 0.682 255 255 255
-0.213176 0.00424453 0.423 255 255 255
0.226295 0.116531 0.606 255 255 255
-0.0422959 0.113638 0.596 255 255 255
-0.104883 -0.224666 0.674 255 255 255
0.00537448 0.0717546 0.611 255 255 255
-0.177674 -0.145093 0.72 255 255 255
-0.217868 -0.0365789 0.729 255 255 255
0.336855 0.101081 0.738 0 0 0
0.231289 0.0417276 0.709 255 255 255
-0.0466446 -0.16416 0.783 255 255 255
-0.28068 -0.0404682 0.735 255 255 255
0.0045591 0.0488161 0.636 255 255 255
0.105032 0.137825 0.564 255 255 255
-0.174612 0.0102177 0.685 255 255 255
-0.133396 0.192877 0.504 255 255 255
0.136554 0.0922405 0.615 255 255 255
-0.214009 -0.133405 0.662 255 255 255
-0.142383 -0.0699622 0.77 255 255 255
-0.185148 -0.0307314 0.731 255 255 255
0.057773 0.118671 0.578 255 255 255
0.158869 -0.0573033 0.884 255 255 255
0.11729 0.0867966 0.619 255 255 255
0.0144196 0.0682212 0.615 255 255 255
-0.251839 -0.0160062 0.711 255 255 255
0.0191323 -0.31582 0.816 255 255 255
-0.20673 0.0332707 0.656 255 255 255
0.113343 -0.142102 0.866 255 255 255
-0.0542227 -0.15377 0.782 255 255 255
0.189453 -0.149377 0.779 255 255 255
0.267085 0.147652 0.581 255 255 255
-0.112719 0.12453 0.579 255 255 255
-0.178891 0.132964 0.559 255 255 255
-0.0750396 0.0714731 0.635 255 255 255
-0.0738903 0.00806989 0.692 255 255 255
0.28268 -0.187238 0.647 255 255 255
0.068417 0.155667 0.543 255 255 255
-0.0561853 -0.0323139 0.644 255 255 255
0.173497 0.190298 0.524 255 255 255
0.202277 0.195893 0.537 255 255 255
-0.331055 -0.19819 0.73 255 255 255
-0.319916 -0.230999 0.693 255 255 255
-0.193543 -0.0780901 0.718 255 255 255
-0.0988143 -0.000951217 0.701 255 255 255
-0.121301 0.126477 0.575 255 255 255
0.0519314 0.0275618 0.673 255 255 255
-0.0440773 -0.112704 0.667 255 255 255
-0.21769 0.0939575 0.465 255 255 255
-0.164433 0.0667034 0.629 255 255 255
-0.177041 -0.207668 0.747 255 255 255
-0.171305 0.13545 0.558 255 255 255
-0.0968598 0.0873784 0.616 255 255 255
0.218441 0.0659933 0.663 255 255 255
-0.199385 0.0826606 0.483 255 255 255
0.0235512 -0.242328 0.882 255 255 255
0.103461 0.100254 0.603 255 255 255
-0.265483 0.16171 0.504 255 255 255
0.285758 0.0807434 0.669 255 255 255
0.0605349 -0.191003 0.877 255 255 255
0.371907 0.0298552 0.729 255 255 255
-0.221272 0.0297841 0.424 255 255 255
0.26456 0.140819 0.588 255 255 255
0.162656 0.198377 0.514 255 255 255
-0.275894 -0.0907038 0.735 255 255 255
-0.28529 -0.0135766 0.705 255 255 255
-0.281147 -0.0354411 0.73 255 255 255
-0.0297831 0.18583 0.514 255 255 255
-0.156536 -0.011266 0.704 255 255 255
-0.310594 -0.229986 0.68 255 255 255
0.377737 0.0612276 0.75 255 255 255
0.0580061 0.0245287 0.68 255 255 255
-0.166732 -0.174408 0.761 255 255 255
0.040187 -0.293129 0.812 255 255 255
-0.0810939 0.044147 0.659 255 255 255
-0.204609 -0.0322643 0.406 255 255 255
0.317651 -0.0897719 0.691 255 255 255
0.068155 0.150858 0.548 255 255 255
0.0317534 0.133944 0.567 255 255 255
0.292331 -0.211274 0.61 255 255 255
0.0409752 0.0117626 0.711 255 255 255
0.0591257 0.185928 0.531 255 255 255
-0.203682 -0.152865 0.667 255 255 255
0.189904 -0.0308408 0.868 255 255 255
-0.162895 0.0156299 0.678 255 255 255
-0.137187 0.128385 0.571 255 255 255
0.266323 0.0973224 0.656 255 255 255
-0.234715 0.0440529 0.642 255 255 255
0.0483434 -0.306013 0.794 255 255 255
-0.309604 -0.0510581 0.75 255 255 255
0.243296 -0.163183 0.707 255 255 255
0.1739 -0.128113 0.813 255 255 255
0.151605 -0.192725 0.78 255 255 255
-0.116513 -0.100425 0.773 255 255 255
0.359252 0.0759782 0.776 255 255 255
-0.0253798 0.012538 0.69 255 255 255
-0.192652 0.0553575 0.478 255 255 255
0.159815 0.118255 0.59 255 255 255
0.248701 -0.202491 0.666 255 255 255
0.0113166 -0.183114 0.939 255 255 255
0.109155 -0.223514 0.804 255 255 255
0.244741 -0.203707 0.67 255 255 255
0.0766702 0.179035 0.521 255 255 255
0.117102 -0.126203 0.873 255 255 255
0.338934 -0.010451 0.727 255 255 255
-0.0435792 -0.330111 0.875 255 255 255
0.283631 -0.188925 0.642 255 255 255
0.182901 0.0964003 0.616 255 255 255
-0.190373 0.0530393 0.637 255 255 255
0.191061 0.0439897 0.673 255 255 255
-0.118568 -0.092517 0.77 255 255 255
0.378958 0.0624481 0.75 255 255 255
0.0247795 -0.109991 0.928 255 255 255
0.192851 0.0760828 0.639 255 255 255
0.194992 0.0531263 0.664 255 255 255
-0.160396 0.113614 0.581 255 255 255
0.158832 0.00363242 0.705 255 255 255
0.257712 0.0336389 0.79 255 255 255
0.100065 -0.103642 0.912 255 255 255
0.0568699 -0.0141928 0.737 255 255 255
0.412928 0.175965 0.812 255 255 255
-0.19381 0.000834994 0.44 255 255 255
-0.167001 0.194212 0.499 255 255 255
0.243527 0.0811855 0.655 0 0 0
-0.081964 0.0287421 0.675 255 255 255
-0.130113 -0.147717 0.819 255 255 255
-0.141573 -0.216701 0.687 255 255 255
0.0935006 -0.27492 0.772 255 255 255
0.182628 -0.080519 0.841 255 255 255
-0.121118 -0.230057 0.655 255 255 255
-0.118279 0.0461513 0.657 0 0 0
0.16677 0.186242 0.527 255 255 255
-0.20473 0.112087 0.578 255 255 255
-0.00517429 0.144348 0.568 255 255 255
0.131816 -0.261155 0.747 255 255 255
-0.18757 -0.0785252 0.722 255 255 255
0.0438309 0.0559728 0.635 255 255 255
0.0851265 0.0273161 0.667 255 255 255
-0.22071 -0.00210093 0.704 255 255 255
-0.186861 -0.148016 0.706 255 255 255
-0.111862 0.0418747 0.657 255 255 255
-0.0903295 -0.19489 0.754 255 255 255
0.118388 0.0136608 0.69 255 255 255
0.29403 0.0871451 0.668 255 255 255
0.0524075 0.18576 0.533 255 255 255
-0.160551 0.0796165 0.618 255 255 255
-0.0283281 0.124552 0.588 255 255 255
-0.331625 -0.246584 0.68 255 255 255
0.274227 -0.211024 0.63 255 255 255
-0.231695 -0.023368 0.724 255 255 255
0.403649 0.176364 0.82 255 255 255
-0.197292 0.136114 0.557 255 255 255
-0.208627 -0.0219069 0.41 255 255 255
0.0797827 0.0498906 0.65 255 255 255
0.110811 0.0244566 0.678 255 255 255
-0.185104 0.0648533 0.491 255 255 255
-0.0123641 -0.0978857 0.655 255 255 255
0.284059 -0.104379 0.714 255 255 255
0.249135 -0.244348 0.634 255 255 255
0.085377 0.165811 0.533 255 255 255
0.0458126 0.193103 0.527 255 255 255
-0.255208 0.149611 0.534 255 255 255
-0.142753 -0.0739128 0.772 255 255 255
0.0194413 0.158151 0.558 255 255 255
0.322391 -0.14783 0.636 255 255 255
0.274168 0.145563 0.584 255 255 255
-0.153868 0.00243933 0.692 255 255 255
0.275124 0.00417857 0.811 255 255 255
-0.0757142 0.181264 0.525 255 255 255
0.0283352 0.0993881 0.592 255 255 255
0.107068 0.121914 0.58 255 255 255
-0.181567 -0.204106 0.686 255 255 255
0.08556 -0.183644 0.856 255 255 255
0.0986566 -0.260999 0.783 255 255 255
-0.0355317 -0.197811 0.966 255 255 255
0.290228 0.000213875 0.791 255 255 255
0.302326 -0.144817 0.66 255 255 255
-0.212812 -0.141588 0.655 255 255 255
-0.122255 -0.205714 0.673 255 255 255
0.103013 0.139413 0.563 255 255 255
0.176884 -0.000967501 0.713 255 255 255
-0.125184 0.138496 0.563 255 255 255
-0.216313 -0.185688 0.631 0 0 0
0.31488 0.039174 0.798 255 255 255
-0.270571 0.00130563 0.688 255 255 255
-0.293042 -0.0441164 0.736 255 255 255
0.127547 -0.168611 0.83 255 255 255
0.111518 0.0339301 0.669 255 255 255
0.216561 -0.0987768 0.79 255 255 255
0.0286555 0.115108 0.579 255 255 255
-0.326144 -0.195959 0.735 255 255 255
-0.105625 0.177846 0.525 255 255 255
-0.140964 0.147735 0.553 255 255 255
0.00195137 -0.297173 0.854 255 255 255
-0.0175061 -0.0304055 0.648 255 255 255
-0.114001 0.044013 0.657 255 255 255
-0.109096 -0.162827 0.842 255 255 255
0.295324 -0.223883 0.596 255 255 255
0.00752613 -0.0233034 0.722 255 255 255
-0.276316 -0.218503 0.625 255 255 255
-0.155239 0.0863854 0.609 255 255 255
-0.120223 0.143365 0.557 255 255 255
0.0319144 -0.186081 0.916 255 255 255
-0.0635691 0.0692971 0.634 255 255 255
-0.131224 -0.248305 0.647 255 255 255
-0.186388 -0.0722456 0.39 255 255 255
-0.202294 -0.0182967 0.419 255 255 255
-0.195561 -0.0347525 0.412 255 255 255
-0.0848408 0.112479 0.595 255 255 255
0.15588 0.111886 0.597 255 255 255
0.115705 0.126697 0.576 255 255 255
0.148602 -0.167462 0.805 255 255 255
-0.216291 0.0611938 0.625 255 255 255
-0.114818 0.163255 0.536 255 255 255
0.0811428 0.0609581 0.644 255 255 255
0.187417 0.181037 0.537 255 255 255
-0.182818 -0.189819 0.695 255 255 255
0.0408713 0.163034 0.553 255 255 255
0.249613 0.163813 0.565 255 255 255
-0.100038 0.157735 0.541 255 255 255
0.338864 -0.0832995 0.675 255 255 255
0.188202 -0.240962 0.699 255 255 255
-0.268094 -0.24152 0.632 255 255 255
0.0605317 0.136847 0.56 255 255 255
-0.0181599 -0.0751446 0.634 255 255 255
0.311724 -0.0787468 0.703 255 255 255
-0.190367 -0.211161 0.666 255 255 255
0.118161 0.0779629 0.629 255 255 255
-0.127719 0.177339 0.521 255 255 255
-0.0485409 0.0146551 0.684 255 255 255
-0.231178 0.117289 0.45 255 255 255
-0.0469065 -0.271348 0.912 255 255 255
0.0122184 0.155984 0.56 255 255 255
-0.137935 0.117598 0.582 255 255 255
-0.186175 0.00672727 0.451 255 255 255
0.0384849 0.0938964 0.6 255 255 255
0.119731 -0.217404 0.796 255 255 255
0.123092 0.192147 0.513 255 255 255
-0.0998474 0.068373 0.635 255 255 255
0.129389 -0.146565 0.851 255 255 255
-0.184332 0.117323 0.576 255 255 255
-0.323024 -0.240105 0.69 255 255 255
0.2514 0.0110698 0.833 255 255 255
0.0325935 0.110022 0.582 255 255 255
0.0636799 0.083504 0.617 255 255 255
0.108686 0.0391381 0.665 0 0 0
-0.101646 0.17383 0.531 255 255 255
-0.133701 0.124822 0.576 255 255 255
0.166586 -0.155422 0.797 255 255 255
0.251285 -0.13572 0.72 255 255 255
0.154435 0.0568429 0.657 255 255 255
-0.251554 0.133576 0.543 255 255 255
-0.14726 0.0668095 0.63 255 255 255
-0.127766 -0.203128 0.679 255 255 255
-0.211645 -0.142236 0.658 0 0 0
0.100569 -0.249842 0.788 255 255 255
0.0645626 0.185889 0.526 255 255 255
-0.156336 0.0545003 0.642 255 255 255
-0.0929376 0.119157 0.585 255 255 255
-0.236752 -0.177652 0.628 255 255 255
0.0286416 0.175991 0.543 255 255 255
-0.0968898 0.044013 0.657 255 255 255
0.237101 -0.185938 0.689 255 255 255
0.0995364 0.15861 0.544 255 255 255
0.161708 -0.199098 0.756 255 255 255
-0.112013 -0.317752 0.935 255 255 255
-0.00256956 0.0743706 0.608 255 255 255
0.221319 -0.0482252 0.827 255 255 255
-0.248642 0.16524 0.515 255 255 255
-0.213343 0.164402 0.523 255 255 255
-0.0603437 -0.100018 0.655 255 255 255
-0.0939666 -0.255055 0.659 255 255 255
0.039283 0.159394 0.556 255 255 255
0.154807 -0.150016 0.817 255 255 255
-0.196404 0.0051428 0.441 255 255 255
-0.206314 0.0539061 0.635 255 255 255
0.112683 -0.233067 0.792 255 255 255
0.0867981 -0.241531 0.803 255 255 255
0.306839 0.0247646 0.794 255 255 255
-0.189082 -0.00273889 0.439 255 255 255
0.128808 0.0363773 0.674 255 255 255
0.251983 -0.131397 0.722 255 255 255
-0.352281 -0.120785 0.791 255 255 255
0.00602862 -0.306335 0.841 255 255 255
0.25364 0.125767 0.603 255 255 255
-0.185911 0.101486 0.593 255 255 255
-0.0104734 -0.318169 0.847 255 255 255
0.0479157 0.1104 0.584 255 255 255
0.0393673 -0.00216061 0.724 255 255 255
0.0893053 0.0520062 0.65 255 255 255
-0.153791 0.167149 0.529 255 255 255
0.291439 -0.109323 0.701 255 255 255
0.291133 0.00799738 0.797 255 255 255
0.275545 -0.168313 0.668 255 255 255
-0.214008 0.190238 0.495 255 255 255
0.131732 0.177286 0.531 255 255 255
-0.0664399 0.181609 0.526 255 255 255
-0.182375 0.123794 0.567 255 255 255
-0.0148499 -0.0567875 0.625 255 255 255
-0.200371 0.134542 0.558 255 255 255
-0.000544525 0.15535 0.561 255 255 255
0.0174121 -0.179866 0.938 255 255 255
-0.048235 -0.32127 0.882 255 255 255
0.166638 0.0498095 0.663 255 255 255
0.0573876 -0.0968545 0.918 255 255 255
-0.229156 0.0410461 0.644 255 255 255
-0.0915741 0.00473223 0.698 255 255 255
-0.0782636 0.0695157 0.636 255 255 255
-0.0696938 0.1111 0.598 255 255 255
0.439873 0.346465 0.921 255 255 255
0.292171 -0.0223176 0.769 255 255 255
0.172299 0.139334 0.574 255 255 255
-0.231074 0.172296 0.46 255 255 255
-0.0151557 0.152611 0.561 255 255 255
0.433076 0.284693 0.874 255 255 255
0.170745 -0.072879 0.864 255 255 255
0.398137 0.394347 1.009 255 255 255
-0.0085073 0.0259369 0.688 255 255 255
0.245229 -0.114218 0.748 255 255 255
-0.163903 -0.160389 0.771 255 255 255
-0.14209 0.138004 0.561 255 255 255
0.290664 -0.20165 0.617 255 255 255
0.299096 -0.0256989 0.758 255 255 255
-0.201897 -0.149863 0.683 255 255 255
0.101852 -0.247278 0.788 255 255 255
-0.0449042 0.106493 0.605 255 255 255
-0.142715 -0.0293801 0.727 255 255 255
-0.239041 0.155958 0.529 255 255 255
0.0452902 0.157349 0.552 255 255 255
0.248724 -0.146617 0.716 255 255 255
0.214359 -0.223734 0.688 255 255 255
-0.190094 0.102105 0.591 255 255 255
0.0519966 -0.236025 0.854 255 255 255
0.164022 0.181083 0.532 255 255 255
-0.181777 0.0742424 0.495 255 255 255
-0.254965 0.143995 0.539 255 255 255
0.187338 0.132031 0.583 255 255 255
0.177084 0.194669 0.522 255 255 255
-0.182254 -0.0235652 0.428 255 255 255
0.302248 -0.0577738 0.727 255 255 255
0.349341 0.0134284 0.739 255 255 255
-0.201209 0.115449 0.576 255 255 255
-0.215022 0.0649943 0.453 255 255 255
0.151964 0.126122 0.582 255 255 255
-0.218006 0.170058 0.479 255 255 255
0.376149 0.165604 0.833 255 255 255
-0.180156 0.0173415 0.46 255 255 255
0.238043 0.13891 0.584 255 255 255
-0.0453121 -0.166495 0.782 255 255 255
0.200718 -0.223899 0.699 255 255 255
-0.26087 -0.000934934 0.689 255 255 255
-0.202527 0.0422248 0.646 255 255 255
0.0501116 0.0560609 0.636 255 255 255
-0.00952874 0.0855346 0.61 0 0 0
-0.0720853 0.096454 0.61 255 255 255
-0.249677 -0.238711 0.622 255 255 255
0.125969 -0.141854 0.856 255 255 255
0.147356 0.00363242 0.705 255 255 255
-0.00224245 -0.280644 0.863 255 255 255
0.104984 0.0317527 0.669 255 255 255
-0.351391 -0.214642 0.684 255 255 255
-0.203546 0.0856942 0.478 255 255 255
-0.0122859 -0.27552 0.878 255 255 255
0.287439 0.178213 0.582 255 255 255
0.136262 -0.00212779 0.713 255 255 255
0.282742 -0.181258 0.652 255 255 255
0.297699 -0.223721 0.593 255 255 255
0.197963 0.139364 0.578 255 255 255
0.109129 0.116499 0.586 255 255 255
0.32041 -0.0735377 0.697 255 255 255
-0.0331736 0.188027 0.502 255 255 255
-0.00929864 -0.287256 0.866 255 255 255
-0.256237 0.163932 0.491 255 255 255
0.164831 -0.101048 0.841 255 255 255
0.243898 0.15719 0.571 255 255 255
-0.217151 -0.230055 0.602 255 255 255
0.089845 -0.17549 0.857 255 255 255
-0.0229522 -0.0577121 0.624 255 255 255
0.268235 -0.127336 0.706 255 255 255
0.121781 -0.0639849 0.897 255 255 255
-0.0577676 0.183827 0.525 255 255 255
0.0321656 -0.223669 0.882 255 255 255
-0.222148 0.120548 0.454 255 255 255
0.320299 -0.0387378 0.725 255 255 255
0.135826 -0.248447 0.749 255 255 255
-0.0958113 0.158027 0.542 255 255 255
-0.195881 -0.0471096 0.403 255 255 255
0.138042 0.175889 0.532 255 255 255
0.101473 0.0179418 0.682 255 255 255
0.0761131 0.176318 0.523 255 255 255
-0.0735024 0.0371405 0.668 255 255 255
-0.326685 -0.23551 0.693 255 255 255
0.163886 -0.262128 0.707 255 255 255
-0.0013304 0.190106 0.512 255 255 255
-0.192255 -0.0158665 0.427 255 255 255
-0.226328 0.0555255 0.431 255 255 255
0.132309 0.146609 0.559 255 255 255
0.0220821 0.180895 0.534 255 255 255
0.171588 -0.238827 0.72 255 255 255
0.077932 -0.0045669 0.732 255 255 255
0.154307 0.0300616 0.68 255 255 255
0.120978 0.0651501 0.644 255 255 255
0.104483 0.133708 0.566 255 255 255
-0.180606 0.0668573 0.494 255 255 255
0.054374 0.142336 0.553 255 255 255
0.0831452 0.135311 0.565 255 255 255
0.168676 -0.138987 0.807 255 255 255
0.220038 0.154243 0.567 255 255 255
-0.108393 -0.0416643 0.735 255 255 255
0.140815 0.184829 0.523 255 255 255
0.160586 -0.166256 0.793 255 255 255
0.175297 0.012756 0.702 0 0 0
0.24622 -0.121426 0.74 255 255 255
0.143887 -0.156475 0.823 255 255 255
0.106463 -0.118655 0.891 255 255 255
0.0365953 0.0518394 0.635 255 255 255
-0.0321312 -0.263019 0.914 255 255 255
0.334296 0.0302026 0.768 255 255 255
-0.125355 0.0286144 0.672 255 255 255
-0.169657 -0.109934 0.752 255 255 255
0.0195514 0.062621 0.619 255 255 255
0.375844 0.0769864 0.761 255 255 255
-0.192535 0.0229399 0.666 255 255 255
-0.0736315 -0.201123 0.759 255 255 255
-0.214065 0.086002 0.467 255 255 255
-0.178238 0.16229 0.53 255 255 255
-0.186017 0.0393839 0.473 255 255 255
-0.146057 0.107328 0.588 255 255 255
-0.259466 -0.222088 0.607 255 255 255
-0.0979593 0.0429438 0.657 255 255 255
-0.184895 -0.263528 0.73 255 255 255
0.138373 0.161265 0.547 255 255 255
0.283777 -0.0273587 0.77 255 255 255
0.0600676 0.114757 0.582 255 255 255
-0.118549 -0.164003 0.841 255 255 255
-0.00256956 0.0793177 0.608 255 255 255
-0.202776 -0.241359 0.621 255 255 255
-0.0960289 0.131155 0.575 255 255 255
-0.138329 -0.233921 0.666 255 255 255
-0.196495 0.0597736 0.476 0 0 0
0.182397 -0.193776 0.745 255 255 255
0.256285 0.127094 0.6 255 255 255
-0.0883124 0.169598 0.534 255 255 255
0.263067 -0.231998 0.623 255 255 255
-0.123303 0.0421296 0.661 255 255 255
-0.115427 -0.317245 0.938 0 0 0
-0.0181258 -0.275964 0.884 255 255 255
-0.192743 -0.0790505 0.38 255 255 255
-0.00389237 -0.22007 0.921 255 255 255
0.327532 -0.112766 0.661 255 255 255
0.410894 0.169838 0.808 255 255 255
-0.144815 0.114954 0.583 255 255 255
-0.255598 0.150198 0.533 255 255 255
0.296428 -0.0891492 0.713 255 255 255
-0.194371 -0.0941763 0.369 255 255 255
-0.227535 0.0632647 0.436 255 255 255
0.102849 0.18844 0.512 255 255 255
0.150165 0.189692 0.52 255 255 255
0.298726 -0.166199 0.643 255 255 255
-0.223703 0.0375503 0.426 255 255 255
-0.232556 0.0165852 0.672 255 255 255
0.253196 -0.172344 0.684 255 255 255
-0.198209 0.186316 0.504 255 255 255
-0.0926281 -0.184779 0.724 255 255 255
-0.125917 -0.192106 0.687 255 255 255
0.0733678 0.165253 0.534 255 255 255
0.00237506 0.0791872 0.607 255 255 255
0.292686 -0.191545 0.63 255 255 255
-0.0124666 0.0664553 0.608 255 255 255
0.283042 -0.231202 0.605 255 255 255
0.109124 -0.103858 0.901 255 255 255
0.0983804 0.0951483 0.608 255 255 255
0.223713 -0.221913 0.679 255 255 255
-0.20031 0.191816 0.497 255 255 255
-0.0740411 0.022414 0.683 255 255 255
0.139654 0.120314 0.586 255 255 255
0.317719 -0.0287401 0.741 255 255 255
-0.190029 -0.105641 0.363 255 255 255
-0.103696 -0.188404 0.711 255 255 255
0.0146492 -0.146132 0.957 255 255 255
0.235871 -0.202023 0.679 255 255 255
-0.171263 0.052545 0.488 255 255 255
0.154863 -0.24958 0.724 255 255 255
-0.175331 0.062965 0.495 255 255 255
-0.253035 0.00903653 0.68 255 255 255
-0.0424528 -0.269864 0.912 255 255 255
-0.0970829 -0.0101348 0.705 255 255 255
0.0473229 -0.0342882 0.757 255 255 255
-0.187718 0.147372 0.545 255 255 255
0.0341616 0.0835493 0.61 255 255 255
0.0109671 -0.217442 0.91 255 255 255
0.0360603 -0.270108 0.839 255 255 255
-0.0560783 0.0658887 0.631 255 255 255
0.288113 -0.123864 0.693 255 255 255
-0.202597 -0.114842 0.693 255 255 255
-0.181691 0.0226797 0.462 255 255 255
-0.209561 0.0200302 0.437 255 255 255
0.257015 -0.0881405 0.754 255 255 255
0.0663687 0.0920906 0.614 255 255 255
0.328459 -0.0504318 0.707 255 255 255
0.248145 -0.12539 0.735 255 255 255
-0.193167 0.183661 0.508 255 255 255
0.188668 -0.145947 0.781 255 255 255
-0.193123 -0.0591798 0.396 255 255 255
0.144272 -0.218505 0.768 255 255 255
0.174651 0.0116467 0.704 255 255 255
-0.181102 -0.238949 0.656 255 255 255
0.193448 -0.165661 0.755 255 255 255
0.202073 0.127856 0.59 255 255 255
-0.0168639 0.186765 0.503 255 255 255
0.260189 0.168709 0.566 255 255 255
0.0462413 0.118991 0.575 255 255 255
0.250795 0.118894 0.608 255 255 255
0.178666 0.118656 0.592 255 255 255
0.0330723 0.065471 0.627 0 0 0
0.0753549 0.115903 0.583 255 255 255
-0.176029 0.0549274 0.488 255 255 255
0.0209348 0.19053 0.527 255 255 255
-0.111144 0.0792469 0.623 255 255 255
0.079529 -0.0180322 0.747 255 255 255
0.182119 0.112857 0.597 255 255 255
-0.182385 -0.254053 0.744 255 255 255
0.216744 -0.201156 0.703 255 255 255
0.161342 -0.262454 0.711 255 255 255
-0.351619 -0.221586 0.678 255 255 255
0.228079 -0.0938387 0.781 255 255 255
-0.246686 -0.0746435 0.73 255 255 255
0.160666 -0.146635 0.813 255 255 255
0.0467958 -0.283879 0.812 255 255 255
0.213759 -0.214184 0.697 255 255 255
-0.0415661 0.0605619 0.629 255 255 255
0.305966 -0.145629 0.654 255 255 255
-0.0780775 0.184747 0.518 255 255 255
-0.279505 -0.0123764 0.702 255 255 255
-0.101469 0.0337779 0.666 255 255 255
-0.102043 -0.224564 0.677 255 255 255
0.313707 -0.143238 0.648 255 255 255
0.281487 -0.174625 0.659 255 255 255
0.0700788 0.0233877 0.679 255 255 255
0.322215 -0.0375062 0.724 255 255 255
-0.277301 -0.0194773 0.711 255 255 255
0.0558667 0.000195759 0.724 255 255 255
0.295835 -0.221111 0.599 255 255 255
0.131649 -0.0181771 0.753 255 255 255
-0.247397 0.160147 0.523 255 255 255
-0.194906 -0.198342 0.663 0 0 0
0.074677 0.0302973 0.661 255 255 255
0.230988 -0.0603407 0.809 255 255 255
0.049761 -0.304193 0.796 255 255 255
-0.243519 -0.178389 0.627 255 255 255
0.27788 -0.0648274 0.754 255 255 255
-0.147927 -0.12109 0.793 255 255 255
0.38804 0.104027 0.778 255 255 255
-0.181021 -0.00347689 0.442 255 255 255
-0.267404 0.1599 0.514 255 255 255
-0.22271 0.165443 0.466 255 255 255
-0.143303 -0.144864 0.796 255 255 255
0.22162 0.0838734 0.635 255 255 255
-0.180423 0.10069 0.594 255 255 255
0.299915 -0.138082 0.669 255 255 255
0.24172 0.138433 0.586 255 255 255
0.020077 0.191388 0.527 255 255 255
0.105493 0.150163 0.552 255 255 255
-0.191741 -0.0373435 0.411 255 255 255
0.282559 0.0977675 0.659 255 255 255
-0.145836 0.148098 0.551 255 255 255
-0.0494165 0.107566 0.6 255 255 255
0.211097 -0.171101 0.731 255 255 255
-0.228906 0.0767336 0.44 255 255 255
0.0272349 -0.309361 0.82 255 255 255
-0.352396 -0.105102 0.809 255 255 255
0.162543 0.181265 0.53 255 255 255
0.291303 -0.102494 0.709 255 255 255
0.0378114 -0.0408216 0.764 255 255 255
0.0350016 0.0703475 0.625 255 255 255
0.266346 0.0792707 0.675 255 255 255
0.109585 -0.0157263 0.753 255 255 255
-0.180929 0.155109 0.538 255 255 255
-0.228862 -0.037817 0.73 255 255 255
-0.216983 0.059349 0.627 255 255 255
-0.014668 -0.213675 0.939 255 255 255
-0.210609 0.146899 0.54 255 255 255
0.131548 0.0922405 0.615 255 255 255
0.0909362 0.196113 0.506 255 255 255
0.0549148 -0.0045357 0.727 255 255 255
-0.136368 0.139581 0.56 255 255 255
-0.267288 -0.0182687 0.709 255 255 255
-0.155967 -0.0686199 0.769 255 255 255
0.0202936 -0.0406079 0.76 255 255 255
0.0462212 0.0966642 0.599 255 255 255
-0.0393459 -0.192754 0.765 255 255 255
-0.0987905 0.162415 0.539 255 255 255
-0.043394 -0.210387 0.966 255 255 255
-0.12474 0.13983 0.561 255 255 255
0.0735228 0.101538 0.599 255 255 255
-0.215103 0.0267689 0.431 255 255 255
0.14092 -0.00682589 0.719 255 255 255
0.129391 -0.155976 0.842 255 255 255
0.320423 -0.0626414 0.702 255 255 255
-0.00592128 -0.041077 0.65 255 255 255
-0.180957 0.0493402 0.48 255 255 255
-0.182478 0.0295736 0.464 255 255 255
-0.0281623 0.105509 0.605 255 255 255
-0.209844 0.0735824 0.618 255 255 255
0.120304 0.149805 0.554 255 255 255
-0.0517295 0.0123926 0.682 255 255 255
0.0580059 -0.262977 0.821 255 255 255
-0.152211 -0.0172839 0.716 255 255 255
0.019928 0.0890144 0.6 255 255 255
-0.0345515 0.129464 0.58 255 255 255
0.294081 -0.176388 0.642 255 255 255
0.223017 -0.0743598 0.804 255 255 255
-0.212387 -0.234327 0.608 255 255 255
-0.21482 0.152801 0.533 255 255 255
-0.00231521 -0.25495 0.891 255 255 255
-0.142198 -0.0673685 0.769 255 255 255
-0.22682 0.119546 0.453 255 255 255
-0.0403658 0.185817 0.521 255 255 255
0.0347968 -0.0045357 0.727 255 255 255
0.167967 -0.0971726 0.843 255 255 255
0.22913 -0.222999 0.669 255 255 255
0.0951509 0.00019657 0.727 255 255 255
0.0488285 -0.180964 0.898 255 255 255
-0.21719 0.175942 0.512 255 255 255
0.151059 0.0905324 0.617 255 255 255
-0.18864 -0.036181 0.413 255 255 255
-0.0420703 0.168922 0.543 255 255 255
-0.19659 0.145598 0.545 255 255 255
-0.257048 0.0122836 0.676 255 255 255
0.0711695 0.188962 0.518 255 255 255
-0.210451 -0.236478 0.611 255 255 255
-0.12907 0.132332 0.568 255 255 255
-0.087154 -0.000948503 0.699 255 255 255
-0.0910858 -0.0249782 0.703 255 255 255
0.145379 0.00703408 0.701 255 255 255
-0.0903252 -0.033127 0.706 255 255 255
0.200979 0.107833 0.607 255 255 255
0.249496 -0.12006 0.739 255 255 255
0.314747 -0.163604 0.629 255 255 255
-0.00167339 -0.0469859 0.644 255 255 255
0.258743 0.157741 0.573 255 255 255
-0.21794 0.0517902 0.441 255 255 255
0.0395226 -0.0963619 0.886 255 255 255
0.207064 -0.0971799 0.798 255 255 255
-0.205793 0.0923071 0.476 255 255 255
0.0939327 -0.00459185 0.736 255 255 255
-0.221966 0.041209 0.428 255 255 255
0.162409 -0.155092 0.802 255 255 255
-0.102539 -0.183776 0.711 255 255 255
0.34126 0.0767615 0.784 255 255 255
-0.227379 0.0607155 0.433 255 255 255
-0.0779161 0.19776 0.506 255 255 255
0.278935 0.0677831 0.704 255 255 255
0.135521 -0.226004 0.768 255 255 255
-0.0102942 -0.108135 0.659 255 255 255
0.160936 -0.109839 0.835 255 255 255
0.271034 -0.236695 0.609 255 255 255
0.201381 0.0190993 0.726 255 255 255
-0.20396 0.18721 0.502 255 255 255
0.177878 0.18368 0.532 255 255 255
0.0442066 -0.026506 0.746 255 255 255
-0.00328412 0.154437 0.561 255 255 255
-0.0744662 0.0592277 0.648 255 255 255
0.0492168 0.085815 0.612 255 255 255
0.00628049 0.000193055 0.714 255 255 255
-0.00481901 0.185227 0.529 255 255 255
0.145496 0.162155 0.547 255 255 255
-0.0873751 -0.155866 0.806 255 255 255
-0.07807 0.1965 0.507 255 255 255
-0.0861565 -0.0234273 0.691 255 255 255
-0.225573 0.175671 0.461 255 255 255
0.0458301 0.0267419 0.68 255 255 255
-0.186773 0.0893111 0.602 255 255 255
0.221005 0.102415 0.616 255 255 255
0.205156 -0.0868851 0.811 255 255 255
0.0996009 -0.275957 0.761 255 255 255
-0.29504 -0.0466382 0.738 255 255 255
0.204932 0.0763209 0.641 255 255 255
0.295441 -0.0211209 0.771 255 255 255
0.021959 -0.012923 0.733 255 255 255
0.0381083 -0.0461544 0.77 255 255 255
0.262021 0.100354 0.648 255 255 255
-0.0233591 0.183768 0.52 255 255 255
-0.349179 -0.0851805 0.82 255 255 255
0.135699 0.109154 0.598 255 255 255
0.244859 -0.245235 0.639 255 255 255
-0.158769 0.0113159 0.684 255 255 255
-0.234542 0.173783 0.458 255 255 255
-0.184024 -0.236453 0.655 0 0 0
-0.182471 -0.175872 0.698 255 255 255
0.122368 0.188597 0.517 255 255 255
-0.149753 -0.18284 0.721 255 255 255
-0.0609663 0.0202797 0.686 255 255 255
0.180159 -0.211547 0.731 255 255 255
-0.0804891 0.171336 0.534 255 255 255
-0.201011 0.0318212 0.453 255 255 255
-0.0110737 0.0471871 0.642 255 255 255
-0.163193 0.167057 0.526 255 255 255
-0.221553 -0.201999 0.606 255 255 255
0.228108 0.20173 0.553 0 0 0
-0.0971119 0.105437 0.599 255 255 255
-0.00457889 0.0639047 0.612 255 255 255
-0.333839 -0.244371 0.68 255 255 255
0.164627 0.0588016 0.655 255 255 255
0.275464 -0.151196 0.684 255 255 255
0.0829068 -0.0309966 0.767 255 255 255
-0.2491 0.160147 0.523 255 255 255
0.426727 0.335927 0.925 255 255 255
0.271431 -0.0641065 0.76 255 255 255
0.130187 -0.219662 0.781 255 255 255
-0.243258 -0.236408 0.616 255 255 255
-0.340728 -0.252143 0.657 255 255 255
0.429109 0.255343 0.852 255 255 255
-0.0613161 -0.0956077 0.654 255 255 255
-0.0976732 0.00018954 0.701 255 255 255
-0.161172 -0.175096 0.764 255 255 255
0.146281 -0.205824 0.772 255 255 255
0.0343856 0.0810996 0.614 255 255 255
-0.050318 0.151251 0.556 255 255 255
0.194449 0.165434 0.552 255 255 255
0.337442 0.0552832 0.787 255 255 255
-0.186702 0.0680493 0.491 255 255 255
0.0503725 0.0961687 0.602 255 255 255
-0.302682 -0.0609031 0.751 255 255 255
-0.0821425 0.146085 0.557 255 255 255
-0.186652 -0.108048 0.723 0 0 0
0.323659 -0.00346792 0.752 255 255 255
-0.0826623 0.0147837 0.69 255 255 255
0.0811436 -0.0388368 0.774 255 255 255
0.0295273 0.0270172 0.687 0 0 0
-0.224942 0.0361397 0.65 255 255 255
0.156994 0.157634 0.553 255 255 255
0.205148 -0.179429 0.731 255 255 255
0.27321 0.170159 0.574 255 255 255
0.15095 0.135818 0.571 255 255 255
0.066008 0.0778563 0.62 255 255 255
-0.194512 -0.040954 0.407 255 255 255
-0.27407 -0.0757699 0.753 255 255 255
0.336582 0.072298 0.791 255 255 255
0.131849 0.00134358 0.708 255 255 255
0.140848 -0.251662 0.737 255 255 255
0.252917 -0.216332 0.649 255 255 255
-0.182214 0.077308 0.494 255 255 255
-0.16497 0.142977 0.552 255 255 255
-0.186848 -0.259839 0.733 255 255 255
0.163295 0.158534 0.553 255 255 255
0.186565 -0.226795 0.719 255 255 255
-0.0319895 -0.1176 0.664 0 0 0
0.185192 -0.105453 0.822 255 255 255
-0.219359 -0.214645 0.6 0 0 0
-0.0264651 -0.117069 0.661 0 0 0
0.175955 -0.161199 0.781 255 255 255
-0.139669 0.0365289 0.657 255 255 255
-0.000822126 -0.308521 0.847 255 255 255
-0.144232 -0.103873 0.78 255 255 255
-0.201026 -0.159855 0.669 255 255 255
-0.229329 -0.184172 0.619 255 255 255
-0.235446 -0.14969 0.644 255 255 255
-0.206603 -0.151032 0.659 255 255 255
0.119129 -0.163794 0.847 255 255 255
0.020797 -0.235041 0.887 255 255 255
0.330831 -0.0714685 0.688 255 255 255
0.209681 -0.193764 0.718 255 255 255
0.381699 0.0700502 0.753 255 255 255
-0.0281244 0.0331359 0.675 255 255 255
0.00775825 -0.255246 0.882 255 255 255
-0.18393 0.161984 0.529 255 255 255
-0.0866805 -0.243684 0.669 255 255 255
-0.189492 -0.0380242 0.734 255 255 255
-0.185046 -0.108301 0.366 255 255 255
0.39301 0.397526 1.03 0 0 0
-0.122027 -0.194606 0.684 255 255 255
-0.209415 -0.214766 0.635 255 255 255
0.151616 0.183159 0.528 255 255 255
0.0308488 -0.026506 0.746 255 255 255
0.195505 0.0931405 0.621 255 255 255
0.234504 -0.0677336 0.803 255 255 255
0.1747 -0.114957 0.823 255 255 255
0.30575 -0.165945 0.638 255 255 255
-0.176404 0.0331559 0.472 255 255 255
0.0561862 0.0762054 0.623 255 255 255
-0.345668 -0.143038 0.779 255 255 255
0.212492 -0.0476163 0.84 255 255 255
0.252843 0.165359 0.564 255 255 255
-0.333783 -0.0886399 0.815 255 255 255
-0.0558407 0.00459664 0.678 255 255 255
-0.122958 0.127191 0.574 255 255 255
0.115814 0.0287421 0.675 255 255 255
0.0338866 0.103501 0.588 255 255 255
-0.176059 0.0281239 0.465 255 255 255
-0.153962 0.149075 0.548 255 255 255
0.267062 -0.199742 0.65 255 255 255
-0.145249 0.176152 0.52 255 255 255
-0.192583 0.045638 0.474 255 255 255
0.191547 0.161525 0.554 255 255 255
0.0900008 -0.141058 0.886 255 255 255
0.100281 0.143623 0.558 255 255 255
0.102002 0.0583528 0.65 255 255 255
0.419429 0.345596 0.939 255 255 255
-0.258801 -0.0917027 0.724 255 255 255
-0.232578 0.123867 0.559 255 255 255
0.285054 0.176016 0.581 255 255 255
0.195604 0.0349444 0.689 255 255 255
-0.219632 0.0821087 0.458 255 255 255
-0.00369976 -0.0738791 0.632 255 255 255
-0.21372 -0.0483092 0.727 255 255 255
-0.212975 -0.146627 0.649 255 255 255
0.0220961 0.129464 0.58 255 255 255
0.328438 0.0189051 0.766 255 255 255
-0.22758 0.169777 0.511 255 255 255
0.373922 0.104478 0.791 255 255 255
-0.201409 -0.0162899 0.42 255 255 255
-0.19367 0.18422 0.505 255 255 255
-0.21632 0.179528 0.508 255 255 255
-0.192 -0.101198 0.708 255 255 255
0.0272465 0.183158 0.533 255 255 255
-0.142255 -0.0551573 0.756 255 255 255
-0.117651 0.158616 0.541 255 255 255
0.194041 -0.192109 0.734 255 255 255
-0.217336 0.178019 0.488 255 255 255
0.427827 0.241958 0.844 255 255 255
0.12441 0.19122 0.515 255 255 255
-0.0608473 -0.0283402 0.649 255 255 255
-0.151678 -0.195204 0.719 255 255 255
-0.0258936 -0.267497 0.904 255 255 255
-0.192421 -0.152935 0.697 255 255 255
0.238166 -0.233248 0.652 255 255 255
0.0660198 -0.0524291 0.789 255 255 255
-0.0563162 0.164807 0.544 255 255 255
0.0706924 0.0395549 0.654 255 255 255
-0.00179812 0.019331 0.692 255 255 255
0.085973 -0.209887 0.833 255 255 255
0.263781 0.110217 0.632 0 0 0
0.0664725 0.133235 0.564 255 255 255
-0.0539453 -0.168176 0.778 255 255 255
-0.125051 -0.179586 0.877 255 255 255
-0.200425 0.0208035 0.667 255 255 255
-0.103697 0.127634 0.576 255 255 255
-0.160422 -0.00320967 0.696 255 255 255
-0.354508 -0.111185 0.796 255 255 255
0.337765 -0.0832995 0.675 255 255 255
-0.169494 0.186316 0.504 255 255 255
-0.286138 -0.0739033 0.759 255 255 255
-0.194903 -0.0821075 0.377 255 255 255
-0.191645 0.106598 0.584 255 255 255
0.275018 -0.0164573 0.788 255 255 255
-0.176098 0.150971 0.542 255 255 255
0.250975 -0.181866 0.678 255 255 255
0.128896 0.177815 0.53 255 255 255
-0.162674 -0.207287 0.737 255 255 255
-0.203628 -0.0460695 0.729 255 255 255
-0.231353 -0.172066 0.63 255 255 255
0.0290823 0.0574911 0.629 255 255 255
-0.212851 0.0298489 0.435 255 255 255
0.20063 0.0816778 0.634 255 255 255
0.117036 0.073424 0.634 255 255 255
-0.204594 -0.177032 0.656 255 255 255
0.356092 -0.029344 0.698 255 255 255
-0.128392 0.13983 0.561 255 255 255
0.362627 0.00370971 0.72 255 255 255
-0.20754 -0.0454164 0.394 255 255 255
0.200542 0.172575 0.549 255 255 255
-0.0427034 0.145826 0.563 255 255 255
-0.200908 0.0838838 0.481 0 0 0
0.159389 -0.0449082 0.895 255 255 255
-0.243645 -0.0784164 0.721 255 255 255
-0.238839 -0.211888 0.595 255 255 255
0.217834 -0.0574367 0.824 255 255 255
-0.240013 0.131061 0.551 255 255 255
-0.145856 -0.0409087 0.743 255 255 255
0.122693 0.068082 0.642 255 255 255
-0.20599 0.191776 0.499 255 255 255
0.153223 -0.197516 0.769 255 255 255
0.383362 0.163854 0.831 255 255 255
0.277744 -0.208279 0.631 255 255 255
-0.0404509 0.16777 0.545 255 255 255
-0.227824 0.17192 0.461 255 255 255
0.254819 -0.113738 0.737 255 255 255
-0.0836183 0.0400388 0.662 255 255 255
-0.211945 0.158241 0.528 255 255 255
0.323188 -0.103682 0.679 255 255 255
-0.0429128 -0.193238 0.762 255 255 255
0.207463 0.1636 0.558 255 255 255
0.33309 -0.00100821 0.743 255 255 255
-0.183611 -0.219194 0.749 255 255 255
-0.12109 0.127191 0.574 255 255 255
-0.216906 0.118467 0.568 255 255 255
0.163982 0.0709944 0.64 255 255 255
0.300233 0.0250765 0.804 255 255 255
0.282366 -0.0299812 0.773 255 255 255
0.206923 0.200503 0.54 255 255 255
-0.198016 0.0102125 0.443 255 255 255
-0.116122 0.161238 0.538 255 255 255
0.2817 0.14877 0.578 255 255 255
-0.178874 0.0599169 0.633 255 255 255
0.0972576 -0.261938 0.782 255 255 255
0.0986257 -0.242394 0.793 255 255 255
0.239938 -0.195106 0.678 255 255 255
-0.149873 -0.00898751 0.705 255 255 255
-0.222384 0.0854604 0.456 255 255 255
0.307744 -0.0791948 0.707 255 255 255
0.00752379 0.165729 0.55 255 255 255
-0.208485 -0.228021 0.626 255 255 255
-0.048703 -0.222878 0.737 255 255 255
-0.127578 0.0222499 0.678 255 255 255
0.162496 -0.267888 0.701 255 255 255
0.0268629 0.112669 0.581 255 255 255
0.0926038 -0.187937 0.844 255 255 255
-0.135016 0.192375 0.507 255 255 255
-0.0815784 -0.201205 0.764 255 255 255
0.262582 0.126328 0.601 255 255 255
0.0654144 -0.20411 0.866 255 255 255
0.304213 -0.152729 0.648 255 255 255
0.273686 0.173263 0.575 255 255 255
0.0822771 0.152363 0.547 255 255 255
0.20839 -0.0517172 0.84 255 255 255
-0.205559 0.193044 0.496 255 255 255
-0.142584 0.0639361 0.632 255 255 255
0.0942565 -0.155858 0.872 255 255 255
0.187874 0.0580002 0.658 255 255 255
0.10025 -0.190919 0.839 255 255 255
-0.337139 -0.169796 0.757 255 255 255
-0.359644 -0.169646 0.735 255 255 255
0.262294 -0.193733 0.662 255 255 255
-0.192367 0.0372844 0.466 255 255 255
0.284093 -0.0875908 0.729 255 255 255
0.0479138 -0.0265415 0.747 255 255 255
-0.190313 -0.26399 0.728 255 255 255
-0.211615 0.0926733 0.47 255 255 255
0.276672 -0.147387 0.687 255 255 255
-0.0231361 -0.0704576 0.629 255 255 255
0.298664 -0.225651 0.593 255 255 255
-0.0182172 -0.0764166 0.636 255 255 255
-0.0411004 0.0702971 0.607 255 255 255
-0.349493 -0.203133 0.698 255 255 255
-0.219303 0.0649489 0.622 255 255 255
0.0501437 0.139489 0.556 255 255 255
0.313494 -0.0109254 0.76 255 255 255
-0.329104 -0.14138 0.791 255 255 255
0.173717 -0.0800916 0.851 255 255 255
-0.354062 -0.113633 0.795 255 255 255
0.26281 -0.236934 0.62 255 255 255
-0.0511324 0.142666 0.565 255 255 255
-0.219462 0.14723 0.538 255 255 255
0.191882 -0.0960896 0.822 255 255 255
0.332864 -0.032567 0.719 255 255 255
-0.187993 -0.175941 0.685 255 255 255
-0.241831 0.141529 0.543 255 255 255
-0.167164 0.120863 0.575 255 255 255
-0.211299 0.0882716 0.471 255 255 255
0.225608 -0.047992 0.823 255 255 255
-0.284152 -0.0675491 0.757 255 255 255
0.316602 -0.0544168 0.714 255 255 255
0.174718 0.0477954 0.665 255 255 255
0.249801 -0.172733 0.69 255 255 255
0.262386 -0.237559 0.619 255 255 255
0.050739 0.170689 0.543 0 0 0
0.126275 -0.24006 0.765 255 255 255
0.304578 -0.0858544 0.705 255 255 255
-0.348308 -0.223792 0.678 255 255 255
0.360549 -0.00903851 0.709 255 255 255
-0.159782 0.0958492 0.6 255 255 255
-0.0133073 -0.034677 0.649 255 255 255
-0.0748899 0.126196 0.578 255 255 255
0.0357785 0.174545 0.544 255 255 255
-0.188868 -0.0944481 0.718 255 255 255
-0.163874 -0.200091 0.737 255 255 255
-0.209504 0.106521 0.467 255 255 255
-0.181053 0.143986 0.549 255 255 255
-0.341798 -0.245728 0.657 255 255 255
-0.0765706 0.169677 0.537 255 255 255
-0.202305 -0.13382 0.692 255 255 255
0.208146 -0.183683 0.729 255 255 255
-0.0964796 -0.201719 0.709 255 255 255
-0.112767 0.146727 0.556 255 255 255
0.042258 0.0705727 0.627 255 255 255
-0.199782 -0.0498885 0.399 255 255 255
-0.218843 0.107384 0.578 255 255 255
-0.0552869 0.196003 0.51 255 255 255
-0.0764761 0.143738 0.562 255 255 255
-0.0105044 0.099269 0.609 255 255 255
-0.092138 0.172966 0.531 255 255 255
0.196374 0.0879183 0.627 255 255 255
0.0520032 0.155924 0.547 255 255 255
0.156688 -0.245882 0.727 255 255 255
0.361284 0.00606987 0.722 255 255 255
0.19757 -0.224355 0.704 255 255 255
0.135497 0.000191703 0.709 255 255 255
0.080771 0.119287 0.581 255 255 255
-0.105713 -0.175182 0.709 255 255 255
-0.100351 -0.351491 0.912 255 255 255
0.017903 0.00367879 0.714 255 255 255
0.226673 -0.162668 0.72 255 255 255
0.132551 -0.156225 0.836 255 255 255
-0.0704828 -0.340497 0.891 255 255 255
-0.329606 -0.157184 0.78 255 255 255
-0.00869061 -0.181381 0.954 255 255 255
-0.0731814 0.132333 0.572 255 255 255
-0.187256 0.0616834 0.63 255 255 255
-0.0647353 -0.217145 0.742 255 255 255
0.277462 0.079623 0.678 255 255 255
0.0117192 0.0238354 0.692 255 255 255
-0.188139 -0.0679768 0.391 255 255 255
0.441784 0.352485 0.925 255 255 255
-0.164806 0.160908 0.534 255 255 255
-0.0390597 0.068209 0.606 255 255 255
0.288926 -0.0464224 0.754 255 255 255
0.223689 -0.058207 0.816 255 255 255
0.103705 0.00926244 0.697 255 255 255
0.103791 0.166122 0.534 255 255 255
-0.0546233 -0.0361657 0.638 255 255 255
-0.214956 0.109612 0.464 255 255 255
-0.202072 -0.0738577 0.711 255 255 255
-0.0651734 0.0583528 0.65 255 255 255
0.104652 0.0723923 0.634 255 255 255
0.0455471 -0.192602 0.891 255 255 255
0.22981 0.0416688 0.708 255 255 255
0.20773 0.139606 0.579 255 255 255
-0.108655 -0.216852 0.677 255 255 255
-0.100038 0.158616 0.541 255 255 255
-0.141131 0.030664 0.669 255 255 255
-0.240117 -0.0811408 0.714 255 255 255
-0.013852 0.132031 0.583 255 255 255
0.0906103 -0.133304 0.892 255 255 255
0.251786 -0.078529 0.768 255 255 255
-0.179953 -0.2131 0.749 255 255 255
-0.0671873 -0.195407 0.756 255 255 255
-0.0101367 0.176668 0.537 255 255 255
0.425808 0.227686 0.832 255 255 255
-0.0135533 -0.118144 0.661 255 255 255
0.04895 0.109637 0.585 255 255 255
-0.0178302 0.0420659 0.66 0 0 0
0.167569 -0.0983106 0.841 255 255 255
-0.212065 0.0875051 0.471 255 255 255
0.120906 -0.112894 0.88 255 255 255
-0.0663556 0.00241113 0.684 255 255 255
-0.03697 0.16719 0.546 255 255 255
0.190002 0.192338 0.532 255 255 255
0.113121 0.12044 0.582 255 255 255
0.0579353 -0.263991 0.82 255 255 255
-0.171304 -0.277115 0.713 255 255 255
-0.200518 -0.0156436 0.421 255 255 255
0.349321 -0.00569517 0.724 255 255 255
0.117008 -0.209122 0.804 255 255 255
0.0296149 -0.262584 0.85 255 255 255
0.418703 0.204538 0.826 255 255 255
0.151874 0.0257861 0.684 255 255 255
0.00234767 0.105613 0.6 255 255 255
0.0853845 -0.247755 0.802 255 255 255
-0.212948 0.188844 0.502 255 255 255
-0.192246 -0.202187 0.665 255 255 255
-0.243738 0.165295 0.51 255 255 255
0.225413 -0.0917644 0.785 255 255 255
0.0972067 -0.150354 0.873 255 255 255
0.145296 -0.0735411 0.889 255 255 255
-0.123807 0.173905 0.526 255 255 255
0.0489982 -0.0252581 0.745 255 255 255
-0.207998 0.174956 0.514 255 255 255
0.0268421 -0.21118 0.896 255 255 255
0.0251522 0.173659 0.544 255 255 255
0.0907005 0.18583 0.514 255 255 255
0.193121 0.122509 0.592 255 255 255
0.0726151 0.152642 0.548 255 255 255
0.0240259 0.157525 0.559 0 0 0
0.0637196 0.142203 0.556 255 255 255
-0.0531664 0.170309 0.539 255 255 255
0.0734845 0.0862357 0.615 255 255 255
-0.110887 0.0966479 0.605 255 255 255
0.193616 0.0992462 0.615 255 255 255
-0.133538 0.0927098 0.605 255 255 255
0.22188 0.162364 0.56 255 255 255
0.271178 0.13407 0.592 255 255 255
0.125107 0.195556 0.511 255 255 255
0.132004 -0.145009 0.85 255 255 255
-0.0497316 0.0923905 0.616 255 255 255
0.085406 -0.114281 0.914 255 255 255
-0.129963 0.143108 0.556 255 255 255
0.220247 0.0246127 0.75 255 255 255
0.0480732 0.0741777 0.623 255 255 255
-0.246251 0.139762 0.543 255 255 255
0.00119733 0.188593 0.524 255 255 255
0.0284897 -0.139026 0.951 255 255 255
0.195793 0.185062 0.536 255 255 255
0.252237 -0.050114 0.793 255 255 255
-0.138744 0.176491 0.521 255 255 255
0.134692 -0.00330652 0.717 255 255 255
-0.0467041 -0.161818 0.784 255 255 255
-0.101011 -0.34484 0.918 255 255 255
0.156141 0.110127 0.598 255 255 255
-0.252475 -0.0503773 0.74 255 255 255
-0.339154 -0.167111 0.756 255 255 255
