ply
format ascii 1.0
comment Created by Open3D
element vertex 1333
property double x
property double y
property double z
property uchar red
property uchar green
property uchar blue
end_header
0.67084 0.440304 1.345 0 93 86
-0.139469 0.395427 1.629 32 35 38
0.158863 -0.528177 4.17 50 51 47
-1.31635 0.285344 2.499 126 129 128
0.643666 -1.10576 2.857 124 113 117
1.12224 -0.134573 2.374 121 123 114
-0.741767 0.22891 3.336 93 87 89
-0.0905755 0.402781 1.145 141 149 146
-0.532732 0.41158 1.154 88 105 106
-1.03243 -0.957782 2.572 172 172 174
-1.15725 -0.153508 2.561 146 142 145
0.208863 0.370267 1.748 143 143 145
-0.355808 0.341459 1.612 153 154 150
-0.143951 0.439249 1.369 166 166 166
-0.497897 0.401205 1.432 189 197 198
-1.04609 0.54157 2.967 106 104 96
1.03307 0.0846601 2.347 41 24 6
-0.501556 0.395644 1.342 189 196 200
0.10512 -0.818073 3.165 136 133 130
0.287793 -0.50118 3.81 52 52 48
-0.613046 -0.111887 3.149 140 127 116
0.493696 0.383752 2.03 133 132 132
1.00239 -0.685135 2.479 133 129 120
0.0784207 0.35522 1.758 119 122 123
0.0379511 -0.670453 3.149 139 134 130
-1.15242 -0.0975774 2.626 136 136 138
-0.216182 -0.48486 3.354 115 106 101
0.581065 -0.677844 2.78 133 128 124
-1.15297 0.484181 2.884 103 104 100
-1.2178 0.580254 2.638 92 95 94
1.0373 -0.147271 2.392 116 116 110
0.918821 -0.941183 2.561 125 123 115
0.192704 -0.972588 3.165 137 131 135
-0.974757 0.0612131 2.857 129 126 123
-1.08767 -0.240302 2.743 125 121 122
-0.241725 0.418357 1.173 183 186 185
-1.21144 0.321597 2.561 121 122 118
-0.217407 -0.0155549 3.373 104 94 94
0.0137805 0.422018 1.322 173 177 172
0.941006 -0.693426 2.509 127 127 121
-1.04557 0.262587 2.925 130 121 124
-1.13883 -0.240482 2.695 125 121 124
0.943022 -0.0705223 2.43 49 21 4
-0.0597441 0.258381 3.165 105 92 96
1.15388 -0.384648 2.519 134 131 126
-0.560965 0.397222 1.124 88 110 111
-1.24529 -0.463257 2.479 163 169 167
-0.150666 -0.577648 3.354 111 108 105
-0.747468 -0.121359 3.266 113 102 97
0.0094121 0.423418 1.313 171 168 163
0.616198 0.480867 2.064 155 155 157
-0.542163 -0.644336 3.448 122 114 111
0.985568 -0.995451 2.572 120 120 116
0.159338 -0.770159 3.117 136 136 132
-0.988709 -0.148004 2.857 135 131 134
-0.423649 -0.381157 3.354 119 109 107
0.53862 0.391164 2.143 145 145 139
0.289857 -0.857317 3.102 136 130 132
-0.408519 -1.06452 3.41 111 100 93
1.17188 -0.184095 2.365 127 128 119
0.591577 -1.07918 2.898 124 121 118
-0.508042 -0.0990265 3.231 131 113 104
0.70044 -0.807186 2.805 132 127 125
0.0866553 0.415886 1.351 171 171 171
-0.365653 0.182048 3.373 106 99 93
-0.876203 0.358411 3.231 99 92 86
0.117831 -0.498627 3.231 151 142 145
-0.53616 0.394693 1.369 189 199 202
0.504216 -1.04111 2.884 126 121 119
0.689427 0.235361 2.53 55 26 12
-0.41407 -1.06452 3.41 111 100 93
0.746472 -0.567536 2.707 133 128 126
0.891226 -0.822744 2.53 128 126 118
-0.48068 -0.909145 3.41 110 101 94
-0.54424 -1.26829 3.391 102 99 85
0.758787 -0.629874 2.768 133 127 129
1.00638 -0.561458 2.54 131 129 121
1.09333 -0.406647 2.43 133 134 125
-0.228358 0.34579 1.62 171 165 169
-0.963658 0.264086 2.996 119 114 112
-0.472189 0.39986 1.327 183 191 192
-0.489041 -1.30691 3.391 100 95 91
0.698001 -0.809821 2.707 129 125 118
0.90367 -0.922337 2.626 128 124 117
0.0789114 0.371836 1.769 124 120 123
0.529046 0.439249 1.369 0 115 107
-1.28447 -0.232369 2.469 152 160 157
0.118714 0.35003 1.805 122 118 119
0.338424 -1.08044 2.953 123 119 112
-1.04499 -0.90337 2.572 129 118 124
1.12294 -0.903354 2.469 124 125 116
0.288352 -1.00855 2.982 133 129 130
0.262041 0.434137 1.294 84 78 80
0.795233 -0.547855 2.593 131 128 125
1.07261 -0.845847 2.55 124 125 114
0.339133 0.422084 1.252 53 122 125
-1.11251 -0.832545 2.695 167 167 169
0.303927 0.431285 1.513 179 180 176
1.12294 -0.320762 2.469 132 132 126
-1.12876 -0.878268 2.489 158 159 150
-0.558713 0.393287 1.232 68 114 134
-0.309487 0.00626435 3.301 117 106 101
-1.16584 -0.678462 2.499 169 172 171
0.276436 0.45359 1.227 163 166 167
0.200982 -0.930402 3.215 139 133 135
-0.516848 0.395644 1.342 189 195 197
-0.161805 0.43186 1.281 154 161 153
-1.28022 0.43348 2.582 116 118 124
0.157245 0.426527 1.316 179 185 185
0.12692 0.024826 2.953 48 27 24
0.256967 -1.17359 3.071 89 82 74
0.935202 -0.066294 2.42 53 24 10
0.729794 -0.190459 2.499 36 25 16
-0.701121 0.37261 1.535 179 190 190
-0.726397 -1.00341 3.391 137 129 126
0.975666 0.280518 2.356 46 22 8
0.611503 0.00929906 2.638 55 21 9
0.538318 -0.608292 2.793 138 128 126
-0.0133761 -0.797471 3.165 136 128 127
-0.906565 -0.595084 2.953 140 129 124
-1.17042 -0.848213 2.449 172 173 167
-0.38491 0.386076 1.378 182 182 184
-0.195112 0.410004 1.114 174 173 175
0.376469 0.360122 1.905 170 167 164
-0.04956 -0.507658 4.008 39 39 41
0.888093 -0.269357 2.593 120 117 114
-0.609094 0.374196 1.595 153 166 161
-0.801506 0.0590194 3.248 105 100 96
-0.243343 -0.199957 3.429 109 102 96
0.0468053 0.416752 1.089 185 190 195
-0.227239 0.37684 1.322 183 183 187
-0.85252 -0.970716 2.884 148 145 140
-1.20978 -0.408521 2.54 157 163 161
0.232826 0.291591 2.449 168 160 159
-0.559935 0.41346 3.055 48 51 50
0.326319 0.151842 2.731 58 24 12
-0.156476 0.409925 1.085 178 178 180
-0.709185 -0.227106 3.336 125 118 112
0.300497 0.186235 2.78 54 25 13
-0.891197 -0.625191 2.982 147 142 138
-1.11939 0.0352026 2.649 135 136 132
0.497499 0.221971 2.719 63 28 11
-0.455922 -0.291552 3.391 119 108 101
0.808163 -0.611588 2.707 133 130 125
1.03203 0.330583 2.253 86 69 53
0.969474 -0.777456 2.53 131 132 123
-0.179227 0.336579 2.22 136 128 127
1.06891 0.314468 2.269 29 19 5
-1.03846 -0.381466 2.731 153 150 145
0.49296 -0.168881 2.743 56 23 26
-0.250729 0.323561 1.985 32 31 38
0.916387 -0.608878 2.638 133 129 118
-1.25501 0.509241 2.626 117 116 120
0.891514 0.476786 2.136 126 129 128
0.741767 0.124689 2.54 53 22 9
-0.352597 0.400828 1.316 185 191 193
-0.549705 0.000864693 3.198 69 53 48
-0.867806 -0.823762 3.071 145 142 137
-0.483355 0.42785 1.118 93 110 113
-0.34572 -0.268397 3.448 122 112 110
1.12374 -0.81239 2.402 127 127 123
-1.23458 0.591765 2.54 110 116 116
-0.836853 -0.994339 2.831 127 122 120
-0.399632 -1.22112 3.429 104 95 88
0.629714 -0.515297 2.857 135 130 126
0.502102 0.462337 1.203 160 172 174
-1.05805 0.507532 2.831 111 106 104
0.112409 0.414683 1.591 142 149 143
-0.404087 -1.289 3.373 99 92 84
0.677408 0.44687 1.345 0 97 90
-0.230933 0.322479 1.677 190 190 194
-1.30385 0.531795 2.53 109 120 120
-1.11508 -0.775227 2.649 165 168 167
-0.202007 -1.10274 3.391 120 109 102
0.238838 0.266888 1.972 181 180 182
0.298633 0.0555343 2.805 52 23 11
-1.32445 0.42475 2.53 113 121 122
0.422495 -0.60192 2.871 136 127 122
0.522367 -0.428319 2.805 134 129 127
-1.00751 0.39485 2.953 110 108 100
0.398272 0.450126 1.616 156 162 160
-0.874469 0.20583 3.149 104 102 94
-0.605173 0.396417 1.466 192 199 203
0.194373 0.0336323 2.884 31 15 12
-0.951106 -0.266734 2.884 140 137 134
0.517309 -0.0822615 2.684 58 21 7
0.689188 0.475752 2.212 147 147 147
0.147614 0.436419 1.27 183 184 178
-0.332126 0.409043 1.196 153 161 162
0.717526 -0.901441 2.731 127 122 120
-0.724352 0.412895 3.165 44 26 32
-0.396351 -0.386615 3.354 120 113 107
-0.461031 -0.144156 3.429 113 102 95
-1.09031 0.32786 2.831 119 115 108
-0.394224 -0.0153843 3.336 110 100 98
-0.26339 0.35475 3.198 94 89 87
-0.624093 -1.06933 3.102 115 107 104
-0.536927 0.136898 3.215 50 40 38
-1.23177 0.045591 2.509 136 139 142
-0.952449 -0.962384 2.805 154 154 156
-1.20913 -0.172236 2.53 145 151 153
-0.121419 -1.01975 3.301 107 103 96
0.765242 0.0408463 2.469 48 24 10
0.968847 -0.574435 2.561 131 132 123
-1.22724 -0.475526 2.459 179 182 183
1.00242 -0.336922 2.53 130 130 124
0.886571 -0.943704 2.626 125 126 117
-0.232561 -1.24353 3.354 110 101 94
-0.872045 -0.586732 3.086 146 138 137
0.590032 -0.235396 2.638 43 26 28
0.549298 0.464804 1.659 153 159 159
0.00195969 0.355053 2.982 75 53 55
-0.570113 0.389906 1.124 81 95 99
0.40255 0.334279 1.972 145 142 137
-0.113022 0.220607 3.215 130 115 114
0.704956 0.362276 2.469 156 151 147
-0.992919 0.405475 2.996 111 105 107
0.358292 -0.261373 3.04 132 124 123
-0.849149 -0.617563 3.04 142 137 133
-0.485858 0.0917348 3.487 81 69 69
-0.642893 -0.194688 3.248 130 121 116
-0.584027 -0.993184 3.215 111 107 98
0.449871 0.445045 1.289 63 128 126
0.0609771 0.420071 1.535 179 182 183
-0.43154 -0.542497 3.373 117 110 104
-0.948878 -0.00898564 3.011 128 124 125
-1.02038 -0.12207 2.695 121 116 112
-0.373124 -0.55091 3.391 121 112 107
0.88651 0.359927 2.374 50 24 9
-0.850361 -0.257849 3.117 135 125 123
0.113082 0.427955 1.763 106 113 107
0.30593 0.458878 1.194 152 155 158
-0.202844 0.379749 1.439 170 173 172
0.0598638 0.415299 1.342 185 185 187
0.461388 0.445682 1.322 124 156 149
0.49495 -0.533643 2.831 134 129 127
0.452395 -0.449696 2.768 133 131 123
-0.269208 0.344197 1.509 179 179 175
-0.0288321 -1.0653 3.165 130 126 117
-0.360035 0.367933 3.133 88 65 64
0.131613 0.46196 1.182 169 177 178
-0.0707435 0.414421 1.126 179 182 185
0.702025 -0.28626 2.672 125 117 116
0.0341025 0.42519 1.563 172 172 176
-0.826834 -0.842851 3.086 141 135 137
0.635842 -0.829518 2.743 132 122 122
0.823141 -0.70685 2.684 132 127 125
0.62664 0.474738 1.273 158 170 174
0.810868 -0.174692 2.449 21 17 10
-0.767826 0.570548 3.071 140 141 135
-0.993196 -0.746519 2.925 152 152 148
0.567611 0.424711 1.387 0 120 106
0.424121 0.0585135 2.731 58 25 10
-0.317383 -0.204505 3.507 118 110 107
-0.950534 -0.382922 2.911 146 141 139
1.19357 -0.680829 2.449 132 127 123
-0.966497 -0.570849 3.165 147 142 140
-0.957895 -0.999029 2.755 140 142 129
-0.617756 -0.244868 3.283 127 120 112
-0.438704 0.112529 3.429 101 88 77
-0.735155 -1.04111 2.884 121 118 113
-0.621705 0.384725 1.342 190 200 205
1.11394 0.0228583 2.278 29 18 9
-0.606079 0.380908 1.719 182 188 186
-0.767608 0.175565 3.354 97 90 84
0.903505 -0.668978 2.638 129 129 123
-0.598583 0.384819 1.147 78 83 92
0.871655 -0.381921 2.672 128 126 118
1.15753 -0.763307 2.383 133 130 125
-0.0744817 0.422752 1.1 183 189 191
-0.443097 -0.498545 3.336 118 109 104
-0.0759842 -0.680885 3.198 139 134 132
-0.0391361 0.315036 3.165 117 88 94
1.19913 -0.302582 2.42 131 132 121
0.721658 0.236544 2.499 51 26 8
0.279115 -1.09248 3.04 126 126 120
0.9121 0.185056 2.411 49 23 10
-0.817816 -0.373984 3.071 130 121 124
0.288362 -0.164889 3.086 128 118 118
-0.716288 -0.639252 3.198 135 128 122
0.289478 0.361484 1.789 150 153 154
1.0334 -0.0226232 2.383 37 18 5
0.216271 0.342163 1.81 174 173 175
-1.06196 -0.556294 2.593 166 167 161
-0.679683 0.410808 3.149 55 39 36
-0.249794 0.376166 1.262 143 150 144
0.89951 -0.117975 2.43 64 28 9
-0.561711 0.415868 1.073 100 123 128
0.834601 -0.453001 2.707 131 128 125
0.472141 -0.423755 2.805 136 128 125
0.178602 0.130952 2.857 40 21 19
0.21736 -0.757568 3.149 140 135 133
-1.20981 -0.491705 2.44 143 146 147
0.296058 -0.68027 3.011 134 126 123
0.172824 -0.0945824 3.086 47 44 39
0.00691434 0.178093 3.026 68 45 57
0.010854 0.303384 1.959 164 160 163
0.699744 -0.381466 2.731 134 126 123
-1.14035 0.33094 2.818 117 116 116
0.38873 -0.13598 2.898 125 115 113
-1.18163 0.564817 2.818 104 111 105
-0.511004 0.1319 3.354 76 72 61
-0.453502 0.214982 3.373 75 68 60
1.08949 0.326914 2.228 117 112 83
0.646354 0.313055 2.43 164 160 161
0.193657 0.448808 1.247 193 196 197
0.696994 0.443412 1.375 0 87 87
0.862189 -0.579842 2.604 133 128 124
-0.122044 -1.0898 3.318 101 93 92
0.870076 0.512047 2.261 150 150 152
0.0468087 0.311419 1.753 126 127 121
-0.24464 0.374696 1.278 159 160 156
0.644482 -0.00354841 2.615 51 23 6
0.852477 -0.13718 2.42 53 28 10
0.378067 -0.903597 2.925 133 123 121
-0.877093 -0.970927 2.857 149 147 139
-1.01243 0.473731 2.996 106 101 97
-1.26144 -0.297141 2.44 158 161 162
1.22215 -0.270069 2.411 131 132 126
-1.15971 -0.695113 2.53 170 174 169
-0.208248 0.316141 1.865 174 170 175
-0.23522 0.356027 1.595 134 133 135
-0.521563 -0.218156 3.283 120 105 95
-0.775577 0.551068 3.102 33 32 36
0.202844 0.206347 2.871 48 23 14
0.297533 -0.787069 3.026 129 125 126
-1.05109 -0.12207 2.695 122 122 116
0.0165996 0.322592 2.996 48 33 34
-1.17787 0.304825 2.831 118 120 111
-0.858312 -0.834384 3.055 146 144 136
-1.02622 -0.449769 2.884 150 147 144
-1.20722 -0.799655 2.459 176 184 185
0.49971 0.207775 2.707 61 26 9
-0.341754 0.137358 3.354 111 102 97
-0.662403 0.382162 1.372 192 204 210
-1.10646 -0.460539 2.649 160 159 163
0.599283 -0.00360947 2.66 59 24 7
0.0494583 -0.856164 3.231 137 131 133
1.14419 -0.7041 2.489 130 125 121
-0.502917 -0.383317 3.373 110 101 94
-1.33387 0.251825 2.572 136 139 138
-0.18608 0.403522 1.384 166 165 167
0.281668 0.184194 2.818 49 25 13
0.785949 0.489739 1.779 137 141 136
-0.771014 -0.4145 3.231 133 128 124
-1.25313 0.313262 2.561 121 125 118
0.301724 0.44343 1.249 162 171 164
0.858546 -0.775717 2.593 133 128 124
-0.161586 -0.370241 3.354 141 138 133
-0.38491 0.383833 1.378 185 185 187
0.0222364 -0.751309 3.102 135 132 129
-1.14237 -0.606007 2.519 165 168 169
-0.10178 0.398515 1.62 49 43 47
-0.859214 -1.04519 2.844 131 129 121
-0.388033 0.340916 1.758 168 168 162
-0.963456 0.0894555 3.026 127 119 116
-1.18531 0.260944 2.805 125 126 117
-1.10239 -0.678886 2.66 162 166 161
0.688553 0.447657 1.354 0 93 86
-1.18049 0.449294 2.871 114 111 106
-1.16477 0.192907 2.684 130 131 122
-0.687625 0.382032 1.396 192 202 207
-0.834657 -0.985029 2.871 115 116 105
-0.532842 -1.00338 3.354 109 102 96
0.652967 -1.02672 2.857 129 122 114
0.255815 -0.837738 3.181 136 135 137
-0.938515 -0.953087 2.818 157 154 151
-0.156126 -1.15074 3.354 103 93 91
-0.425399 0.428343 1.201 82 94 96
-0.486037 -0.739724 3.448 111 102 93
0.378067 -0.898837 2.925 134 126 123
-0.485858 -0.770789 3.487 110 103 97
-0.362558 -1.16616 3.448 108 101 95
-0.499014 0.402477 1.396 188 196 197
1.04317 -0.450235 2.519 134 134 128
0.559954 -0.394416 2.857 132 129 126
0.630094 -0.0206568 2.626 57 22 7
-1.25533 -0.0277912 2.499 139 145 143
-0.598358 -0.954254 3.354 126 122 115
0.503758 0.328088 2.236 144 137 131
-0.7192 -0.529645 3.165 136 126 126
-1.22249 0.489424 2.755 91 94 93
-0.269749 -0.320931 3.41 126 115 110
0.965511 -0.713841 2.509 131 129 121
0.00908235 0.429202 1.267 140 144 139
0.526467 0.458009 1.302 135 158 154
0.0285701 -0.897668 3.248 135 130 126
-1.24176 0.574107 2.572 91 91 91
-0.307338 0.256054 3.336 99 91 88
1.17156 -0.720024 2.42 125 125 121
-0.464329 0.414072 2.953 47 34 38
-1.14334 -0.258876 2.615 146 146 148
0.804589 0.501118 2.136 145 149 144
0.793364 -0.694993 2.672 127 128 119
-1.2661 -0.75655 2.449 176 182 182
-0.0700481 0.294434 3.165 80 73 82
0.275008 0.246059 2.844 55 30 23
-1.24325 -0.903697 2.459 170 178 175
1.07667 -0.846663 2.54 129 125 118
-0.578794 0.0741154 3.215 30 27 22
0.858706 -0.0631031 2.449 38 20 11
1.09552 0.246143 2.286 41 22 9
-0.475464 -1.06395 3.373 108 101 93
-0.64053 0.388327 3.133 43 36 30
0.310282 0.43328 1.52 178 178 178
0.15192 0.428264 1.289 181 187 185
-1.08407 0.185431 2.768 127 124 119
1.10459 -0.826354 2.42 124 126 117
1.07064 0.0309501 2.329 48 25 6
-0.508434 0.267283 3.41 73 64 59
-0.534462 0.397478 1.305 49 119 154
-0.0609899 -0.66688 3.231 137 132 130
1.0665 0.0534829 2.32 52 26 11
0.963994 0.273892 2.365 49 23 8
-0.613678 0.377206 1.642 146 158 148
-0.0338123 0.313443 3.149 115 88 93
-0.671172 -0.243393 3.336 129 122 114
1.08827 -0.683892 2.519 127 128 119
0.765894 0.50454 2.051 151 158 152
-0.0554545 -1.13968 3.215 121 123 114
-0.79758 0.477426 3.149 80 78 68
-0.610397 -0.880085 3.301 79 70 61
-0.0443621 0.42763 1.108 167 175 174
-0.45307 0.377866 1.516 157 160 159
0.612099 0.221057 2.604 53 22 9
1.18683 -0.356386 2.411 131 131 131
0.692636 -0.219649 2.604 25 17 16
-0.511 0.415185 1.294 84 92 89
-0.755445 -1.03711 3.448 138 130 127
-1.2718 0.281759 2.54 123 127 120
-0.11234 0.412598 1.583 188 188 192
0.341171 0.424121 1.252 10 120 116
0.788655 -0.830333 2.731 129 126 123
-1.31049 0.533582 2.519 108 119 117
-0.222744 0.327937 1.677 187 187 191
0.288065 0.435526 1.4 165 168 167
0.596442 0.302008 2.469 164 160 161
0.193918 -1.0138 3.102 136 136 130
0.350436 0.420989 1.286 136 158 168
-0.380997 0.372948 1.422 190 193 192
0.340168 -0.203005 3.055 129 121 118
-0.908531 -0.251479 3.04 141 137 130
0.547797 0.300759 2.561 163 160 157
0.813354 -0.613262 2.695 132 126 128
-0.759209 -0.427252 3.248 132 124 123
0.924521 -0.52089 2.649 133 129 122
0.526767 0.31896 2.54 162 157 155
0.558439 -0.619033 2.78 136 128 125
-0.685713 0.290184 3.354 64 60 49
-0.474126 -0.00436257 3.215 123 104 98
0.712293 0.253822 2.509 59 43 38
-1.1007 0.151842 2.731 131 131 127
0.214825 0.153497 2.844 52 22 15
0.706814 -0.827442 2.707 133 129 122
-0.61945 -0.5318 3.41 146 135 130
0.158273 -0.743336 3.198 139 136 133
-0.764106 -0.521613 3.117 138 128 126
0.638624 -0.85108 2.755 130 126 119
-0.92934 -0.833856 2.818 142 137 135
-0.14208 -0.481858 3.41 144 133 139
-1.19501 -0.366789 2.509 157 159 165
-0.973717 0.248294 2.982 141 139 131
0.702324 -1.07266 2.831 123 119 108
-0.573599 -0.0748809 3.102 139 125 117
-1.16642 -0.668928 2.509 168 173 178
-0.640182 -0.498585 3.373 138 130 129
0.0134169 -0.054874 3.429 35 32 27
-1.19081 0.271325 2.818 122 123 114
-0.366142 -0.85283 3.429 117 108 103
0.644773 -0.923257 2.743 126 123 118
-0.486231 -1.00903 3.41 107 103 96
1.0959 -0.84113 2.499 129 127 117
0.308407 0.313729 1.887 147 143 144
-0.329059 -0.0805295 3.336 117 107 107
0.747936 0.0744674 2.519 56 23 8
-0.243038 0.397421 1.208 130 140 128
-0.598495 0.381378 1.165 140 154 156
-0.491649 -0.17301 3.448 113 102 95
-0.61577 -0.256954 3.301 132 125 119
-0.707056 0.369575 1.445 184 198 200
-0.395203 0.271312 3.391 80 71 64
-0.247495 0.397072 1.201 133 142 133
0.951936 0.252709 2.383 50 24 9
-0.308605 -0.975736 3.41 119 110 105
-1.16642 -0.750588 2.509 168 174 174
0.858792 0.502756 2.32 115 122 116
1.01793 -0.298644 2.42 131 128 123
0.991047 0.312617 2.338 50 24 9
0.129604 0.420197 1.387 182 187 192
0.147251 -0.923059 3.301 137 131 133
0.861574 -0.603569 2.615 133 131 123
0.421996 0.273813 2.582 161 157 150
1.02142 0.177457 2.312 49 26 7
0.353269 0.262006 2.768 95 86 81
-1.00263 0.43052 2.967 109 104 100
-0.0123151 0.343304 1.646 124 125 116
0.776412 -0.088081 2.479 46 24 14
0.608489 0.459696 1.319 0 72 99
0.525673 0.13058 2.66 57 24 7
0.102084 0.425193 1.22 185 191 191
-0.460754 0.399596 1.319 182 190 191
0.346353 0.426699 1.607 174 176 182
1.10238 -0.763641 2.459 133 128 124
-0.0920067 0.336262 1.734 165 159 161
-0.129931 0.037087 3.696 23 22 26
0.101827 -0.388808 4.061 44 44 48
-0.149305 0.41052 1.167 186 189 190
0.538318 -0.253772 2.793 129 121 118
-0.144007 0.359024 1.682 164 164 168
-0.193107 0.420908 1.339 137 140 141
0.985568 -0.405297 2.572 134 130 119
0.526047 -0.0691583 2.684 52 18 8
-0.806931 0.152908 3.336 118 110 107
-1.32279 0.369613 2.519 119 125 125
1.02695 -0.791901 2.55 128 125 122
0.501948 0.109428 2.672 56 26 10
-1.26211 -0.525401 2.449 167 173 173
-0.942852 0.353802 3.055 116 108 105
-1.12966 -0.546439 2.509 165 165 165
0.984887 -0.91379 2.626 126 126 120
-0.0872871 0.179642 3.231 133 112 111
-0.0385861 0.425927 1.624 121 125 118
-0.513913 0.366242 1.729 155 160 150
-0.0362175 -0.558964 3.373 98 93 89
-0.478002 -0.622648 3.391 110 100 98
-0.413225 0.411076 2.898 54 42 40
-0.19399 0.416448 1.173 175 186 182
-0.788428 -0.328427 3.373 135 125 123
0.814403 -0.855353 2.684 126 123 120
0.812126 0.458711 1.805 155 164 157
0.217676 0.417032 1.463 188 188 190
-0.794111 0.342809 3.283 95 91 84
-0.353268 -0.969478 3.467 117 110 100
-0.312044 -0.924888 3.448 118 111 103
0.427718 -1.07053 2.939 123 119 110
0.150174 -0.538249 3.248 79 79 79
0.683332 -0.291914 2.684 127 119 116
-0.951493 -0.279547 2.871 144 138 142
1.14065 -0.649995 2.499 128 129 125
0.303963 0.429406 1.359 158 159 153
0.273751 0.203472 2.831 52 23 13
-0.580037 0.388107 1.222 145 145 139
0.482084 -0.122613 2.707 31 15 12
0.920209 -0.486403 2.649 135 132 129
0.895555 0.18256 2.43 49 23 8
-1.03374 -0.342872 2.707 146 146 142
-0.571306 0.386519 1.141 71 82 93
-0.629009 0.137579 3.231 71 62 55
-0.155379 0.384824 1.629 62 62 56
-0.322976 0.35469 1.555 149 152 151
1.05776 0.364021 2.107 168 148 79
0.716377 0.229325 2.509 53 23 7
-1.20456 0.105742 2.582 132 131 131
-1.12708 -0.586258 2.54 138 139 135
0.056429 0.428525 1.265 157 163 161
0.833101 -0.419164 2.66 131 132 123
-0.550534 0.424507 1.114 96 118 121
0.153881 -0.956561 3.215 138 130 129
-0.103327 0.4411 1.456 142 151 144
0.0985199 0.42336 1.333 124 127 128
-0.771598 0.35006 3.301 101 93 90
-0.766225 0.0653543 3.301 106 99 91
0.128568 0.410978 1.567 149 153 148
0.135887 0.06297 2.939 37 33 26
0.298547 -0.0805116 2.939 117 107 107
-0.289593 -1.16616 3.448 115 106 97
0.0618541 0.423677 1.21 172 176 171
0.105 0.416017 1.637 167 168 157
-1.27593 -0.139849 2.54 121 117 120
0.329034 0.337398 1.882 127 123 124
0.542993 -0.176757 2.66 36 18 9
0.258127 -1.04313 3.026 132 128 131
1.10708 -0.406873 2.582 134 130 121
-1.22073 0.471827 2.731 109 114 104
0.42708 0.442935 1.265 2 102 93
0.630618 -0.100571 2.593 49 24 15
-1.10909 -0.933139 2.411 178 186 183
-0.10044 -0.625442 3.318 140 134 136
0.714137 -0.184587 2.53 42 28 22
-0.631616 -1.1374 3.165 114 109 105
-0.416377 -0.841669 3.429 115 106 101
-0.929722 0.401588 3.198 104 99 95
-0.900626 0.148701 3.133 120 115 111
-1.04057 0.147639 2.911 142 137 133
-0.674313 0.532775 3.055 28 22 24
0.814403 -0.933973 2.684 127 123 116
-0.105659 0.437882 1.393 186 189 190
-1.04232 -0.367666 2.695 156 148 145
-1.03129 -0.0230088 2.925 132 128 129
0.0296915 -0.362861 4.142 41 42 38
0.250496 0.428472 1.322 156 152 155
-1.17916 -0.338425 2.638 151 154 153
0.801079 -0.567648 2.626 133 128 124
0.720461 0.212993 2.509 52 23 9
-0.19051 0.250666 3.198 130 113 115
-0.590022 0.0220205 3.248 43 37 43
-0.856164 0.147361 3.215 121 116 112
-0.0774951 0.421454 1.092 185 191 193
-0.191273 -0.761905 3.301 115 107 104
-0.378132 0.404777 1.308 169 179 182
0.0453693 0.41828 1.366 163 161 170
1.07028 0.0421567 2.32 56 26 10
-0.413072 -0.8295 3.448 115 108 98
-0.940327 -1.017 2.743 139 135 136
0.99432 -0.245413 2.479 124 121 118
-1.14176 0.0904107 2.755 131 132 123
0.40419 0.466252 1.203 138 144 142
0.59599 0.462157 1.603 150 158 155
0.638813 0.448511 1.324 0 95 110
0.807084 -0.524754 2.604 134 126 125
-1.18049 0.467982 2.871 110 111 107
0.642886 -0.71283 2.793 130 125 121
0.264595 -0.3841 3.429 79 75 78
-0.363593 -0.0864221 3.354 117 107 105
-0.546533 0.393713 1.456 162 176 178
0.154264 -1.21146 3.117 128 125 120
-0.0854508 0.41724 1.262 143 150 144
-0.617379 -0.0095437 3.198 83 69 65
-0.899521 0.0163073 3.165 126 121 119
-0.64785 -1.09863 3.071 113 108 104
-0.0645412 0.349329 1.612 133 134 128
-0.25035 -0.476629 3.373 126 115 110
-0.563206 0.394024 1.26 106 146 173
0.607497 -0.398144 2.884 134 126 123
0.277807 0.284779 2.459 168 158 156
-0.258647 -0.920244 3.41 122 113 106
0.257994 0.274883 2.189 155 154 154
-0.85384 -1.06391 2.857 131 129 121
-0.968483 -0.538173 3.011 149 143 145
0.123581 -0.489672 3.547 52 52 54
0.35831 0.437251 1.579 176 179 182
-0.961581 -0.784362 2.805 155 152 147
-0.427701 -0.0152229 3.301 113 102 95
-0.896951 -0.335587 2.953 145 142 139
-0.815881 -0.339405 3.373 132 125 119
0.165673 0.359225 1.837 179 178 182
-0.577851 -0.206201 3.181 143 127 122
-1.25125 0.576895 2.459 125 126 122
0.612742 -0.732132 2.78 131 124 118
0.149956 -1.1463 3.133 116 117 113
0.00467186 0.433619 1.194 140 143 144
0.416384 0.453126 1.646 162 163 159
0.683704 0.261988 2.509 140 140 134
0.085323 0.424099 1.724 130 134 129
0.299891 0.43411 1.381 169 170 164
0.403651 -0.099664 2.805 56 25 23
0.895121 -0.576194 2.626 132 130 122
-0.949447 0.22403 2.982 106 97 102
-0.0408177 -1.25074 3.301 128 124 117
0.613734 0.199025 2.593 56 22 10
-1.07972 -0.0354401 2.78 134 134 128
-0.914105 -0.798146 2.871 145 145 139
-1.24218 -0.493519 2.449 133 141 138
-0.541589 0.418084 1.141 90 109 113
-0.847552 0.284041 3.283 106 101 97
-1.20036 0.282216 2.582 120 126 124
-0.95433 0.218075 2.967 115 111 104
-0.667722 0.351664 3.266 63 58 54
-0.222923 0.257231 3.215 132 116 121
-1.26034 0.452205 2.593 109 118 111
-1.25827 0.39221 2.615 116 119 118
0.846091 -0.99488 2.66 124 120 121
-0.249014 -0.522679 3.283 125 115 113
0.959694 0.23332 2.383 53 25 8
-1.00752 0.32602 2.939 114 111 106
0.822128 -0.841316 2.695 131 128 123
0.431793 -1.11453 2.967 120 118 110
-0.590257 0.376871 1.629 147 159 151
0.67989 0.492018 1.853 155 161 163
-0.619087 0.387473 1.375 192 202 209
0.441302 -0.48345 2.755 138 128 126
-0.832545 -0.148509 3.165 121 113 110
-1.18899 0.355672 2.66 120 120 114
-0.516321 0.184479 3.318 76 67 62
0.104264 -0.482571 3.301 93 93 97
-0.00748147 0.426689 1.278 143 151 140
-0.974757 0.0193696 2.857 129 125 126
1.14004 -0.263201 2.42 133 128 124
0.85555 0.0324252 2.44 52 21 8
-0.378053 0.40634 1.286 182 188 190
0.733098 -0.527408 2.898 135 130 128
-0.492512 -0.0506492 3.165 133 115 106
0.88562 0.409493 1.848 162 170 171
0.567616 0.476889 2.121 140 140 142
0.698353 -0.708997 2.743 130 125 123
-0.417744 -1.00344 3.487 110 101 94
0.88651 0.38697 2.374 48 27 10
-0.343616 0.393026 1.348 185 193 194
-0.0707785 -0.941095 3.198 133 127 129
0.889969 -0.742105 2.55 132 128 119
0.168475 0.347195 2.695 47 36 29
-0.768345 -0.920278 3.198 79 77 65
1.0394 -0.812649 2.55 129 130 121
-0.71616 0.17368 3.318 57 47 45
0.265046 0.427206 1.516 141 145 140
0.400934 -0.471577 2.818 134 129 125
0.925771 -0.456953 2.604 135 133 125
0.655895 0.433167 1.378 0 85 103
-0.444286 -0.596145 3.429 117 110 102
-1.26347 0.57408 2.499 119 131 121
-1.0173 0.493233 2.996 91 88 83
0.58629 -0.432884 2.805 135 127 124
-1.17517 -0.815068 2.519 177 180 181
-1.15307 -0.7041 2.489 167 175 172
0.766146 -0.199415 2.459 32 16 13
-1.21548 0.258618 2.78 126 126 120
-0.791199 -0.965107 2.953 141 138 133
0.34017 -0.797867 3.011 130 125 121
0.859966 -0.76793 2.499 126 126 120
-0.644809 0.381826 1.387 192 204 210
0.0285701 -0.945238 3.248 134 130 131
0.97368 -0.260632 2.509 124 122 114
0.0426029 -0.457807 4.087 43 44 38
-0.103611 0.436064 1.366 185 188 191
0.519613 0.460041 1.642 155 158 161
-0.513157 0.419295 1.165 85 102 103
-0.0292241 -0.21506 3.906 36 36 36
-0.278213 0.41772 1.182 186 189 188
-0.164822 0.329472 1.758 158 157 161
-0.419621 -0.87585 3.41 108 103 101
0.916594 0.288697 2.392 48 19 7
0.681644 0.481836 2.143 157 160 161
0.950385 0.402781 1.887 160 171 169
0.539686 -0.881108 2.898 132 124 121
-0.877665 0.151786 3.198 112 103 98
0.298409 -0.837829 3.086 135 127 126
0.994852 0.28218 2.338 51 28 7
0.31231 -0.146911 3.026 125 117 114
-1.2072 -0.815434 2.411 178 189 189
0.569545 -0.688432 2.768 132 127 123
-1.24962 -0.811422 2.365 180 191 191
0.267593 -0.248937 3.198 130 122 119
0.527891 -1.0177 2.911 129 122 116
-0.168888 -0.186704 3.391 141 132 137
-0.959155 -0.212712 2.982 151 145 147
0.0893758 0.430583 1.265 183 186 187
-1.00702 0.563734 2.582 107 110 111
0.672555 0.446604 2.303 156 153 150
1.18827 -0.485735 2.43 132 133 129
0.568561 -0.22681 2.638 40 24 29
0.386852 -0.449769 2.884 135 127 124
0.237344 0.465477 1.201 171 179 178
-1.23124 -0.419503 2.459 163 166 169
-0.393106 0.231449 3.373 88 79 72
1.03871 -0.471325 2.479 130 131 127
-0.00352437 -0.129012 3.631 38 39 35
-0.963238 -1.03449 2.707 140 140 134
-0.12833 0.352174 1.729 140 146 146
-1.17809 0.0673739 2.561 136 136 132
-0.281698 -0.664976 3.354 125 115 113
0.0712597 -0.493398 3.266 129 120 123
-0.762928 -0.529389 3.133 138 128 126
-1.06342 -0.843376 2.66 145 148 151
-1.06387 -0.60368 2.672 158 155 152
-0.458993 -0.394295 3.373 115 107 104
0.461028 -0.149234 2.793 90 66 70
0.981661 -0.31496 2.519 130 130 124
0.66085 -0.575105 2.831 136 128 127
1.00232 -0.422039 2.572 132 133 122
-0.309487 0.323201 3.301 90 80 80
-0.0457014 -1.2109 3.266 90 82 81
0.571788 0.338024 2.383 161 155 157
0.334492 0.446441 1.213 134 147 144
0.442079 0.35046 1.991 170 169 171
0.48872 0.450886 1.27 127 149 150
0.127416 -0.524081 4.034 47 47 47
0.752001 -0.676469 2.793 131 127 130
-1.25289 0.478765 2.695 102 104 112
-1.16734 0.316714 2.66 123 123 123
-0.15701 -0.399783 3.373 144 138 140
-1.24975 0.562428 2.615 108 111 110
-1.2179 -0.0803354 2.489 138 141 142
0.293207 -0.450494 2.982 137 124 128
0.534097 0.465789 1.26 2 123 118
0.754207 -0.5966 2.719 136 128 127
-0.45074 0.43981 1.222 84 95 95
0.0692373 0.188213 2.953 31 19 17
0.388959 -0.473752 2.831 134 129 127
0.476668 0.461688 1.26 0 111 98
-0.266802 0.352881 1.305 177 181 176
-0.364954 0.415113 1.208 188 196 195
-1.12339 0.000741667 2.743 136 138 129
1.0348 -0.691949 2.489 128 129 123
-0.79167 -0.511403 3.086 130 122 119
-0.117768 0.408567 1.12 181 184 187
-0.906863 0.137134 3.102 119 116 113
0.363756 0.444475 1.516 159 158 158
1.07676 -0.422579 2.55 132 129 124
1.12011 -0.152364 2.411 119 120 114
-1.23075 -0.917445 2.411 101 105 100
-1.069 0.280279 2.911 118 118 112
-0.889217 -0.00944522 3.165 129 120 115
0.755224 -0.990062 2.755 126 121 117
-0.306023 0.409174 1.102 177 182 189
1.17573 -0.142345 2.312 125 126 122
0.475767 -1.06034 2.911 129 122 116
-1.23398 0.114146 2.582 120 115 113
-0.196646 -0.971405 3.301 123 112 103
0.843334 0.464987 1.784 142 148 146
0.0230377 0.427368 1.141 149 157 146
1.17117 -0.690407 2.469 128 126 118
0.524826 0.36932 2.158 142 142 142
-0.189954 -0.136312 3.373 135 126 129
0.324634 0.028026 2.793 55 26 16
-0.22153 0.413144 1.075 131 137 137
-0.990032 -0.538133 2.649 158 154 157
0.187026 0.282315 2.037 181 180 180
0.565369 -0.0342163 2.684 64 28 7
0.944476 -0.00708466 2.374 47 26 9
1.04274 -0.479393 2.479 131 132 126
-0.519122 -0.237964 3.336 115 99 92
-0.23218 -0.222277 3.429 106 95 90
0.599878 0.464691 2.228 134 134 130
-0.202713 0.414259 1.106 145 153 152
0.899211 -0.355597 2.638 129 124 120
-0.0932845 0.32992 2.004 146 143 138
0.305343 0.264827 2.03 133 134 130
-1.26135 -0.179157 2.402 148 154 156
-1.33381 0.467763 2.54 114 117 116
1.07858 0.107164 2.338 37 22 12
0.151034 0.370591 1.805 136 130 132
1.14243 0.24713 2.261 41 22 5
-0.749976 -0.882453 3.231 100 98 86
-0.134057 0.411713 1.104 181 187 189
0.553913 -0.266163 2.78 127 122 118
-1.01185 -0.829147 2.684 147 147 143
0.638443 0.336782 2.43 162 159 156
-1.02846 -0.896697 2.626 96 96 90
-0.474644 0.430694 1.102 96 113 116
0.268619 -0.204127 3.149 128 123 121
0.506482 -0.230637 2.844 125 120 118
0.871209 -0.754619 2.593 131 129 117
0.298061 -1.01341 2.982 127 126 128
-1.1225 0.0562638 2.626 131 134 135
0.306763 0.175593 2.755 58 24 14
0.280483 0.368958 1.769 152 149 144
-1.06018 -0.435381 2.707 152 152 148
0.759932 -0.510648 2.857 134 129 127
-0.287674 0.357181 1.313 142 138 139
-1.2445 0.42446 2.604 119 122 123
-0.66768 -0.0197462 3.165 86 72 66
0.89375 0.00840018 2.383 50 24 9
-0.600754 0.381605 1.673 154 162 161
0.834749 0.508137 2.151 148 152 147
-0.187524 0.320464 1.966 166 166 170
0.530251 -0.881108 2.898 127 122 118
-0.950534 -0.643466 2.911 144 143 145
0.461388 0.447834 1.322 131 157 155
0.537869 0.464206 1.213 24 128 124
-1.26144 -0.471851 2.44 164 170 172
0.259296 0.436362 1.456 183 186 187
-0.240156 0.384972 1.244 141 148 140
1.066 -0.326135 2.449 132 132 126
-0.289295 0.399312 1.196 185 188 187
-1.17265 -0.273652 2.479 154 155 151
-0.430798 0.40476 1.281 188 196 197
-0.780973 0.222276 3.318 103 93 93
0.0156824 -0.272854 4.008 41 40 40
-1.17042 -0.836257 2.449 156 162 160
-1.20981 -0.487734 2.44 134 137 136
1.06041 -0.0418542 2.374 78 59 55
-0.302199 0.408638 1.178 180 183 182
0.83278 0.154242 2.42 46 20 7
0.446832 0.181344 2.707 58 25 8
0.87375 0.417156 1.842 160 168 167
0.730124 0.4942 2.092 158 161 164
-0.960496 -0.257347 2.884 139 139 135
0.389781 -0.120697 2.871 119 103 98
-0.836881 -0.265328 3.086 132 124 123
-0.41273 -0.506693 3.354 121 112 103
0.535813 0.470603 2.078 130 130 130
-0.341754 -0.364783 3.354 125 116 111
-0.163509 -0.789805 3.283 90 82 79
-1.18143 -0.663596 2.489 167 173 175
0.403797 -0.903139 2.939 129 124 120
0.9834 0.267988 2.347 46 22 6
0.764413 0.494147 2.121 150 151 147
-0.90137 -0.828489 2.831 134 134 128
-0.906174 -0.557119 3.117 144 139 135
-0.323159 0.391701 1.336 181 187 187
-0.969245 0.2208 2.939 106 101 97
-0.142133 -0.709668 3.283 118 114 115
0.184629 0.440886 1.283 185 191 189
-0.25035 -0.95417 3.373 115 110 108
0.0883871 0.410743 1.378 167 170 171
0.464208 -0.263312 2.898 131 123 122
-0.450877 0.443952 1.217 87 98 98
0.788518 -0.0195005 2.479 39 21 12
1.1304 -0.619583 2.459 129 129 123
-0.959155 -0.445642 2.982 149 144 142
-1.18879 -0.685135 2.479 172 175 174
-0.993739 -0.483314 2.78 133 133 129
0.581074 0.453436 1.345 0 95 98
-0.597453 0.0902579 3.231 62 50 48
-0.0550068 -0.536288 3.931 39 38 38
-0.322679 0.376199 3.117 80 72 71
0.333813 0.438896 1.225 41 97 96
-0.955272 -0.65294 2.911 150 146 147
0.393955 0.154913 2.707 55 24 13
0.593829 0.397883 2.303 148 145 142
-0.5201 0.419463 1.275 89 96 104
-1.26347 -0.0277912 2.499 140 146 144
0.829683 0.420465 2.411 38 20 9
-0.962407 0.54602 3.102 100 95 91
-1.0712 -0.495 2.626 158 157 157
-0.937915 -0.577746 2.844 131 132 123
0.00758156 -0.522852 3.318 150 147 142
0.0929287 -0.100121 3.102 38 22 17
-0.312405 -0.341216 3.391 121 114 108
0.00420624 0.420141 1.075 173 167 169
0.568561 -0.222517 2.638 43 23 24
1.0348 -0.501579 2.489 130 130 124
0.379665 0.0629577 2.731 58 24 12
-0.29874 -0.563148 3.301 124 117 111
0.744499 -0.331223 2.684 127 124 119
0.733862 -0.198592 2.499 30 16 12
-1.12677 -0.324066 2.626 150 150 154
-0.539843 0.434156 3.026 42 30 28
-1.21505 -0.791893 2.411 176 187 185
1.09117 -0.511666 2.479 131 130 130
0.445394 0.419324 1.935 67 66 68
-0.577164 0.34419 3.149 53 60 54
-1.2418 -0.785028 2.402 176 187 187
0.823879 0.479273 1.805 130 138 135
0.789015 -0.36018 2.672 129 124 122
-0.654881 -0.672265 3.336 133 123 121
-0.141396 0.404327 1.591 152 162 165
-0.505077 0.3873 1.524 126 133 125
0.293386 -0.842851 3.086 137 129 128
0.601915 0.21348 2.615 53 22 9
-0.587439 -0.714099 3.354 141 134 128
0.998658 0.179453 2.338 54 25 11
-0.5141 -0.807056 3.448 113 106 100
0.615164 -1.07918 2.898 123 118 114
0.799339 -0.638883 2.768 135 128 122
-0.410585 0.353082 1.505 189 188 190
-0.321883 0.324866 3.318 89 81 78
0.862189 -0.851046 2.604 129 125 116
0.697716 -1.05884 2.831 126 122 113
-1.15912 0.210539 2.743 126 126 120
-1.07323 -0.983313 2.53 170 172 182
-1.24768 0.182147 2.593 129 133 126
-0.811265 -0.275489 3.266 132 125 119
0.207897 0.40321 1.65 174 173 173
-0.23522 0.358623 1.595 132 128 131
-1.21906 0.140544 2.604 147 150 151
0.142303 0.432929 1.278 170 177 169
1.02865 0.185969 2.278 44 23 8
-1.15651 -0.0114322 2.479 135 141 141
0.0737369 -0.189189 3.652 41 41 43
-0.0661998 0.155038 3.507 47 47 47
-0.310747 -0.833413 3.373 122 108 102
-0.0952782 0.318117 2.121 160 156 161
-0.0531212 0.411659 1.227 167 171 166
0.213645 0.455719 1.222 190 197 201
-0.894963 -0.812567 3.011 143 140 135
0.413148 -0.550527 2.871 133 128 126
0.106101 0.418799 1.375 127 127 123
-1.02516 -0.209055 2.743 155 154 154
0.294067 0.215297 2.805 53 27 16
1.05098 0.364186 2.128 165 147 86
-0.118844 0.195416 3.231 137 116 123
1.19222 -0.592504 2.43 132 127 125
0.270444 0.451593 1.227 167 170 171
1.06085 -0.873268 2.582 128 126 118
-1.03342 -0.668904 2.672 155 156 152
-0.751747 0.364872 1.445 189 203 205
-1.03806 -0.073526 2.684 136 136 130
0.308284 0.387764 1.7 147 150 149
-0.0694048 0.444425 1.491 173 173 173
-0.214554 0.416968 1.225 133 138 124
0.207393 0.404911 1.646 168 169 165
0.887482 0.412304 1.917 153 160 154
0.745147 0.249776 2.469 101 82 76
0.864384 0.475758 2.071 140 147 141
-1.30528 0.0782548 2.509 138 141 140
-1.23499 -0.0359246 2.499 141 144 143
-0.832245 -0.998946 2.831 126 128 119
-1.10722 -0.561932 2.561 167 167 167
-0.150666 -0.621312 3.354 132 124 121
-1.2455 0.53264 2.615 110 114 109
-0.115412 -1.03556 3.283 116 108 107
0.461551 -0.6861 2.911 131 122 125
0.390473 -1.02718 2.911 124 121 116
0.187894 -1.03368 3.086 134 130 131
0.928756 0.404062 1.893 157 165 164
0.580324 -0.277219 2.755 127 122 118
-0.596257 -0.509563 3.373 142 133 128
-0.493479 0.422752 1.1 99 110 119
-0.28262 0.23188 3.301 104 97 89
0.501853 -0.758243 2.844 130 124 126
-0.156126 -0.332035 3.354 142 138 141
-0.802819 -0.538903 3.071 129 126 123
0.981829 -0.328687 2.53 131 128 123
-1.14879 0.553082 2.805 105 105 105
0.228081 -0.129736 3.086 93 88 86
0.257354 0.291474 2.707 160 157 154
-1.04579 0.340368 2.939 116 112 105
0.352769 0.348817 1.911 150 146 151
-0.556779 0.401217 1.283 113 159 181
0.493073 0.226395 2.719 61 26 11
-0.489002 0.445277 1.194 85 102 103
-0.0767682 -0.898227 3.231 137 129 126
-0.541185 0.407118 1.152 90 104 108
0.375093 -0.405736 2.939 137 127 127
-0.684259 -1.00839 3.055 120 113 107
-0.176362 -0.0213933 3.429 127 123 124
-0.446762 0.430606 2.871 42 27 28
-0.294878 0.233075 3.318 88 80 77
0.444002 0.460826 1.189 158 171 168
1.04946 -0.222155 2.402 125 126 117
-0.0632564 0.425555 1.313 143 144 140
0.757724 -0.529554 2.884 135 129 131
0.662268 -1.07786 2.857 124 122 114
-0.586778 0.388181 1.135 62 68 70
-0.714862 -0.469998 3.215 128 121 115
-0.82531 -1.07847 2.871 129 126 121
-0.552333 -0.7401 3.373 131 123 120
1.13901 -0.626121 2.469 131 129 121
-1.31228 0.138943 2.499 148 151 150
-0.238131 0.386996 1.244 141 149 138
0.530416 0.000725715 2.684 63 28 11
0.359022 -0.917877 2.925 127 122 120
-0.0820277 -1.11906 3.231 123 117 119
-0.224087 -1.20207 3.391 115 106 97
-0.181395 0.392593 1.535 150 154 149
-0.0487971 0.344082 1.612 135 137 128
-0.546274 -0.8297 3.336 124 117 107
-1.16141 -0.186849 2.561 143 146 147
0.227427 0.335343 1.805 174 174 176
0.0710846 0.425666 1.719 116 116 118
-0.500363 0.397329 1.333 188 198 201
0.650649 -0.814556 2.768 130 125 121
0.0708123 0.41351 1.104 172 178 178
-1.01598 -0.484384 2.638 154 151 148
-0.184711 0.40965 1.128 183 186 187
-0.178973 -1.11884 3.373 115 107 104
-0.0280119 0.436498 1.624 113 119 117
-0.912232 0.151493 3.086 121 116 112
-0.90384 -1.00374 2.768 130 130 124
0.943886 0.497073 2.402 46 29 11
0.557276 0.442268 1.351 0 121 108
-0.822815 -0.818764 3.071 141 138 133
-1.01232 0.3516 2.953 114 109 107
-1.2178 0.202479 2.638 126 127 123
-1.09031 0.318646 2.831 120 118 110
1.02495 0.311685 2.303 45 26 13
0.0416016 0.4179 1.092 186 192 194
0.433613 0.256232 2.707 56 34 26
0.221421 0.279521 1.905 140 139 139
0.225108 0.247184 2.857 46 25 22
-0.905509 -0.943368 2.844 153 150 147
0.408984 0.443235 1.26 0 107 99
0.264957 0.427499 1.319 141 137 140
-1.31635 0.342278 2.499 126 126 130
-0.508434 -0.997932 3.41 107 103 96
-0.74632 -0.46035 3.149 125 120 116
0.888677 -0.436049 2.684 133 128 124
-1.19678 -0.159884 2.53 143 146 147
-0.426352 0.411331 1.232 122 120 134
0.493108 -0.0869843 2.695 64 27 13
0.883688 0.230013 2.43 49 23 8
0.355234 0.46821 1.203 145 158 155
-0.577851 -1.0448 3.181 113 109 100
-0.831857 -0.832807 3.086 144 139 135
1.01907 -0.875919 2.615 126 127 116
-1.0516 -0.30457 2.719 150 147 144
-1.01202 -0.240137 2.793 135 130 126
0.663358 0.454873 1.33 0 93 103
0.824355 0.14697 2.43 52 23 9
-1.09194 -0.94332 2.479 172 178 178
-1.21283 0.240952 2.684 145 152 144
0.989845 -0.453989 2.54 133 134 125
-1.16792 -0.00736817 2.469 138 138 140
-1.24045 -0.371057 2.43 165 168 171
0.354261 -0.64656 2.925 135 125 123
-0.746653 -0.988996 2.967 122 114 111
0.365247 0.428287 1.633 180 183 186
-1.10812 -0.793074 2.695 163 166 167
-0.296192 0.350563 1.362 183 179 184
-0.773459 -0.92553 2.996 141 136 132
-0.497596 -0.105414 3.266 119 103 96
0.415987 0.150508 2.707 54 24 8
-0.592824 0.386283 1.52 127 135 136
-1.18497 -0.148116 2.54 141 144 147
-0.571997 0.388181 1.135 70 74 86
0.264534 0.17583 2.831 47 20 12
0.0801128 0.429202 1.249 186 189 190
0.758449 0.491965 2.204 144 147 146
0.90238 -0.401849 2.66 132 127 123
0.316633 0.270271 1.997 147 148 142
-0.57356 0.152593 3.215 32 25 17
-1.04535 0.156412 2.898 135 126 121
-0.974579 0.0758713 2.884 124 124 120
-1.18072 -0.467291 2.479 175 174 176
0.195237 0.420157 1.612 111 112 106
0.504216 -1.09274 2.884 121 117 108
-0.673038 -0.854809 3.266 106 99 89
0.34445 -0.0547685 2.844 36 13 12
0.526341 0.445869 1.362 0 122 104
-1.04212 -0.668904 2.672 159 160 156
1.15411 -0.828471 2.392 124 129 119
-0.720471 -1.02749 2.939 125 118 112
0.00290192 0.428152 1.27 143 147 142
-1.13179 0.309432 2.831 125 120 118
0.393635 0.458831 1.225 155 170 167
-0.339803 0.418469 1.137 159 169 176
0.834193 0.228756 2.459 48 24 10
0.883991 0.118798 2.42 49 23 10
0.571222 0.465579 1.265 62 139 124
-0.265287 0.355821 1.308 181 177 178
-0.437711 0.338934 1.664 158 158 158
0.831879 -0.929605 2.684 129 124 120
-0.00430041 0.399045 1.655 98 100 91
0.064227 -1.19492 3.181 96 88 87
0.371895 0.29302 1.997 122 126 121
-0.567409 -0.998264 3.301 108 100 97
0.775966 -0.990672 2.672 129 122 116
0.00742161 -0.998093 3.248 134 131 128
-1.13182 -0.234806 2.731 127 127 123
0.262943 0.456958 1.22 164 170 172
-0.941057 -0.283442 2.911 142 138 139
-0.980902 -0.902715 2.695 101 98 95
0.437212 0.43873 1.327 53 128 121
0.375093 -1.06575 2.939 125 118 112
-0.0334689 -0.124562 3.674 30 30 24
0.916387 -0.402819 2.638 132 128 121
-1.10305 -0.870334 2.561 166 174 175
0.682402 -1.0637 2.844 122 120 110
0.388172 0.464258 1.208 127 134 128
-0.626797 0.383696 1.316 178 190 192
-0.298077 -0.828718 3.354 124 113 106
-0.890738 -0.956996 2.871 152 148 149
0.348339 0.362861 1.887 129 130 126
0.770151 0.499269 2.099 151 152 148
-1.13105 -0.294152 2.626 153 153 149
-0.0491901 0.267323 3.149 108 91 91
0.348395 -0.256426 3.04 131 123 122
0.430518 0.450361 1.257 0 113 103
-1.03476 -0.440122 2.793 152 152 148
-1.13233 -0.447606 2.649 155 158 157
0.464458 0.0403785 2.707 60 25 8
0.612273 -0.0252529 2.66 57 21 9
-0.026287 0.441861 1.524 190 193 196
-0.281025 0.358426 1.302 140 139 141
-0.332709 0.12167 3.373 110 98 98
1.01946 0.398243 2.071 167 141 83
0.53205 -0.924434 2.857 132 124 123
-0.869867 -0.718129 3.026 148 145 140
-0.395203 -0.716458 3.391 114 110 103
-0.113455 0.308301 2.278 165 161 162
0.542107 -0.809266 2.911 134 126 125
0.303039 0.270097 1.972 167 167 167
-0.723165 0.36824 1.449 187 201 207
1.05731 -0.301457 2.411 130 131 122
-1.10374 -0.0562848 2.695 137 137 139
0.476791 0.464075 1.239 127 164 155
0.750879 -0.893519 2.707 128 126 118
-0.523364 0.411656 1.283 81 90 102
-0.3122 0.372452 1.345 136 135 137
-1.01712 0.433294 2.953 110 108 100
-0.197659 -0.836022 3.318 120 113 107
-0.0609899 -1.00864 3.231 132 129 126
-0.236743 0.0877623 3.336 111 103 102
0.843414 -0.823036 2.707 130 126 119
-0.0865681 0.435594 1.494 154 155 151
0.841761 -0.362891 2.66 128 125 122
0.212191 0.206347 2.871 49 22 14
-0.1405 0.427074 1.473 142 149 143
-0.657089 0.0168276 3.266 111 100 91
0.0595782 0.406741 1.71 130 130 132
0.173951 0.335521 2.857 41 22 16
0.369007 -0.766895 2.967 132 125 119
-0.900346 -0.966277 2.857 151 147 140
0.107877 -1.16195 3.248 126 123 118
0.539249 0.455772 1.339 12 59 56
1.05485 -0.491496 2.479 131 131 127
0.280493 -0.138376 3.055 124 114 114
-0.198731 -0.748268 3.336 118 110 109
-0.988282 -0.450919 2.953 147 144 141
-0.301223 0.342409 1.629 98 98 94
0.867995 0.445476 1.799 167 179 171
0.0127087 -0.638675 3.248 142 133 136
-0.477363 0.428122 1.1 97 114 117
0.641958 0.484676 1.848 156 159 160
0.568441 0.469714 1.769 150 153 152
-0.660311 -0.373683 3.336 135 125 125
0.427718 -1.06575 2.939 122 118 109
-0.109248 -0.0518814 3.609 27 24 19
0.106505 0.449587 1.16 124 138 129
-0.321883 0.319466 3.318 93 83 83
0.877657 0.0551427 2.392 49 23 8
-0.0439796 0.412097 1.145 142 146 139
-0.579786 -0.569942 3.373 135 133 125
-1.11446 0.134655 2.743 148 153 143
-0.231776 -0.546547 3.266 125 115 113
1.08868 0.053091 2.303 61 29 9
-0.92005 0.522639 2.43 108 103 101
-0.356434 0.382162 1.372 186 189 190
-0.256934 0.34444 3.248 64 59 71
-0.168057 0.417035 1.384 178 179 175
-1.10417 -0.60693 2.593 163 162 162
-0.251442 0.316765 1.705 190 189 191
0.169486 -1.18609 3.117 91 92 88
0.168685 -0.509147 3.198 150 147 144
1.19713 -0.690239 2.44 125 127 118
1.07932 0.335367 2.143 113 95 61
0.359022 -0.575161 2.925 133 128 124
0.859459 0.491278 2.374 43 25 14
-0.752728 -0.0355647 3.198 115 111 104
-0.377305 -1.22112 3.429 105 96 89
-0.599635 0.389062 1.327 94 103 115
-0.153946 0.410234 1.145 186 189 190
-0.965513 0.0147925 2.871 129 126 123
-0.483358 0.14043 3.429 75 68 60
-0.379396 -1.03711 3.448 113 106 96
0.53043 -0.822678 2.925 132 124 123
-0.688695 -0.114232 3.215 114 110 103
-0.484221 0.44699 1.173 91 108 111
-0.708868 -1.04612 2.911 122 117 113
-0.11323 0.383111 1.633 146 146 150
0.848088 -0.12193 2.43 57 21 9
0.789892 0.115001 2.509 52 23 9
0.112572 -0.498627 3.231 149 140 143
-1.05007 0.2413 2.898 137 138 129
-1.27261 -0.121811 2.509 163 171 172
-0.287993 0.0277516 3.301 117 105 103
-0.909825 0.4644 3.165 91 86 84
0.152206 0.466224 1.208 181 189 186
-0.627854 -0.0391499 3.071 140 126 118
0.0687069 -0.711448 3.149 138 135 130
-0.664601 -1.11146 3.011 114 111 106
-0.52697 0.397375 1.435 189 197 198
-0.379972 -0.080964 3.354 117 106 101
0.611391 0.476433 2.166 167 167 167
-0.258358 0.28257 3.266 127 114 118
-1.21872 -0.458861 2.499 166 167 163
0.733873 -0.258876 2.615 54 33 30
-0.576298 0.392022 1.294 116 165 189
-1.05719 -0.970356 2.561 168 175 169
0.732077 -0.764739 2.719 132 129 124
0.82591 0.4766 1.784 123 131 130
0.477825 -0.864192 2.953 131 124 116
0.642886 -0.803733 2.793 134 126 123
-0.343747 0.342488 1.655 165 165 167
-0.829582 0.297868 3.318 107 100 94
-0.225342 -0.243242 3.41 102 91 95
-0.15152 -0.515052 3.373 139 135 138
-0.707551 -0.28837 3.354 129 121 118
-0.569493 -0.60394 3.41 132 124 123
-1.17669 -0.0437053 2.479 140 141 135
-1.2472 -0.0318579 2.499 138 141 140
-0.939739 -0.173891 2.982 137 129 126
0.621581 -1.07397 2.884 125 121 114
0.867952 0.43815 1.805 168 179 177
0.333072 0.304067 1.923 165 164 164
-0.656469 0.38332 1.286 138 148 155
-0.855286 -0.994339 2.831 122 118 119
-1.13037 -0.892744 2.44 96 99 100
-0.353862 0.414121 1.073 94 106 110
0.190673 0.416144 1.494 170 173 176
0.516146 -1.01308 2.925 126 123 118
0.659346 -0.578953 2.805 137 129 128
0.569255 -0.859344 2.857 133 124 117
0.902101 -0.490627 2.672 134 129 127
-0.68861 0.374921 1.412 194 201 205
-0.649821 -0.934053 3.283 132 125 117
0.497229 -1.03202 2.898 124 121 116
0.102398 0.235148 2.939 23 13 11
-0.933628 -0.768598 2.831 152 149 146
0.394084 -0.209881 3.011 126 121 119
-0.896374 -0.332349 2.967 143 140 137
0.0183837 -0.625442 3.318 142 137 135
-0.339274 0.393229 2.871 71 29 15
-0.452926 -1.05342 3.41 104 95 88
0.64368 0.217407 2.561 52 23 11
-1.03962 0.0330142 2.831 132 129 124
-0.860424 0.389958 3.231 95 90 86
-0.159853 0.344511 1.705 163 160 155
-0.307925 0.349442 1.543 167 167 167
-1.25401 0.447531 2.615 110 116 116
0.977138 -0.555369 2.55 135 131 120
0.40605 0.431275 1.324 11 121 115
-0.042209 -0.427538 3.931 40 39 39
-1.19359 -0.614991 2.489 164 170 170
-1.09308 -0.0262782 2.768 132 133 129
-0.254909 0.369409 1.267 141 145 140
-0.567737 0.388277 1.192 92 104 110
1.1808 -0.809842 2.383 124 125 119
-1.21391 -0.185317 2.54 143 149 149
-0.756572 -0.470599 3.149 127 118 121
-0.16389 0.43186 1.281 156 163 155
0.0493881 0.428713 1.487 188 188 190
-0.514971 0.396224 1.39 188 195 199
-0.113279 0.43849 1.432 149 152 151
-0.964009 0.272557 2.982 118 113 111
-0.620513 0.3818 1.178 160 172 178
-1.18797 -0.395734 2.707 154 153 153
0.807121 -0.587983 2.66 134 129 125
0.9834 0.172505 2.347 51 26 8
-0.260107 0.402945 1.09 96 94 108
-1.00274 -0.819697 2.755 157 160 161
-0.0286863 0.272448 3.149 109 73 75
0.835652 0.491183 2.01 153 161 158
-1.069 0.517137 2.911 105 104 104
0.0964821 -0.434157 4.115 44 44 44
0.927799 0.106586 2.411 46 25 10
-0.0715088 -1.1138 3.231 127 122 120
0.157136 -0.560077 3.283 29 29 33
-0.969488 0.176062 2.911 123 118 114
-1.04718 -0.384214 2.719 152 149 144
1.19735 -0.37748 2.347 132 132 126
-1.0392 0.174215 2.805 125 125 121
-0.136529 -0.426366 3.41 124 123 127
-0.486446 -1.03102 3.373 109 102 94
0.202199 0.436821 1.302 188 191 192
0.168955 -0.523494 3.931 51 52 48
0.742176 0.398406 2.42 151 142 135
-0.783249 -0.999045 2.871 127 122 120
0.691078 0.498046 1.935 169 175 173
1.05222 -0.916177 2.561 124 125 119
-0.622037 -1.05421 3.117 116 108 105
-0.824763 -0.360129 3.215 128 123 121
0.661047 -0.608983 2.755 136 129 123
-0.134479 0.360099 1.7 169 170 166
-0.0533919 0.407217 1.147 140 147 139
0.378009 0.441744 1.466 161 168 162
0.539253 0.433167 1.378 0 106 117
-0.364556 -0.185247 3.467 119 109 107
0.728316 -0.940746 2.755 128 123 119
-0.486231 -0.637235 3.41 111 102 97
-1.27567 -0.105058 2.499 145 148 147
0.89951 -0.0626135 2.43 45 30 20
