ply
format ascii 1.0
comment Created by Open3D
element vertex 1292
property double x
property double y
property double z
property uchar red
property uchar green
property uchar blue
end_header
-0.27666 -0.0605501 1.876 255 255 255
0.334492 -0.202069 0.888 255 255 255
-0.0342287 -0.267695 1.267 255 255 255
-0.283823 -0.287843 2.037 255 255 255
0.0175204 0.270713 0.803 255 255 255
0.462036 0.120912 1.09 255 255 255
-0.0211417 -0.433478 1.12 255 255 255
0.369488 -0.228142 0.771 255 255 255
0.449003 0.396037 1.192 255 255 255
-0.0369036 0.134833 0.766 255 255 255
-0.36924 -0.269795 2.051 255 255 255
-0.00477105 0.274759 0.815 255 255 255
-0.211542 -0.055592 0.623 255 255 255
-0.21372 0.138616 0.727 255 255 255
0.0875812 -0.152996 1.135 255 255 255
-0.243909 -0.0143178 0.636 255 255 255
-0.0188228 -0.0708437 1.753 255 255 255
-0.978853 -0.724352 2.489 255 255 255
-0.275903 0.247302 0.748 0 0 0
-0.256661 0.00121833 0.642 255 255 255
-0.0794043 0.170518 0.805 255 255 255
0.171067 0.164268 0.573 255 255 255
0.0622455 0.256046 0.79 255 255 255
-0.0286307 -0.346759 1.205 255 255 255
-0.347858 0.210024 0.697 255 255 255
0.516763 0.245753 1.278 255 255 255
-0.259021 -0.0222068 0.625 0 0 0
0.332014 -0.201754 0.893 255 255 255
0.280434 0.118414 1.48 255 255 255
-0.0544394 0.172923 0.804 0 0 0
0.0231993 -0.242763 1.149 255 255 255
0.0600347 -0.343376 1.072 255 255 255
0.462119 0.406031 1.176 255 255 255
0.274192 0.00697631 1.354 255 255 255
-0.240088 -0.0891334 0.603 255 255 255
-0.393597 -0.503113 1.595 255 255 255
-0.197282 0.291403 0.844 255 255 255
-0.0455928 -0.434298 1.187 255 255 255
-0.903814 -0.776395 2.54 255 255 255
0.0815392 0.157311 0.623 255 255 255
0.466048 0.222311 1.299 255 255 255
-0.812906 -0.832596 2.338 255 255 255
-0.240068 0.21493 0.754 255 255 255
0.098234 0.0913536 0.675 255 255 255
-0.273116 -0.338503 1.477 255 255 255
-0.125885 0.0197772 0.669 255 255 255
-0.153478 -0.356525 1.637 255 255 255
0.0908109 0.0938277 0.677 255 255 255
0.497618 0.159903 1.102 255 255 255
0.52697 0.376336 1.167 255 255 255
-0.16222 0.056656 0.694 0 0 0
0.187048 -0.104936 1.06 255 255 255
0.0377141 0.111893 0.715 255 255 255
0.398566 0.0491358 1.072 255 255 255
-0.024671 0.293327 0.815 255 255 255
-0.222562 -0.0711216 0.617 255 255 255
0.159543 0.158324 0.582 255 255 255
0.022008 -0.391712 1.09 255 255 255
-0.197942 -0.0340893 0.638 255 255 255
-0.310783 -0.0833713 0.59 255 255 255
0.367027 0.0444094 1.178 255 255 255
0.010186 -0.271047 1.158 255 255 255
-0.272978 0.233318 0.75 255 255 255
0.433244 -0.127566 0.863 255 255 255
-0.289161 -0.299234 1.473 255 255 255
0.365593 -0.138562 0.992 255 255 255
0.584306 0.309383 1.187 255 255 255
-0.250017 0.0900151 0.69 255 255 255
0.252549 -0.292264 0.86 255 255 255
0.339153 -0.289595 0.788 255 255 255
-0.220768 0.292101 0.819 255 255 255
-0.168054 0.110945 0.724 255 255 255
-0.160082 -0.0631919 0.628 255 255 255
0.359252 0.0221345 1.118 255 255 255
-0.036448 0.150567 0.783 0 0 0
-0.183856 0.452983 1.419 255 255 255
-0.0606834 -0.167402 1.81 255 255 255
0.0432156 -0.177091 1.185 255 255 255
-0.190485 0.304985 0.863 0 0 0
-0.173972 0.0724684 0.705 255 255 255
-0.367858 -0.159921 1.972 255 255 255
0.217325 -0.266088 0.986 255 255 255
0.280042 -0.231304 0.918 255 255 255
-0.0139802 -0.224239 1.302 255 255 255
-0.00572233 -0.175906 1.354 255 255 255
0.353026 -0.0331079 0.891 255 255 255
-0.10992 0.0255599 0.678 255 255 255
-0.311407 0.054755 0.645 255 255 255
0.392011 -0.0231882 0.799 255 255 255
0.174186 0.19038 0.562 255 255 255
0.346446 -0.194079 0.878 255 255 255
0.488793 0.136575 1.034 255 255 255
0.304387 0.0453202 1.381 255 255 255
-0.265504 -0.0785991 0.605 255 255 255
-0.104984 0.20987 0.842 255 255 255
0.11039 0.171435 0.598 255 255 255
-0.280953 -0.0150631 0.624 255 255 255
0.140021 0.104322 0.64 255 255 255
-0.406626 -0.489722 1.637 255 255 255
-0.287745 -0.0894341 0.592 255 255 255
-0.486567 -0.564312 1.637 255 255 255
-0.337272 0.153546 0.678 255 255 255
0.113907 -0.360156 0.98 255 255 255
0.0685024 -0.170876 1.156 255 255 255
-0.133108 0.00452206 0.667 0 0 0
0.585693 0.250375 1.182 255 255 255
-0.242656 0.281089 0.774 255 255 255
-1.06682 -0.57906 2.44 255 255 255
-0.360089 0.250584 0.69 255 255 255
0.0418302 -0.33741 1.098 255 255 255
0.10259 -0.383094 0.994 0 0 0
0.121024 -0.315829 0.986 255 255 255
0.502245 0.140997 0.994 255 255 255
-0.160268 -0.298444 1.837 255 255 255
-1.12059 -0.628674 2.402 255 255 255
-0.157249 0.0637064 0.697 255 255 255
0.11442 0.0802859 1.583 255 255 255
0.412017 -0.149602 0.837 255 255 255
0.502958 0.352321 1.182 255 255 255
0.318555 -0.259804 0.791 255 255 255
-0.00801419 -0.171171 1.369 255 255 255
-0.280508 -0.297787 2.037 255 255 255
-0.211326 0.144137 0.731 255 255 255
-0.180404 0.162599 0.756 255 255 255
0.384226 -0.157932 0.917 255 255 255
-0.275299 -0.0140701 0.625 255 255 255
-0.21491 0.271445 0.817 255 255 255
-0.310806 -0.0441404 0.605 255 255 255
0.547211 0.338856 1.182 255 255 255
0.407769 -0.148808 0.848 255 255 255
0.196742 -0.308292 0.934 255 255 255
-0.217245 -0.296224 2.004 255 255 255
-0.225658 -0.114286 0.596 255 255 255
0.0227772 0.256658 0.804 255 255 255
0.145709 0.183875 0.576 255 255 255
0.431331 -0.117994 0.897 255 255 255
-0.961698 -0.735061 2.54 255 255 255
0.0393615 0.129115 0.683 255 255 255
0.137428 -0.349414 0.955 255 255 255
-0.324726 -0.262222 2.044 255 255 255
-0.210827 0.0426395 0.669 255 255 255
0.22511 -0.103114 1.077 255 255 255
0.256453 0.0151418 1.509 255 255 255
-0.240014 -0.0880259 1.876 255 255 255
0.402777 -0.0113136 0.787 255 255 255
-0.252916 -0.0262751 0.625 255 255 255
-0.15712 0.240737 0.835 255 255 255
-0.322724 -0.301468 1.484 255 255 255
0.239488 -0.0603419 1.286 255 255 255
0.587232 0.268785 1.213 255 255 255
-0.281193 0.175745 0.724 255 255 255
0.119951 -0.243234 1.032 255 255 255
-0.0759232 0.0406094 0.69 255 255 255
0.33705 -0.186099 0.931 255 255 255
0.224172 -0.0874902 1.173 255 255 255
0.242837 -0.137061 1.055 255 255 255
0.309854 -0.115846 1.005 255 255 255
0.351958 -0.167358 0.981 255 255 255
-0.0453613 0.0777407 0.722 255 255 255
0.241903 -0.312984 0.867 255 255 255
0.105612 0.0899877 0.673 255 255 255
-0.00682961 0.108257 1.616 255 255 255
0.0165523 -0.204456 1.21 0 0 0
-0.0960294 -0.293369 1.612 255 255 255
-0.0714281 0.0560867 0.701 255 255 255
0.15856 0.17607 0.575 255 255 255
-0.142452 0.00234415 0.665 255 255 255
-1.0882 -0.710201 2.374 255 255 255
-1.03026 -0.746727 2.392 255 255 255
-0.155908 -0.0854452 1.821 255 255 255
-0.282246 -0.0608775 0.605 255 255 255
0.333178 -0.299225 0.783 255 255 255
0.287062 -0.136937 1.041 255 255 255
-0.338159 0.143225 0.671 255 255 255
-0.0901467 -0.111438 1.81 255 255 255
-0.93732 -0.55513 2.53 255 255 255
0.451693 0.0924667 1.03 255 255 255
0.125252 0.282044 0.737 255 255 255
-0.123538 -0.412086 1.416 255 255 255
0.0535001 -0.349777 1.081 255 255 255
0.406272 0.025784 0.923 255 255 255
0.324441 -0.155752 1.02 255 255 255
-0.295637 0.200273 0.719 255 255 255
0.314188 -0.0412678 1.064 255 255 255
0.181505 -0.149178 1.068 255 255 255
0.313353 -0.0381246 1.073 255 255 255
0.357801 -0.200427 0.822 255 255 255
-0.811235 -0.695295 2.561 255 255 255
0.138224 0.183264 0.58 255 255 255
0.37599 0.0914597 1.302 255 255 255
-0.228321 -0.0643009 0.619 255 255 255
-0.192143 0.135357 0.735 255 255 255
0.417914 0.278311 1.294 255 255 255
0.571686 0.342002 1.173 255 255 255
0.217821 -0.292766 0.914 255 255 255
0.250873 0.0885756 1.505 255 255 255
0.151727 -0.290688 0.977 255 255 255
-0.0197445 0.269334 0.831 255 255 255
-0.0807623 0.126287 0.745 255 255 255
-0.187404 -0.518372 1.345 255 255 255
0.199146 -0.201534 1.051 255 255 255
0.222014 -0.276031 0.938 255 255 255
0.340422 -0.192225 0.896 255 255 255
0.177242 -0.208772 1.053 255 255 255
-0.304641 -0.0683551 0.593 255 255 255
-0.236177 0.013841 0.646 255 255 255
-0.156316 -0.369981 1.559 255 255 255
-0.089813 -0.00634172 0.668 255 255 255
-0.0480856 -0.427694 1.201 255 255 255
0.166167 0.174232 0.569 255 255 255
-0.319022 0.184014 0.706 255 255 255
-1.03558 -0.631193 2.489 255 255 255
-0.173257 0.241602 0.815 255 255 255
0.11006 0.0137287 1.633 255 255 255
-1.02637 -0.520958 2.392 255 255 255
0.390395 -0.157637 0.874 255 255 255
0.354828 -0.107564 0.989 255 255 255
-1.0702 -0.787062 2.294 255 255 255
0.316771 -0.22854 0.852 255 255 255
-0.238523 -0.011301 0.641 255 255 255
0.371764 -0.100231 0.95 255 255 255
-0.189936 -0.0959665 0.609 255 255 255
-0.273791 -0.0989006 0.591 255 255 255
0.333066 0.0161462 1.215 255 255 255
-0.937166 -0.821476 2.383 255 255 255
0.00791391 -0.39854 1.104 255 255 255
-0.916843 -0.569113 2.519 255 255 255
-0.0941887 0.312262 0.856 255 255 255
0.150262 0.149989 0.594 255 255 255
0.319205 -0.296839 0.826 255 255 255
-0.0478854 -0.427859 1.196 255 255 255
0.28163 -0.152914 1.046 255 255 255
0.159026 -0.241349 1.024 255 255 255
-0.2099 0.114164 0.722 255 255 255
0.43563 0.133448 1.278 255 255 255
-0.196653 0.255562 0.813 255 255 255
-0.259378 0.10139 0.691 255 255 255
-0.338822 0.125192 0.668 255 255 255
0.580052 0.374063 1.137 255 255 255
-0.122244 -0.277814 1.763 255 255 255
0.122293 0.105056 0.651 255 255 255
0.391042 -0.130874 0.948 255 255 255
0.144962 0.121436 0.621 255 255 255
-0.13878 0.0703992 1.719 255 255 255
-0.181435 0.257054 0.822 255 255 255
0.00971265 -0.133603 1.753 255 255 255
0.0634337 0.138956 0.656 255 255 255
0.222895 -0.0258459 1.466 255 255 255
-0.257808 -0.0151355 0.627 255 255 255
0.407902 0.0395612 0.966 255 255 255
-0.106095 -0.243835 1.831 255 255 255
-1.13129 -0.830862 2.312 255 255 255
-0.166481 -0.0612453 0.629 255 255 255
-0.155211 -0.119792 1.848 255 255 255
-0.253626 0.0490246 0.667 0 0 0
-0.626422 -0.520611 2.338 255 255 255
-0.11054 0.240662 0.864 255 255 255
-0.137747 -0.498487 1.31 255 255 255
0.440169 0.131708 1.205 255 255 255
-0.308389 0.211089 0.716 255 255 255
-0.335024 0.08007 0.646 255 255 255
0.382773 -0.21994 0.76 255 255 255
-0.236382 -0.0592643 0.619 255 255 255
0.390426 0.443849 1.185 255 255 255
0.00611681 -0.407523 1.104 255 255 255
-0.133747 -0.0555418 0.634 255 255 255
-0.451254 -0.524878 1.664 255 255 255
0.372504 -0.201114 0.788 255 255 255
0.253971 -0.230282 0.932 255 255 255
0.487912 0.175332 1.169 255 255 255
-0.194126 -0.0469151 0.629 255 255 255
-1.20365 -0.677775 2.278 255 255 255
0.180959 0.051818 1.579 255 255 255
-0.193176 0.0253337 0.672 255 255 255
-0.0178827 0.296067 0.808 255 255 255
-0.0624309 0.275935 0.86 255 255 255
-1.09731 -0.603565 2.411 255 255 255
-0.0604708 0.31065 0.833 255 255 255
0.281624 -0.146634 0.992 255 255 255
0.121752 0.205206 0.578 255 255 255
-0.263877 0.103639 0.691 255 255 255
-0.17073 0.213892 0.791 255 255 255
-0.294466 0.196763 0.719 255 255 255
-0.0765598 0.0807027 0.717 255 255 255
0.0895875 -0.213614 1.114 255 255 255
0.341499 -0.0405389 0.895 255 255 255
-0.222473 0.0425758 0.668 255 255 255
0.450167 0.434485 1.16 255 255 255
-0.112051 -0.309875 1.616 255 255 255
-0.459884 -0.30002 2.099 255 255 255
-0.212483 0.14971 0.735 255 255 255
-0.271751 0.108137 0.691 255 255 255
-0.122214 0.327562 0.867 255 255 255
0.391181 0.0978993 1.249 255 255 255
-0.358629 -0.453481 1.567 255 255 255
0.142161 0.129991 0.609 255 255 255
-0.345387 -0.275449 1.972 255 255 255
0.368138 -0.263024 0.763 255 255 255
-0.434873 -0.531044 1.633 255 255 255
0.394118 -0.0153675 0.798 255 255 255
0.385509 -0.124312 0.969 255 255 255
-0.287487 0.226474 0.728 255 255 255
-0.0728317 -0.0308176 1.748 255 255 255
0.123539 0.140279 0.615 255 255 255
-0.187174 0.138498 0.739 255 255 255
0.354217 -0.195264 0.852 255 255 255
0.205318 -0.336525 0.892 255 255 255
-0.230364 0.064839 0.685 0 0 0
0.384562 -0.0479337 0.822 255 255 255
0.0688777 0.134891 0.657 255 255 255
0.370299 -0.182584 0.826 255 255 255
0.225236 -0.141942 1.053 255 255 255
0.427454 0.445837 1.165 255 255 255
0.110332 -0.140807 1.141 255 255 255
0.0611055 0.112472 0.69 255 255 255
-0.247368 -0.017231 0.629 255 255 255
-0.267942 0.2318 0.753 255 255 255
-0.113987 -0.472593 1.384 255 255 255
0.187404 0.176998 0.566 255 255 255
0.179764 0.162765 0.571 255 255 255
-0.129164 -0.042661 0.642 255 255 255
0.2697 -0.197626 0.95 255 255 255
-0.0742589 0.313402 1.491 255 255 255
-1.06758 -0.882452 2.329 255 255 255
-0.143312 -0.498751 1.322 255 255 255
-0.267288 -0.176359 1.941 255 255 255
-0.0298283 0.108101 0.745 0 0 0
0.380447 0.0134219 1.01 255 255 255
0.0658177 -0.293484 1.081 255 255 255
0.176219 -0.320593 0.93 255 255 255
-0.179373 -0.221262 1.947 255 255 255
0.270798 0.0582029 1.48 255 255 255
-0.164632 -0.0283839 0.65 255 255 255
-0.913204 -0.7955 2.509 255 255 255
-0.0848479 0.0796468 0.718 0 0 0
-0.0067263 -0.325035 1.149 255 255 255
0.013854 0.177276 1.575 255 255 255
0.476168 0.161324 1.192 255 255 255
-0.0771335 0.0560867 0.701 255 255 255
0.271259 -0.193659 0.961 255 255 255
-0.140689 0.307647 0.954 255 255 255
-0.173017 -0.0527775 0.638 255 255 255
-0.193749 -0.077271 0.618 255 255 255
0.365565 -0.100653 0.954 255 255 255
-0.1516 -0.0700078 1.805 255 255 255
0.377507 -0.20708 0.772 255 255 255
-0.78373 -0.537357 2.449 255 255 255
-0.049542 0.259025 0.855 255 255 255
-0.187509 -0.000890155 0.656 0 0 0
-0.223266 -0.126769 0.6 0 0 0
-0.340857 0.220779 0.706 255 255 255
0.150891 -0.350789 0.942 255 255 255
-0.901769 -0.918 2.392 255 255 255
-1.17994 -0.761022 2.261 255 255 255
0.29027 -0.0781178 0.983 255 255 255
-0.0840404 0.213749 0.852 255 255 255
0.143256 0.123867 0.618 255 255 255
0.38792 -0.176413 0.804 255 255 255
-0.202766 0.0142266 0.664 255 255 255
-0.227096 -0.0854909 0.605 255 255 255
-0.173924 -0.0613427 0.63 255 255 255
-1.03788 -0.753693 2.365 255 255 255
-1.00716 -0.726568 2.469 255 255 255
-0.0471204 0.121032 0.75 255 255 255
-0.246712 -0.523376 1.463 255 255 255
0.114818 0.193035 0.581 255 255 255
-0.133257 0.331053 0.924 255 255 255
-0.256377 -0.0992353 0.593 255 255 255
0.223189 -0.297444 0.888 255 255 255
-0.298344 0.0379021 0.644 255 255 255
0.433222 0.160773 1.369 255 255 255
0.358932 -0.132201 1.005 255 255 255
-0.851827 -0.798208 2.383 255 255 255
-0.214859 -0.0186318 0.642 255 255 255
-0.331643 0.546093 1.409 255 255 255
0.29311 -0.121954 1.015 255 255 255
-0.280029 0.118429 0.692 255 255 255
0.0434238 0.156625 0.677 255 255 255
-0.172392 0.0165852 0.672 255 255 255
0.408751 0.0716395 1.124 255 255 255
-0.672154 -0.542018 2.365 255 255 255
0.339042 -0.0366523 0.945 255 255 255
0.00367196 0.112885 1.607 255 255 255
-0.303552 0.0269537 0.633 255 255 255
-1.09624 -0.881039 2.286 255 255 255
-0.260585 -0.266029 1.516 255 255 255
-0.192191 0.222206 0.784 255 255 255
-0.23994 -0.00505014 0.642 0 0 0
0.458211 0.10023 1.041 255 255 255
0.209387 0.104574 1.524 255 255 255
0.551166 0.227588 1.225 255 255 255
-0.131353 -0.488789 1.354 255 255 255
0.40433 0.0118139 0.889 255 255 255
-0.268964 -0.446942 1.494 255 255 255
-0.286297 -0.0950536 0.591 255 255 255
0.299885 -0.214974 0.938 255 255 255
-0.0660534 0.169882 0.802 255 255 255
-0.838958 -0.877814 2.347 255 255 255
-0.146137 0.0142909 0.667 0 0 0
0.180269 0.194606 0.561 255 255 255
-0.348125 -0.518144 1.532 255 255 255
-0.306145 0.537566 1.387 255 255 255
-0.230466 0.0947805 0.692 255 255 255
-0.0783369 0.119013 0.745 255 255 255
0.351169 -0.170217 0.97 255 255 255
-0.186455 0.319333 0.912 255 255 255
-0.0987354 0.0877035 0.717 255 255 255
-0.317934 -0.371145 1.473 255 255 255
0.161379 0.194953 0.562 255 255 255
-0.258715 -0.365975 1.491 255 255 255
0.0650045 0.081994 0.708 255 255 255
0.321183 -0.224972 0.849 255 255 255
-0.221922 0.236393 0.772 255 255 255
-0.290542 0.0783312 0.667 0 0 0
0.335243 -0.273447 0.797 255 255 255
0.256749 -0.285266 0.86 255 255 255
-0.142814 0.0399739 1.734 255 255 255
-0.263322 0.179578 0.73 255 255 255
0.358789 -0.239415 0.775 255 255 255
-0.245632 -0.0709567 0.607 255 255 255
-0.0294947 0.270562 0.839 255 255 255
0.0832121 0.135987 0.652 255 255 255
0.0321177 0.111504 0.72 255 255 255
0.371569 -0.196926 0.797 255 255 255
0.379561 -0.210457 0.766 255 255 255
0.189721 0.164268 0.573 255 255 255
-0.279488 -0.0190942 0.623 255 255 255
-0.329692 0.0858546 0.65 255 255 255
-0.102789 0.234802 0.858 255 255 255
0.494061 0.137925 1.007 255 255 255
-0.297159 -0.372153 1.477 255 255 255
-0.298316 0.174046 0.717 255 255 255
-0.198359 -0.0596473 0.623 255 255 255
0.00741519 0.229325 0.843 255 255 255
0.379099 -0.0157142 0.816 255 255 255
-0.82084 -0.582588 2.489 255 255 255
-0.251478 -0.487524 1.477 255 255 255
-0.319494 0.173728 0.697 255 255 255
0.139387 0.186072 0.577 255 255 255
0.530078 0.224428 1.275 255 255 255
-1.08347 -0.778511 2.347 255 255 255
-0.156143 -0.359189 1.637 255 255 255
-0.152652 0.0110346 0.667 255 255 255
0.357454 0.218696 1.369 255 255 255
0.255603 -0.0920732 1.051 255 255 255
-0.291048 -0.101097 0.587 255 255 255
0.448104 -0.0846359 0.884 255 255 255
0.356575 -0.228161 0.784 255 255 255
-0.325891 0.194118 0.701 255 255 255
-0.239956 0.2869 0.79 255 255 255
-0.212368 0.0338286 0.667 0 0 0
0.343494 0.171615 1.403 255 255 255
0.108525 -0.337933 1.004 255 255 255
0.319937 -0.0552055 0.921 255 255 255
-0.0240317 0.261005 0.839 255 255 255
-1.0372 -0.830862 2.312 255 255 255
0.0835193 -0.268808 1.06 255 255 255
0.0215454 0.146519 1.575 255 255 255
0.442106 0.139653 1.297 255 255 255
0.00392788 -0.0386985 1.719 255 255 255
-0.19322 0.221922 0.783 255 255 255
0.0778255 -0.28931 1.053 255 255 255
0.32948 -0.122997 1.01 0 0 0
0.280334 -0.210619 0.939 255 255 255
-0.13878 -0.301652 1.719 255 255 255
0.352432 0.00931499 1.108 255 255 255
-0.244399 -0.292407 1.714 255 255 255
-1.04816 -0.808889 2.303 255 255 255
0.279659 0.207129 1.381 255 255 255
0.0618139 0.097874 0.698 255 255 255
0.1057 -0.227129 1.075 255 255 255
0.442689 0.215816 1.324 255 255 255
-0.326327 0.273224 0.717 255 255 255
0.387573 -0.174228 0.806 255 255 255
-0.317549 0.105783 0.669 255 255 255
0.149345 0.126234 0.61 255 255 255
0.462115 0.104116 1.046 255 255 255
0.579977 0.29955 1.194 255 255 255
0.170176 -0.0626803 1.551 255 255 255
-0.152178 0.392714 1.47 255 255 255
-0.180667 0.43898 1.449 255 255 255
0.42722 -0.0634733 0.851 255 255 255
-0.222837 -0.514617 1.432 255 255 255
-0.253689 -0.108151 0.589 255 255 255
0.283608 0.104244 1.484 255 255 255
0.567284 0.403021 1.13 255 255 255
-0.200838 -0.101411 0.606 255 255 255
0.342697 -0.0833433 0.934 255 255 255
-0.171414 0.3095 0.927 255 255 255
0.00771804 -0.160571 1.393 255 255 255
-0.191657 -0.0725932 0.621 255 255 255
0.381501 0.159857 1.4 255 255 255
-0.965833 -0.730928 2.54 255 255 255
0.383412 -0.172009 0.84 255 255 255
0.435313 0.058196 0.937 255 255 255
-0.0285387 0.101766 0.743 255 255 255
-0.292119 -0.0746453 0.597 255 255 255
0.400982 0.431184 1.182 255 255 255
0.380673 -0.174852 0.834 255 255 255
0.423706 0.0208302 0.844 255 255 255
0.25146 0.1888 1.412 255 255 255
0.325196 -0.232373 0.831 255 255 255
0.336068 -0.173158 1.015 255 255 255
0.426305 0.299122 1.275 255 255 255
-0.142164 0.323422 0.964 255 255 255
-0.299563 -0.37696 1.477 255 255 255
0.515638 0.264847 1.26 255 255 255
0.116046 -0.184179 1.09 255 255 255
0.0221851 -0.153135 1.31 255 255 255
-0.0216513 -0.384198 1.147 255 255 255
0.399729 0.0250975 0.954 255 255 255
-0.243068 -0.0681053 0.608 255 255 255
0.184019 -0.0774127 1.406 255 255 255
-0.354652 0.224571 0.686 255 255 255
-0.217036 0.0382276 0.668 255 255 255
-0.0578249 0.286517 0.854 255 255 255
0.334122 -0.227457 0.823 255 255 255
-0.0412877 0.254053 0.857 255 255 255
0.213953 0.0780543 1.539 255 255 255
0.34124 -0.0494303 0.872 255 255 255
-0.184801 0.186698 0.764 255 255 255
-0.331314 0.193288 0.698 255 255 255
0.56908 0.240156 1.208 255 255 255
0.184168 0.156566 0.579 255 255 255
0.134542 -0.138956 1.126 255 255 255
-0.31074 -0.339984 1.473 255 255 255
0.292492 -0.252702 0.854 255 255 255
-0.303501 0.238376 0.721 255 255 255
0.309173 -0.198473 0.977 255 255 255
0.554312 0.384148 1.145 255 255 255
-0.916781 -0.901751 2.411 255 255 255
0.378011 -0.144961 0.97 255 255 255
-0.321763 0.178265 0.697 255 255 255
0.199982 -0.0427487 1.473 255 255 255
0.0713281 0.0863016 1.599 255 255 255
0.45829 0.407944 1.176 255 255 255
-0.202719 -0.106003 1.87 255 255 255
-0.358446 0.236766 0.689 255 255 255
0.508251 0.329978 1.213 255 255 255
-0.260797 0.159031 0.723 255 255 255
-0.206498 -0.0280345 0.642 255 255 255
-0.283555 -0.517448 1.494 255 255 255
-0.167852 0.00777835 0.667 255 255 255
0.402276 -0.150181 0.872 255 255 255
0.344083 0.0694324 1.369 255 255 255
0.0970056 0.0110984 1.637 255 255 255
0.384251 -0.136931 0.958 255 255 255
0.430456 0.299122 1.275 255 255 255
0.28645 -0.0670481 1.009 255 255 255
-0.257011 -0.20031 1.959 255 255 255
0.313822 -0.131806 1.002 255 255 255
0.496344 0.359405 1.18 255 255 255
0.252633 0.172049 1.445 255 255 255
-0.265996 -0.543099 1.491 255 255 255
0.24604 -0.243605 0.925 255 255 255
-0.100403 -0.02127 0.659 255 255 255
0.199283 0.177632 0.571 0 0 0
0.155249 -0.0208179 1.633 255 255 255
-0.183285 -0.463684 1.47 255 255 255
0.0490099 -0.410256 1.06 255 255 255
0.314432 0.103261 1.47 255 255 255
-0.24717 -0.421078 1.48 255 255 255
0.0833281 0.115754 0.67 255 255 255
-0.25599 -0.253936 1.595 255 255 255
0.170113 -0.141427 1.062 255 255 255
-0.0734356 -0.407278 1.384 255 255 255
0.325918 0.183422 1.406 255 255 255
0.205009 -0.323814 0.897 255 255 255
-0.173675 0.0244205 0.677 255 255 255
-0.215146 0.00332843 0.646 255 255 255
-0.0249636 -0.144675 1.784 255 255 255
0.5745 0.383314 1.137 255 255 255
-0.121636 0.0674052 1.714 255 255 255
0.482672 0.303185 1.249 255 255 255
0.233386 0.0728556 1.535 255 255 255
0.404209 -0.149688 0.861 255 255 255
-0.224769 0.159158 0.74 255 255 255
0.185709 -0.0537582 1.513 255 255 255
0.0644072 0.259535 0.785 255 255 255
-0.629984 -0.584025 2.204 255 255 255
0.086875 -0.144388 1.289 255 255 255
0.499128 0.383997 1.173 255 255 255
0.350125 -0.269229 0.781 255 255 255
0.41533 0.291239 1.286 255 255 255
-0.108749 0.22293 0.85 255 255 255
0.449874 0.364605 1.21 255 255 255
-0.203377 0.0261913 0.666 255 255 255
0.11993 0.11231 0.644 255 255 255
-0.309555 0.194777 0.716 255 255 255
0.128892 0.219218 0.568 255 255 255
-0.336384 -0.515438 1.524 255 255 255
-0.0314857 0.235647 0.856 255 255 255
-0.269675 0.242184 0.751 255 255 255
-0.134566 -0.0667853 0.633 255 255 255
0.240641 -0.249142 0.97 255 255 255
0.288011 -0.303421 0.833 255 255 255
0.361356 -0.0270629 0.883 255 255 255
-0.252263 0.0877694 0.69 255 255 255
-0.0274427 0.153186 1.591 255 255 255
-0.252516 -0.101165 0.593 255 255 255
0.150301 0.140294 0.598 255 255 255
-0.0597345 0.12465 1.624 255 255 255
-0.0898976 -0.102318 1.805 255 255 255
0.255991 -0.0128258 1.351 255 255 255
-0.346361 0.246389 0.694 255 255 255
-0.0284977 0.253361 0.85 255 255 255
-0.322994 0.114493 0.669 255 255 255
0.347582 -0.248894 0.781 255 255 255
0.0683277 0.236148 0.801 255 255 255
-0.256199 0.136109 0.72 255 255 255
-0.190973 -0.115217 0.606 255 255 255
-0.259374 0.116512 0.694 0 0 0
-0.335064 0.187662 0.694 255 255 255
-0.0508132 -0.0832399 1.774 255 255 255
0.286631 -0.240721 0.892 255 255 255
-0.180686 0.197703 0.773 255 255 255
-0.169004 0.00125818 0.663 255 255 255
-0.0900048 -0.380856 1.362 255 255 255
-0.325658 0.127747 0.67 255 255 255
-0.280434 0.125366 0.693 255 255 255
-0.299604 0.249407 0.709 0 0 0
0.0436207 -0.260551 1.145 255 255 255
-0.15608 -0.299379 1.789 255 255 255
0.0683277 0.237452 0.801 255 255 255
0.491213 0.429571 1.137 255 255 255
0.151147 0.206278 0.558 255 255 255
-0.208797 0.0261913 0.666 255 255 255
0.0223523 0.292957 0.789 255 255 255
0.128402 -0.338768 0.969 255 255 255
-0.00693705 -0.285081 1.185 255 255 255
0.379852 0.28345 1.308 255 255 255
0.300577 0.170901 1.416 255 255 255
0.532548 0.326713 1.201 255 255 255
-0.0121119 -0.399862 1.128 255 255 255
-0.27074 -0.0882465 0.597 255 255 255
0.392983 -0.0626529 0.84 255 255 255
-0.274627 -0.0853319 0.597 255 255 255
0.457063 0.372284 1.203 255 255 255
0.0624766 -0.212847 1.149 255 255 255
-0.12768 -0.000905081 0.667 255 255 255
-0.106996 -0.365943 1.381 255 255 255
-0.357138 0.204299 0.678 255 255 255
0.304613 -0.0978087 0.988 255 255 255
-0.236638 -0.0283093 0.625 255 255 255
0.381851 -0.0737692 0.858 255 255 255
-0.283175 0.0596994 0.665 255 255 255
0.456222 0.103785 1.06 255 255 255
0.00865942 -0.233605 1.208 0 0 0
0.398637 0.0328826 1.002 255 255 255
-0.189333 0.0668202 0.694 255 255 255
0.0356046 -0.409667 1.072 255 255 255
0.0358317 0.0909161 0.724 0 0 0
0.52543 0.267667 1.254 255 255 255
0.170222 0.204462 0.558 255 255 255
0.124783 0.111961 0.642 255 255 255
0.220334 -0.320098 0.871 255 255 255
-0.0621236 0.306123 1.491 255 255 255
-0.187716 0.043388 1.758 255 255 255
-0.7127 -0.634953 2.411 255 255 255
-0.228099 0.180358 0.743 255 255 255
-0.26894 -0.190162 1.953 255 255 255
-0.0980556 -0.15588 1.848 255 255 255
0.369525 0.248246 1.348 255 255 255
0.134853 0.123458 0.621 255 255 255
-0.115249 -0.316695 1.624 255 255 255
-0.251427 -0.254573 1.599 0 0 0
0.134887 0.21292 0.566 255 255 255
0.0325443 0.290933 0.787 255 255 255
0.389083 -0.110688 0.974 255 255 255
-0.0833089 0.0178103 0.677 255 255 255
-0.337647 0.240649 0.697 255 255 255
-0.303207 0.105007 0.671 255 255 255
0.162678 -0.0692105 1.528 255 255 255
0.141357 0.111246 0.632 255 255 255
0.35845 -0.234975 0.777 255 255 255
0.282219 0.0429245 1.452 0 0 0
-0.241632 0.137662 0.722 255 255 255
-0.373761 -0.43672 1.599 255 255 255
0.264422 -0.0904087 1.032 255 255 255
-0.10625 0.31065 0.875 255 255 255
0.45272 0.176638 1.354 255 255 255
0.469757 0.245199 1.286 255 255 255
-1.17849 -0.622806 2.294 255 255 255
0.504897 0.151334 1.009 255 255 255
0.164553 -0.332057 0.924 255 255 255
0.17596 -0.161042 1.066 255 255 255
0.333229 -0.212287 0.848 255 255 255
0.179893 -0.264479 0.992 255 255 255
-0.210153 0.169399 0.748 255 255 255
0.285183 -0.0536957 1.106 255 255 255
0.205138 -0.320457 0.904 255 255 255
-1.00721 -0.679798 2.489 255 255 255
0.354756 -0.243498 0.78 255 255 255
-0.122197 0.170923 0.92 0 0 0
-1.13853 -0.561269 2.449 255 255 255
0.0987139 0.118126 1.539 255 255 255
-0.244921 -0.291581 2.017 255 255 255
0.107052 0.12851 0.636 255 255 255
-0.052515 0.109784 0.74 255 255 255
-0.257501 -0.545379 1.484 255 255 255
0.25379 -0.0703723 1.143 255 255 255
0.196041 0.193919 0.567 255 255 255
0.276972 0.0235747 1.425 255 255 255
0.0875981 0.136456 1.52 255 255 255
-0.20355 -0.362603 1.571 255 255 255
-0.328893 0.0988399 0.659 255 255 255
-0.0825712 0.0245287 0.68 255 255 255
-0.0744463 0.0624075 0.708 255 255 255
-0.248357 -0.110255 0.59 255 255 255
-0.257838 0.254745 0.763 255 255 255
0.132411 0.166825 0.592 255 255 255
0.186378 -0.284565 0.967 255 255 255
-0.447565 -0.51138 1.691 255 255 255
-0.233082 0.110486 0.721 255 255 255
0.00473447 -0.23793 1.21 0 0 0
-0.178837 -0.0365059 0.644 255 255 255
-0.186856 -0.299136 1.959 255 255 255
0.071908 0.0555242 1.612 255 255 255
-0.385626 -0.433474 1.616 255 255 255
-1.23629 -0.568447 2.347 255 255 255
0.0380956 -0.283405 1.147 255 255 255
0.299871 -0.0653204 0.983 255 255 255
0.506254 0.238363 1.283 255 255 255
0.0408777 -0.406557 1.073 255 255 255
0.039824 -0.367553 1.092 255 255 255
-0.232124 0.276724 0.794 255 255 255
-0.339754 -0.437221 1.528 255 255 255
0.279959 -0.166878 1.059 255 255 255
0.356181 -0.171229 0.958 255 255 255
-0.297502 -0.0354546 0.608 255 255 255
0.232983 -0.260537 0.921 255 255 255
0.399068 -0.134513 0.91 255 255 255
-0.255618 0.16419 0.725 255 255 255
0.596469 0.258312 1.192 255 255 255
-0.310085 0.0859292 0.667 255 255 255
0.043488 0.128169 0.678 255 255 255
0.0223388 -0.156347 1.633 255 255 255
-0.143966 0.341276 0.888 255 255 255
-0.271229 -0.0181385 0.625 255 255 255
-0.180193 0.147883 0.75 255 255 255
-0.230983 -0.303653 2.01 255 255 255
-0.172026 -0.331582 1.744 255 255 255
0.155632 -0.186958 1.046 255 255 255
0.0167988 0.231748 0.832 255 255 255
-0.236539 0.0821551 0.69 255 255 255
0.0787441 0.0863913 0.697 255 255 255
0.0677631 -0.157198 1.21 255 255 255
-0.160209 0.426884 1.456 255 255 255
0.536458 0.322804 1.201 255 255 255
-0.25156 0.0127699 0.645 255 255 255
0.400221 -0.139734 0.896 255 255 255
-0.0344448 -0.252786 1.275 255 255 255
-0.953794 -0.600419 2.53 255 255 255
0.450442 0.29106 1.267 255 255 255
-0.266007 0.255627 0.751 255 255 255
-0.179031 -0.115787 0.609 255 255 255
0.041219 -0.154675 1.305 255 255 255
-0.281984 0.165401 0.72 255 255 255
-0.220084 -0.0196766 0.642 255 255 255
0.468798 0.11947 1.077 255 255 255
-0.227238 0.318217 0.828 255 255 255
0.360061 -0.198721 0.815 255 255 255
0.136104 -0.183068 1.053 255 255 255
0.0435997 0.158197 1.539 255 255 255
-0.221937 0.0731723 0.69 255 255 255
-0.348608 0.143672 0.668 255 255 255
0.392113 -0.0465393 0.821 255 255 255
0.409307 -0.0681047 0.857 255 255 255
-0.161693 0.00234063 0.664 255 255 255
0.0343015 -0.29968 1.145 255 255 255
0.0275006 0.230634 0.828 255 255 255
0.173814 -0.208772 1.053 255 255 255
0.5491 0.309638 1.203 255 255 255
-1.18802 -0.745995 2.365 255 255 255
0.151684 0.150447 0.592 255 255 255
-0.0159661 -0.361764 1.141 255 255 255
-0.0746378 0.0547891 0.699 255 255 255
0.124106 -0.215626 1.053 255 255 255
-0.192002 -0.504181 1.378 255 255 255
-0.257491 -0.287248 1.498 255 255 255
0.500087 0.276489 1.257 255 255 255
0.134131 0.0526056 1.603 255 255 255
0.16057 0.132952 0.6 255 255 255
0.515638 0.262796 1.26 255 255 255
-0.686305 -0.540217 2.374 255 255 255
-0.267879 0.261209 0.746 255 255 255
0.0114247 -0.401003 1.096 255 255 255
-0.23396 -0.0283546 0.626 255 255 255
0.145567 0.215604 0.561 0 0 0
-0.442136 -0.247994 2.064 255 255 255
0.265414 -0.0589013 1.137 255 255 255
0.00994274 0.245909 0.825 255 255 255
-0.0126273 -0.309708 1.176 255 255 255
0.282267 -0.103879 1 255 255 255
-0.272455 0.178146 0.729 255 255 255
-0.134863 0.032607 0.687 255 255 255
-0.170917 0.260071 0.836 255 255 255
-0.269579 -0.395652 1.484 255 255 255
0.388026 0.217098 1.359 255 255 255
0.388416 0.00930185 0.927 255 255 255
0.407987 0.430455 1.18 255 255 255
-0.270897 0.24585 0.751 255 255 255
0.100206 -0.0628345 1.691 255 255 255
0.12717 -0.220138 1.05 255 255 255
-0.202633 -0.0165681 0.643 255 255 255
0.42788 0.0497084 0.921 255 255 255
0.164896 0.141537 0.591 255 255 255
-0.201169 -0.0996025 0.607 255 255 255
0.312044 -0.2489 0.832 255 255 255
0.11474 0.0268669 1.624 255 255 255
0.390871 -0.0298009 0.802 255 255 255
-0.335523 0.0878348 0.649 255 255 255
-0.0771499 0.0212401 0.681 0 0 0
-0.247778 -0.0776146 0.605 255 255 255
0.409908 0.424694 1.18 255 255 255
-0.963555 -0.940392 2.44 255 255 255
0.0405918 0.127263 0.685 255 255 255
0.00391645 -0.16968 1.714 255 255 255
-0.0618157 0.1044 0.736 255 255 255
-0.0191019 -0.11532 1.779 255 255 255
0.0221851 -0.155267 1.31 255 255 255
-0.068676 0.0880704 0.72 255 255 255
-0.0473582 -0.048022 1.753 255 255 255
0.0629706 0.167281 0.63 255 255 255
0.0495814 0.292048 0.773 255 255 255
0.0697862 0.0996855 0.687 255 255 255
-0.105647 -0.00523106 0.665 255 255 255
-0.0603573 0.136788 0.763 255 255 255
-0.241298 0.132778 0.721 255 255 255
-0.28777 -0.0270302 0.619 255 255 255
0.154393 -0.0629877 1.624 255 255 255
-0.0320393 -0.268692 1.262 255 255 255
0.342704 0.0193065 1.167 255 255 255
0.334336 0.214335 1.384 255 255 255
-0.319224 0.18595 0.709 255 255 255
0.387324 -0.150765 0.928 255 255 255
-0.131325 0.174106 0.921 255 255 255
-0.254708 0.196076 0.743 255 255 255
-0.269621 0.0127303 0.643 255 255 255
0.30063 -0.294422 0.823 255 255 255
0.279543 -0.289473 0.828 255 255 255
0.237463 -0.234739 1.039 255 255 255
-0.164682 0.252057 0.832 255 255 255
-0.315221 0.114835 0.671 255 255 255
0.461421 0.39117 1.189 255 255 255
0.0609119 -0.11466 1.473 255 255 255
-1.13882 -0.827099 2.312 255 255 255
0.453532 0.0581082 0.889 255 255 255
0.354544 0.212942 1.375 255 255 255
0.00978607 0.257891 0.812 255 255 255
-0.0346657 0.349413 1.459 255 255 255
0.0964076 -0.385873 0.997 255 255 255
0.409802 -0.113544 0.945 255 255 255
-1.16812 -0.614006 2.303 255 255 255
-0.156703 -0.255325 1.941 255 255 255
-0.212255 -0.319668 1.929 255 255 255
-0.399288 -0.239756 2.051 255 255 255
-0.487258 -0.312484 2.114 255 255 255
0.354289 -0.15632 0.992 255 255 255
-0.291021 0.275967 0.74 255 255 255
-0.120796 -0.313664 1.664 255 255 255
0.425946 -0.135963 0.854 255 255 255
-0.0351285 0.149102 0.782 0 0 0
-0.101317 -0.00306671 0.665 255 255 255
0.252492 -0.056682 1.208 255 255 255
0.0234154 0.129832 0.705 255 255 255
0.388665 -0.00407204 0.883 255 255 255
-0.282767 -0.063603 1.876 255 255 255
0.413492 -0.0639208 0.857 255 255 255
0.350068 0.217417 1.375 255 255 255
0.29414 -0.0555858 1.073 255 255 255
-0.816596 -0.5195 2.44 255 255 255
0.0343641 -0.17338 1.213 0 0 0
0.116342 0.151042 0.614 255 255 255
-0.212022 0.218921 0.768 255 255 255
-0.36118 -0.461131 1.567 255 255 255
-0.160671 -0.323067 1.744 255 255 255
0.499421 0.180907 1.156 255 255 255
-0.327595 0.011266 0.62 255 255 255
-0.0461965 0.0227242 1.71 255 255 255
-0.224159 -0.375567 1.52 255 255 255
-0.0285832 -0.354014 1.203 255 255 255
-0.303824 -0.0622233 0.599 255 255 255
0.191141 -0.0814595 1.359 255 255 255
-0.0881631 0.0111173 0.672 255 255 255
-0.0975187 0.144295 1.637 255 255 255
-0.264432 0.222333 0.75 255 255 255
-0.208472 -0.410942 1.532 255 255 255
-0.0278942 0.28049 0.832 255 255 255
0.00638276 -0.280891 1.152 255 255 255
0.300296 -0.0789876 0.974 255 255 255
0.0140732 0.236879 0.831 255 255 255
0.448926 0.0926416 1.051 255 255 255
0.254548 -0.229618 0.981 255 255 255
0.484806 0.151762 1.135 255 255 255
0.503308 0.311314 1.225 255 255 255
-1.14664 -0.736161 2.383 255 255 255
0.524103 0.291855 1.227 255 255 255
0.55686 0.236585 1.22 255 255 255
0.196584 0.137284 1.502 255 255 255
-0.044783 0.285909 0.844 255 255 255
0.206753 -0.2787 0.974 255 255 255
-0.307881 -0.0304573 0.607 255 255 255
-0.212199 -0.0713521 0.619 255 255 255
0.153512 0.20155 0.56 255 255 255
-0.260588 0.176959 0.729 255 255 255
0.275587 -0.329415 0.862 255 255 255
-0.0385351 -0.289678 1.273 255 255 255
0.278398 -0.0407181 1.201 255 255 255
0.192231 -0.0953219 1.278 255 255 255
0.0759389 0.165464 0.627 255 255 255
0.419921 0.173249 1.362 255 255 255
0.487833 0.379883 1.178 255 255 255
0.0711971 -0.232717 1.11 255 255 255
0.420123 0.0594587 1.039 255 255 255
-0.321088 0.0359957 0.629 255 255 255
0.402225 0.436215 1.18 255 255 255
-0.326517 0.0869124 0.65 255 255 255
-0.286672 0.188835 0.72 255 255 255
0.346606 -0.157825 1.012 255 255 255
-0.277121 0.238782 0.748 255 255 255
-0.186498 -0.0867626 0.614 255 255 255
-0.180057 -0.000895583 0.66 255 255 255
0.457359 0.0746161 0.914 255 255 255
-0.279582 -0.110649 0.587 0 0 0
-0.749075 -0.590972 2.44 255 255 255
0.215768 -0.159682 1.057 255 255 255
0.420602 0.404473 1.194 255 255 255
0.164205 0.0392664 1.591 255 255 255
-0.124384 -0.26556 1.837 255 255 255
0.321881 -0.322375 0.84 255 255 255
0.400863 0.148041 1.396 255 255 255
0.391567 0.0265444 1.009 255 255 255
0.387104 -0.187245 0.789 255 255 255
-0.130246 -0.498529 1.299 255 255 255
0.239081 -0.283355 0.867 255 255 255
0.40443 -0.0376785 0.803 255 255 255
0.113713 0.150532 0.616 255 255 255
0.277297 -0.239391 0.909 255 255 255
0.403273 0.272808 1.308 255 255 255
-0.0518847 0.00883116 1.714 255 255 255
-0.0116842 0.251607 0.835 255 255 255
0.330775 -0.187698 0.939 255 255 255
0.409545 0.30053 1.281 255 255 255
-0.287068 -0.280299 1.487 255 255 255
-0.302537 -0.549738 1.516 255 255 255
-0.137953 -0.0386019 0.644 255 255 255
0.413669 0.0472256 0.995 255 255 255
0.322348 -0.214221 0.867 255 255 255
0.0306339 0.220307 0.84 255 255 255
-0.293366 0.0199614 0.64 255 255 255
0.460618 0.0964753 1.002 255 255 255
-0.0298447 0.143091 0.777 255 255 255
0.538199 0.238191 1.26 255 255 255
0.530844 0.207935 1.215 255 255 255
-0.311834 -0.0245306 0.607 255 255 255
0.0896698 -0.0714683 1.7 255 255 255
-0.0468063 0.112951 0.745 255 255 255
-1.11969 -0.557817 2.469 255 255 255
-0.248922 -0.0852083 0.603 255 255 255
-0.231253 -0.00296987 0.644 255 255 255
-0.0452278 0.180296 1.579 255 255 255
-0.228097 0.2103 0.755 255 255 255
0.316281 -0.28095 0.815 255 255 255
-0.188355 0.261384 0.823 255 255 255
-0.581643 -0.435689 2.253 255 255 255
-0.279614 -0.0395419 0.61 0 0 0
0.114093 0.169205 0.597 255 255 255
0.366348 -0.16241 0.952 255 255 255
-0.269633 0.0709453 0.669 255 255 255
0.114264 0.204135 0.583 255 255 255
0.342986 -0.0239464 0.992 255 255 255
0.579654 0.260836 1.222 255 255 255
0.527679 0.439292 1.124 255 255 255
-0.133035 0.378361 1.47 255 255 255
0.250506 -0.0835371 1.12 255 255 255
0.0402955 0.131867 0.68 255 255 255
0.423607 -0.0567085 0.833 255 255 255
-0.278474 -0.0211219 0.623 255 255 255
-0.164893 0.264872 0.847 255 255 255
0.548661 0.39766 1.141 255 255 255
0.276669 -0.322027 0.861 255 255 255
-1.06868 -0.772936 2.365 255 255 255
-0.178983 -0.000895583 0.66 255 255 255
0.163423 0.122815 1.535 255 255 255
-0.307224 0.195942 0.716 255 255 255
0.143432 -0.109912 1.412 255 255 255
-0.256758 0.0817979 0.687 255 255 255
-0.20662 0.127968 0.727 255 255 255
-0.248312 0.292926 0.772 255 255 255
-0.113026 -0.0902681 1.799 255 255 255
-0.306837 0.00830563 0.625 255 255 255
0.186631 -0.233767 1.02 255 255 255
-0.445135 -0.256439 2.078 255 255 255
-0.141107 -0.0715949 0.63 255 255 255
0.0718965 0.119354 1.555 255 255 255
-0.235278 -0.0977544 1.887 255 255 255
-0.253525 0.000173587 0.642 255 255 255
0.210272 -0.290054 0.954 255 255 255
-0.325094 0.0556316 0.643 255 255 255
-0.231683 0.164955 0.739 255 255 255
0.0344254 -0.0328341 1.705 255 255 255
-0.0464022 -0.25528 1.62 255 255 255
-0.289964 -0.537328 1.502 255 255 255
-0.188242 0.0507151 0.69 255 255 255
0.278997 -0.262893 0.851 255 255 255
-0.340728 0.107093 0.657 255 255 255
-0.337899 -0.304498 1.487 255 255 255
0.047183 -0.24293 1.141 255 255 255
0.27456 0.0239718 1.449 255 255 255
-0.266994 -0.0120745 0.627 255 255 255
-0.286854 0.0684595 0.666 255 255 255
-0.136575 0.0540837 0.69 255 255 255
0.0435943 0.0980676 0.716 255 255 255
-0.174017 0.0590845 0.696 255 255 255
-0.240429 0.188059 0.74 255 255 255
0.0169805 0.226044 0.841 255 255 255
0.143472 -0.269057 0.997 255 255 255
-0.0778299 0.292729 0.86 255 255 255
-0.0375967 -0.335174 1.242 255 255 255
-0.283591 -0.130913 1.923 255 255 255
0.360587 0.191397 1.381 255 255 255
0.107188 -0.141407 1.281 255 255 255
-0.0484699 0.160031 0.792 255 255 255
-0.0454869 0.0850252 0.724 255 255 255
-0.0350934 0.322477 1.477 255 255 255
0.24836 -0.244499 0.906 255 255 255
-0.1583 -0.0689925 0.625 255 255 255
-0.0363409 0.0939666 1.642 255 255 255
-0.298732 0.177794 0.718 255 255 255
-0.00153263 0.175156 1.579 255 255 255
-0.138599 -0.0115831 0.657 255 255 255
-0.316499 0.0215621 0.626 255 255 255
-0.429556 -0.525729 1.633 255 255 255
-0.0247921 0.289435 0.819 255 255 255
0.496802 0.235648 1.291 255 255 255
-0.139498 -0.0594805 0.632 255 255 255
-0.193403 0.0143338 0.669 255 255 255
-0.313287 -0.188803 1.972 255 255 255
-0.24298 -0.0424122 0.623 255 255 255
-0.0351236 -0.206177 1.587 255 255 255
-1.10495 -0.815812 2.312 255 255 255
-0.284944 0.246858 0.743 255 255 255
-1.0072 -0.753757 2.402 255 255 255
-0.277924 -0.292836 1.477 255 255 255
0.0474197 0.0846728 0.721 255 255 255
0.374251 0.167763 1.39 255 255 255
-0.267703 -0.379512 1.487 255 255 255
0.374654 -0.0289576 0.815 255 255 255
-0.317344 -0.47326 1.516 255 255 255
0.170028 0.149804 1.505 255 255 255
0.373768 -0.112279 0.988 255 255 255
-0.197753 0.202146 0.766 255 255 255
-0.286311 0.0530639 0.65 255 255 255
0.23593 -0.307341 0.871 255 255 255
0.582896 0.296159 1.196 255 255 255
0.177848 0.150057 0.583 255 255 255
-0.161016 -0.0386019 0.644 255 255 255
-0.14639 0.298715 0.931 255 255 255
-0.210271 0.328687 0.841 255 255 255
-0.295431 0.286373 0.742 255 255 255
-0.206711 0.236607 0.781 255 255 255
0.0814707 -0.321108 1.034 255 255 255
0.0820215 -0.10333 1.555 255 255 255
-0.224306 -0.342039 1.799 255 255 255
-0.217108 0.190854 0.751 255 255 255
0.268035 -0.202203 0.972 255 255 255
0.158688 -0.181699 1.055 255 255 255
-0.137766 0.287311 0.914 255 255 255
0.286544 -0.324715 0.857 255 255 255
-0.058028 0.259631 0.857 255 255 255
0.487989 0.3027 1.247 255 255 255
0.0608 -0.3654 1.055 255 255 255
-0.0660071 -0.461226 1.244 255 255 255
-0.0462842 -0.413431 1.205 255 255 255
-0.1854 -0.0821662 0.617 255 255 255
0.0740611 0.118815 0.675 255 255 255
0.172328 -0.213783 1.044 255 255 255
-0.334227 0.234408 0.709 255 255 255
-0.101563 -0.474658 1.339 255 255 255
0.0353726 0.230581 0.823 255 255 255
-0.945557 -0.645707 2.53 255 255 255
0.156707 -0.325483 0.931 255 255 255
0.284243 -0.068554 1.007 255 255 255
0.107174 0.18674 0.591 255 255 255
-0.253936 0.289661 0.77 255 255 255
-0.244241 -0.0718259 0.606 255 255 255
0.107565 -0.0486691 1.677 255 255 255
0.00372223 0.079968 1.629 255 255 255
-0.339251 0.145409 0.671 255 255 255
0.391006 0.227317 1.354 255 255 255
0.367208 -0.114348 0.992 255 255 255
-0.293149 -0.29384 2.01 255 255 255
-0.236622 -0.062085 0.617 255 255 255
-0.264785 0.225074 0.751 255 255 255
0.298323 -0.227021 0.901 255 255 255
0.355569 -0.24065 0.779 255 255 255
0.0437295 -0.0903464 1.744 255 255 255
-0.407152 -0.240458 2.057 255 255 255
-0.118592 -0.463771 1.412 255 255 255
-0.21694 -0.342695 1.539 255 255 255
-0.107477 0.317256 0.862 255 255 255
0.35892 -0.0468 0.85 255 255 255
-0.218153 0.138425 0.726 255 255 255
-0.202003 -0.029034 0.641 255 255 255
0.396258 -0.00114933 0.847 255 255 255
-0.255507 -0.214476 1.972 255 255 255
0.379124 -0.0721199 0.855 255 255 255
-0.331528 -0.410228 1.502 255 255 255
0.463966 0.411927 1.171 255 255 255
-0.313185 -0.0507791 0.602 255 255 255
0.409487 0.00957424 0.821 255 255 255
0.244066 -0.0668964 1.215 255 255 255
-0.324836 0.0883762 0.653 255 255 255
-0.281138 -0.0404681 0.609 255 255 255
-0.121627 -0.245151 1.887 255 255 255
0.471261 0.433349 1.147 255 255 255
0.0855668 0.087515 0.688 255 255 255
0.523099 0.298131 1.22 255 255 255
-0.13939 0.0840856 0.716 255 255 255
0.159357 -0.220787 1.037 255 255 255
-0.146693 0.342344 0.914 255 255 255
-0.0759232 0.0338723 0.69 255 255 255
-0.224354 0.093925 0.694 255 255 255
0.291158 -0.105189 0.997 255 255 255
-0.258184 0.145281 0.719 255 255 255
-0.252246 0.0668892 0.672 0 0 0
0.597062 0.262217 1.201 255 255 255
0.363064 -0.212385 0.787 255 255 255
0.314273 -0.233261 0.849 255 255 255
-0.302747 0.281004 0.722 255 255 255
0.275057 0.062892 1.477 255 255 255
0.173146 0.0940488 1.555 255 255 255
-0.3065 -0.073895 0.591 255 255 255
-1.03364 -0.851619 2.338 255 255 255
0.524266 0.36263 1.178 255 255 255
-0.199785 -0.0792824 0.618 255 255 255
-0.132669 -0.487729 1.345 255 255 255
-0.117223 -0.349216 1.513 255 255 255
0.0705155 -0.225477 1.128 255 255 255
0.435647 0.316108 1.26 255 255 255
-0.185519 0.0165852 0.672 255 255 255
-0.318262 0.0567661 0.644 255 255 255
-0.151627 -0.429039 1.442 255 255 255
-0.217511 -0.126422 0.603 0 0 0
0.00402842 -0.128627 1.763 255 255 255
0.275756 -0.0941147 1 255 255 255
-0.156703 -0.271119 1.941 255 255 255
-0.231118 0.231759 0.765 255 255 255
-0.047844 0.0862033 0.724 255 255 255
0.134693 -0.0817987 1.579 255 255 255
-1.05648 -0.783135 2.338 255 255 255
0.156316 0.21316 0.557 0 0 0
-0.0608198 0.154784 0.785 255 255 255
0.058991 0.0942665 0.705 255 255 255
-0.101156 0.228682 0.856 255 255 255
0.362136 0.0496767 1.213 255 255 255
0.137255 -0.277725 0.999 255 255 255
-0.269059 -0.0391812 0.62 255 255 255
-0.191874 -0.0598387 0.625 255 255 255
0.498401 0.407354 1.158 255 255 255
0.115764 0.193035 0.581 255 255 255
0.186227 -0.25522 1 255 255 255
0.313901 -0.216276 0.887 255 255 255
-0.254397 -0.394585 1.48 255 255 255
0.0747988 0.162144 0.626 255 255 255
-0.203247 0.184255 0.754 255 255 255
0.0575828 -0.387465 1.059 255 255 255
0.192519 0.166133 0.573 255 255 255
0.115304 -0.125205 1.378 255 255 255
-0.00141324 0.348694 1.456 255 255 255
-0.36373 -0.588632 1.567 255 255 255
0.476225 0.146994 1.141 255 255 255
-0.231825 -0.0464675 0.623 255 255 255
-0.210996 0.1823 0.751 255 255 255
0.358077 0.0551277 1.247 255 255 255
0.350698 -0.229325 0.788 255 255 255
-0.953794 -0.571599 2.53 255 255 255
-0.236553 -0.0873154 0.604 255 255 255
0.411948 0.0529491 1.044 255 255 255
0.229719 -0.254536 0.991 255 255 255
0.37923 -0.185802 0.805 255 255 255
0.324619 0.220613 1.381 255 255 255
0.0991151 -0.298297 1.025 255 255 255
-0.266427 0.183643 0.732 255 255 255
0.170222 0.202646 0.558 255 255 255
-0.348508 0.175152 0.672 255 255 255
-0.193678 -0.0705721 0.621 255 255 255
0.164617 -0.16876 1.06 255 255 255
0.376796 -0.254675 0.753 255 255 255
0.00632306 0.102998 1.616 255 255 255
0.500405 0.365842 1.176 255 255 255
-0.289584 -0.0394122 0.608 255 255 255
-0.119649 -0.304092 1.686 255 255 255
0.155388 -0.245867 1.022 255 255 255
-0.0320674 -0.36669 1.187 255 255 255
0.0458414 -0.161259 1.257 255 255 255
0.330059 -0.0268748 1.043 255 255 255
0.470126 0.107225 0.981 255 255 255
0.256537 -0.321743 0.864 255 255 255
-0.245261 0.0106707 0.645 255 255 255
0.101952 -0.313441 1.02 255 255 255
-0.0354778 0.141298 1.603 255 255 255
-0.180205 0.142048 0.745 255 255 255
-0.260126 0.0978751 0.69 255 255 255
-0.238673 -0.0313605 0.625 255 255 255
0.062966 -0.195669 1.158 255 255 255
0.525775 0.295417 1.217 255 255 255
-0.233028 -0.118935 0.595 255 255 255
-0.114111 0.0451008 0.69 255 255 255
-0.0385957 -0.261086 1.275 255 255 255
0.359556 -0.276102 0.758 255 255 255
-0.326261 0.11667 0.669 255 255 255
-0.442801 -0.516827 1.673 255 255 255
0.103908 -0.17161 1.112 255 255 255
-0.522662 -0.601015 1.65 255 255 255
0.00692171 -0.123308 1.769 255 255 255
0.297547 -0.206437 0.955 255 255 255
0.0424288 0.105059 0.716 255 255 255
-0.211411 -0.00533886 1.789 255 255 255
0.341235 0.0154418 1.162 255 255 255
0.426892 0.286384 1.283 255 255 255
-0.289434 0.52952 1.372 255 255 255
-0.14793 -0.02419 0.651 255 255 255
-0.328759 0.178885 0.695 255 255 255
0.0532378 0.158541 0.662 255 255 255
-0.0945745 0.0488206 0.695 255 255 255
0.484705 0.305218 1.249 255 255 255
-0.101378 0.129924 0.745 255 255 255
-0.129476 0.313684 0.963 255 255 255
0.141253 0.218732 0.562 255 255 255
-0.129871 -0.0606534 1.789 255 255 255
-1.08565 -0.808889 2.303 255 255 255
-0.346521 0.126603 0.664 255 255 255
-0.158605 -0.489447 1.4 255 255 255
0.0986208 0.154022 0.622 255 255 255
0.200279 -0.344701 0.902 255 255 255
0.228245 0.0508991 1.551 255 255 255
0.339822 -0.0696597 0.914 255 255 255
0.169202 0.136915 0.596 255 255 255
0.330797 -0.136011 1.009 255 255 255
-0.240151 0.0652797 0.678 255 255 255
0.395961 -0.134009 0.927 255 255 255
0.579484 0.306035 1.189 255 255 255
-1.14952 -0.61899 2.365 255 255 255
-0.150004 -0.438196 1.449 255 255 255
0.138388 0.154632 0.597 255 255 255
0.152651 -0.337171 0.934 255 255 255
0.342962 0.104144 1.449 255 255 255
0.368199 0.136625 1.419 255 255 255
-0.125885 0.0165111 0.669 255 255 255
-0.281973 -0.107967 0.588 255 255 255
0.0695539 -0.394381 1.032 255 255 255
0.201521 0.0389702 1.579 255 255 255
0.473775 0.22619 1.297 255 255 255
0.48721 0.153203 1.132 255 255 255
-0.0333925 -0.085884 1.769 255 255 255
-0.247563 -0.172665 1.935 255 255 255
-0.344997 0.167889 0.678 255 255 255
0.414154 -0.115262 0.934 255 255 255
0.364547 -0.0493915 0.847 255 255 255
-0.25332 -0.0432867 0.621 255 255 255
-0.173819 0.286551 0.871 255 255 255
0.319201 0.0189438 1.27 255 255 255
-0.253862 -0.16007 1.935 255 255 255
0.374654 -0.0249788 0.815 255 255 255
0.0834652 0.12781 1.535 255 255 255
0.157517 -0.23069 1.036 255 255 255
0.427755 0.311678 1.267 255 255 255
0.552066 0.271887 1.227 255 255 255
0.187115 -0.321532 0.924 255 255 255
-0.196148 0.313208 0.851 255 255 255
-0.29377 -0.265183 1.794 255 255 255
0.334425 -0.0137554 1.079 255 255 255
0.147622 0.129564 0.607 255 255 255
-0.267455 -0.0467954 0.614 255 255 255
-0.270203 -0.0420718 0.618 255 255 255
0.54878 0.42175 1.126 255 255 255
0.0300349 -0.155999 1.281 255 255 255
-0.0542488 -0.279327 1.302 255 255 255
0.44914 0.0819319 0.984 255 255 255
0.441117 0.367483 1.213 255 255 255
-0.17542 -0.375386 1.571 255 255 255
-0.337131 0.0735341 0.644 255 255 255
0.071289 0.114162 0.68 255 255 255
-0.0172551 0.12596 1.607 255 255 255
-0.110902 0.0519131 0.691 255 255 255
0.413528 -0.134 0.887 255 255 255
-0.221148 0.15029 0.732 255 255 255
-0.834699 -0.671584 2.582 255 255 255
0.384193 0.0956373 1.273 255 255 255
0.395539 -0.128785 0.944 255 255 255
