ply
format ascii 1.0
comment Created by Open3D
element vertex 1282
property double x
property double y
property double z
property uchar red
property uchar green
property uchar blue
end_header
-0.12094 -0.0568028 0.376 255 255 255
0.333262 -0.109284 0.666 255 255 255
0.317006 -0.101894 0.697 255 255 255
0.353819 0.00359636 0.698 255 255 255
-0.132767 -0.185585 0.718 255 255 255
-0.127131 0.15331 0.466 255 255 255
-0.0577468 0.0393997 0.73 255 255 255
0.271623 -0.217587 0.697 255 255 255
-0.173802 0.102698 0.399 255 255 255
-0.0425341 0.188423 0.714 255 255 255
0.0584299 -0.291815 0.827 255 255 255
-0.113592 0.0774496 0.44 255 255 255
0.145204 -0.112342 0.935 255 255 255
-0.102871 -0.0188158 0.401 255 255 255
-0.139301 -0.0200902 0.376 255 255 255
-0.116515 0.125198 0.463 255 255 255
0.332228 0.0790471 0.769 255 255 255
0.332248 0.166699 0.825 255 255 255
0.336793 0.0394681 0.754 255 255 255
0.160253 -0.0803035 0.934 255 255 255
0.216958 0.124063 0.963 255 255 255
-0.183474 0.160843 0.415 255 255 255
-0.0265718 -0.173287 0.833 255 255 255
0.323935 -0.185381 0.637 255 255 255
-0.17325 -0.0884912 0.757 255 255 255
-0.179292 0.00463787 0.349 255 255 255
0.0271248 0.19253 0.712 255 255 255
-0.169683 0.0528041 0.381 255 255 255
0.0647426 -0.109529 0.681 255 255 255
0.307326 -0.0253598 0.748 255 255 255
0.223671 0.101752 0.945 255 255 255
0.132536 -0.173608 0.921 255 255 255
-0.0129966 -0.19068 0.832 255 255 255
0.198041 -0.159348 0.831 255 255 255
0.0770136 0.187181 0.672 255 255 255
0.040794 -0.179915 0.636 255 255 255
0.0308583 0.118851 0.81 255 255 255
-0.0882782 -0.011042 0.69 255 255 255
-0.184165 0.0231387 0.354 255 255 255
-0.0481423 -0.0426179 0.711 255 255 255
-0.264005 -0.186082 0.578 255 255 255
0.126039 -0.107871 0.963 255 255 255
0.22263 0.24289 0.632 0 0 0
0.152083 0.220267 0.69 255 255 255
0.255075 0.161315 0.925 255 255 255
0.129411 0.0116944 0.784 255 255 255
0.250474 -0.145257 0.764 255 255 255
0.166366 -0.165503 0.878 255 255 255
-0.179219 0.0592955 0.375 255 255 255
0.30548 -0.218858 0.644 255 255 255
-0.164934 0.00960229 0.365 255 255 255
-0.10352 -0.2101 0.726 255 255 255
-0.121706 0.0290816 0.414 255 255 255
-0.141918 0.0873292 0.422 255 255 255
-0.03594 0.167732 0.746 255 255 255
-0.0678749 -0.231692 0.75 255 255 255
0.335852 -0.0967119 0.669 255 255 255
0.36012 0.218785 0.734 255 255 255
0.335042 0.0710735 0.764 255 255 255
0.0392965 0.166295 0.745 255 255 255
-0.0517326 -0.0758062 0.697 255 255 255
-0.0866662 0.15582 0.765 255 255 255
-0.0872147 -0.229634 0.728 255 255 255
0.182303 0.229893 0.669 255 255 255
0.0436238 -0.183926 0.632 255 255 255
-0.124105 -0.047977 0.722 255 255 255
0.07324 -0.0631635 0.721 255 255 255
0.274909 -0.216839 0.691 255 255 255
0.26595 -0.218316 0.703 255 255 255
0.0477389 -0.178783 0.632 255 255 255
-0.0885444 -0.267888 0.701 255 255 255
-0.0468829 -0.20342 0.787 255 255 255
0.0967707 0.0197196 0.799 0 0 0
0.211644 -0.246882 0.763 255 255 255
0.2013 -0.0378361 0.9 255 255 255
0.169248 -0.0689927 0.925 255 255 255
-0.261279 -0.20113 0.57 255 255 255
-0.050146 -0.218818 0.778 255 255 255
0.0661412 -0.106672 0.684 255 255 255
0.167759 -0.0258053 0.942 255 255 255
-0.0812206 0.162372 0.496 255 255 255
0.320105 -0.154249 0.659 255 255 255
0.299137 -0.133659 0.703 255 255 255
-0.115707 -0.0173797 0.398 255 255 255
-0.154487 -0.00945644 0.367 255 255 255
-0.244881 -0.202269 0.584 255 255 255
0.219408 0.134612 0.96 255 255 255
0.208104 -0.107662 0.85 255 255 255
-0.148894 -0.0484564 0.351 255 255 255
0.299208 -0.0633658 0.737 255 255 255
0.165014 -0.241644 0.835 255 255 255
0.0861161 0.24151 0.642 255 255 255
0.28709 -0.0126903 0.793 255 255 255
0.370446 0.18135 0.773 255 255 255
-0.162232 0.0621417 0.393 255 255 255
0.306929 -0.22784 0.634 255 255 255
0.0800945 0.13851 0.644 255 255 255
-0.170583 -0.148855 0.71 255 255 255
-0.156728 -0.0733153 0.779 255 255 255
0.173483 -0.22534 0.83 255 255 255
0.370886 0.094842 0.727 255 255 255
-0.157999 0.159792 0.44 255 255 255
0.216594 -0.105028 0.84 255 255 255
0.211858 0.193397 0.742 255 255 255
-0.0683478 -0.25249 0.729 255 255 255
-0.102233 -0.0288919 0.396 255 255 255
0.268349 0.0813996 0.875 255 255 255
0.319086 0.199425 0.862 255 255 255
0.0817465 -0.141798 0.666 255 255 255
-0.191221 0.0902869 0.377 255 255 255
-0.167942 0.0265211 0.369 255 255 255
-0.0283869 -0.0748037 0.709 255 255 255
-0.190422 -0.235788 0.617 255 255 255
0.334025 -0.0599267 0.697 255 255 255
0.167844 0.177206 0.745 255 255 255
-0.0957823 0.162664 0.492 255 255 255
0.355125 0.216924 0.822 255 255 255
0.262294 0.228565 0.662 255 255 255
0.259326 -0.0963274 0.791 255 255 255
-0.0392462 -0.22676 0.788 255 255 255
0.10671 0.227033 0.68 255 255 255
0.000510623 -0.102209 0.777 255 255 255
-0.18004 0.108644 0.397 255 255 255
0.11509 -0.298565 0.858 255 255 255
0.0294669 0.0357203 0.808 255 255 255
-0.0164512 0.236385 0.648 255 255 255
0.317669 0.0749671 0.792 255 255 255
-0.122449 -0.0536005 0.375 255 255 255
-0.169287 -0.0448785 0.337 255 255 255
0.0173022 -0.282399 0.793 255 255 255
0.294091 0.0117988 0.791 255 255 255
-0.093437 0.139541 0.484 255 255 255
-0.155346 0.0378912 0.387 255 255 255
-0.143963 0.0827027 0.416 255 255 255
0.213261 0.0257002 0.92 255 255 255
-0.180078 0.0880452 0.386 255 255 255
0.176941 -0.206183 0.84 255 255 255
0.0606645 -0.0351984 0.725 255 255 255
0.0451854 0.040794 0.831 255 255 255
0.220247 0.1906 0.75 255 255 255
0.256863 0.118716 0.91 255 255 255
0.112398 0.0194974 0.79 255 255 255
0.00252374 0.240539 0.645 255 255 255
0.0290116 -0.154699 0.675 255 255 255
0.276743 -0.0468737 0.782 255 255 255
0.163541 -0.109338 0.91 255 255 255
0.304791 -0.232699 0.636 255 255 255
-0.128372 0.149954 0.465 255 255 255
-0.125145 0.127758 0.456 255 255 255
0.0438728 -0.0933149 0.684 255 255 255
-0.156063 -0.0337969 0.353 255 255 255
0.219408 0.120552 0.96 255 255 255
-0.131825 -0.0890146 0.338 255 255 255
0.268722 -0.13753 0.749 255 255 255
0.0471106 0.202664 0.699 255 255 255
0.00901487 0.231819 0.659 255 255 255
-0.0495636 -0.150062 0.832 255 255 255
-0.0786954 -0.088552 0.737 0 0 0
-0.136195 0.133666 0.446 255 255 255
-0.154308 0.169259 0.448 255 255 255
-0.174339 0.157432 0.424 255 255 255
0.204114 0.10749 0.969 255 255 255
-0.122263 -0.0323907 0.384 255 255 255
-0.122813 0.161308 0.75 255 255 255
0.114097 -0.0214771 0.784 255 255 255
-0.164746 0.167237 0.437 255 255 255
0.288304 -0.141362 0.713 255 255 255
-0.127362 -0.175387 0.734 255 255 255
-0.169814 0.0172765 0.364 255 255 255
-0.00205017 0.147869 0.789 255 255 255
0.24605 -0.263681 0.705 255 255 255
0.0595476 0.179655 0.685 255 255 255
0.00153322 0.224029 0.671 255 255 255
-0.172784 0.0590042 0.381 255 255 255
-0.169683 0.0552841 0.381 255 255 255
-0.0952549 -0.252698 0.7 255 255 255
0.329259 -0.128316 0.658 255 255 255
-0.033562 -0.0455639 0.721 255 255 255
0.277315 -0.0708453 0.766 255 255 255
-0.165817 -0.0619856 0.78 255 255 255
0.214962 0.00171174 0.902 255 255 255
0.0832121 0.239966 0.652 0 0 0
0.000542167 -0.201159 0.825 255 255 255
0.3271 -0.0317463 0.727 255 255 255
-0.170152 0.020945 0.366 255 255 255
0.0484555 0.19668 0.702 255 255 255
-0.131842 0.179095 0.472 255 255 255
-0.16619 -0.00341769 0.36 255 255 255
-0.033336 0.151826 0.77 255 255 255
-0.0460571 0.230413 0.649 255 255 255
-0.152183 -0.0411478 0.352 255 255 255
-0.242365 -0.219003 0.578 255 255 255
0.170108 0.238287 0.628 255 255 255
-0.10151 0.161155 0.755 255 255 255
0.0729659 -0.0306893 0.73 255 255 255
0.29787 -0.0138221 0.784 255 255 255
0.0998757 0.0974287 0.664 255 255 255
0.110857 -0.323683 0.847 255 255 255
-0.128924 -0.159401 0.743 255 255 255
-0.15337 0.133997 0.433 255 255 255
0.103377 0.234661 0.652 0 0 0
0.078612 0.173849 0.667 255 255 255
0.16106 -0.232153 0.85 255 255 255
-0.171174 0.150865 0.423 255 255 255
0.0669784 0.0694482 0.868 255 255 255
-0.0538066 -0.209416 0.776 255 255 255
-0.120396 0.177901 0.728 255 255 255
0.36716 0.0847903 0.722 255 255 255
0.072638 -0.134327 0.672 255 255 255
-0.270587 -0.190398 0.574 255 255 255
0.249857 -0.230018 0.733 255 255 255
0.074853 0.135366 0.644 255 255 255
0.0807835 -0.142011 0.667 255 255 255
0.264756 -0.0639037 0.788 255 255 255
0.296806 -0.0699272 0.743 255 255 255
0.229001 -0.146899 0.793 255 255 255
-0.143312 -0.246476 0.659 255 255 255
-0.15375 0.0939847 0.415 255 255 255
0.126808 0.233915 0.647 255 255 255
0.111889 0.240138 0.617 255 255 255
-0.111902 -0.0230921 0.396 255 255 255
-0.0169532 0.0164121 0.766 255 255 255
0.0139377 0.0444191 0.823 255 255 255
-0.136337 -0.0650007 0.354 255 255 255
-0.120927 -0.0114925 0.396 255 255 255
0.281328 -0.0690536 0.76 255 255 255
0.00589242 -0.188388 0.822 255 255 255
0.297094 -0.242962 0.644 255 255 255
0.334804 0.171347 0.828 255 255 255
-0.18785 -0.215808 0.632 255 255 255
-0.160179 0.03678 0.382 255 255 255
-0.0782303 0.215637 0.662 255 255 255
-0.083411 0.167957 0.747 255 255 255
0.109143 -0.0035786 0.776 255 255 255
-0.278691 -0.20683 0.553 255 255 255
0.169919 -0.0378668 0.937 255 255 255
-0.167106 -0.133123 0.725 255 255 255
-0.171242 -0.0294045 0.342 255 255 255
-0.184327 0.136537 0.405 255 255 255
0.0502109 0.151746 0.745 255 255 255
0.308095 -0.198842 0.654 255 255 255
-0.0349119 -0.267086 0.75 255 255 255
-0.168674 0.11138 0.407 255 255 255
0.20267 -0.23258 0.786 255 255 255
0.355829 0.165634 0.788 255 255 255
-0.120421 -0.250263 0.675 255 255 255
0.196572 -0.129015 0.854 255 255 255
0.175532 0.0803295 1.004 255 255 255
-0.285355 -0.186333 0.559 255 255 255
0.300104 0.231377 0.667 255 255 255
0.0112111 0.228565 0.662 255 255 255
0.208233 0.0335827 0.931 255 255 255
-0.165388 -0.0477618 0.338 255 255 255
0.302481 -0.206483 0.658 255 255 255
0.229288 0.236286 0.642 255 255 255
0.184737 0.0777551 0.992 255 255 255
-0.189733 0.132547 0.397 255 255 255
0.317634 -0.0214179 0.738 255 255 255
-0.126805 0.0598599 0.422 255 255 255
0.136251 0.186133 0.701 255 255 255
0.0116949 -0.110445 0.764 255 255 255
0.215455 -0.14567 0.815 255 255 255
-0.178164 0.159364 0.42 255 255 255
-0.220944 -0.222086 0.599 255 255 255
-0.122263 0.0909616 0.82 255 255 255
-0.112582 0.0988346 0.808 255 255 255
-0.16928 -0.0102446 0.353 255 255 255
-0.0408645 0.244691 0.634 255 255 255
0.21093 -0.197228 0.793 255 255 255
0.0204104 0.103542 0.814 255 255 255
-0.0961313 -0.0645472 0.382 255 255 255
0.313834 0.104178 0.819 255 255 255
0.300344 -0.163751 0.69 255 255 255
-0.128555 -0.0959088 0.341 255 255 255
-0.168985 0.0965135 0.403 255 255 255
0.173434 0.0551548 0.992 255 255 255
0.322421 -0.209637 0.632 255 255 255
0.195432 -0.205157 0.809 255 255 255
-0.134421 0.0884902 0.431 255 255 255
-0.0988146 -0.259193 0.693 255 255 255
0.244806 -0.162619 0.758 255 255 255
-0.216171 -0.222218 0.602 255 255 255
0.272066 -0.185828 0.71 255 255 255
0.37072 0.0974756 0.729 255 255 255
-0.239158 -0.203731 0.591 255 255 255
-0.0848187 -0.247521 0.708 255 255 255
0.309468 -0.163109 0.678 255 255 255
0.10834 0.0287852 0.798 255 255 255
-0.121617 0.0339609 0.416 255 255 255
-0.201313 0.114185 0.381 255 255 255
-0.172615 0.0628889 0.382 255 255 255
-0.0255138 0.158721 0.761 255 255 255
-0.0942773 0.0270241 0.424 255 255 255
-0.173577 0.110286 0.403 255 255 255
-0.158211 -0.131013 0.733 255 255 255
-0.13909 -0.0822788 0.333 255 255 255
-0.0823258 0.111874 0.771 255 255 255
-0.137467 0.0333889 0.401 255 255 255
-0.120803 0.140873 0.465 255 255 255
-0.114434 -0.045632 0.385 255 255 255
-0.113359 -0.114927 0.795 255 255 255
0.0471993 0.102846 0.819 255 255 255
0.147023 -0.196398 0.882 255 255 255
-0.0823051 -0.212815 0.748 255 255 255
0.330707 -0.0580718 0.702 255 255 255
-0.0607529 0.147683 0.768 255 255 255
0.230718 0.089543 0.93 255 255 255
0.365216 0.234124 0.803 255 255 255
-0.110891 0.171665 0.488 255 255 255
0.337912 -0.0418387 0.698 255 255 255
-0.135981 -0.220055 0.687 255 255 255
-0.120945 0.0628004 0.428 255 255 255
-0.139301 -0.0170309 0.376 255 255 255
-0.0982704 -0.151717 0.778 255 255 255
0.227684 -0.138126 0.802 255 255 255
-0.212174 -0.20834 0.616 255 255 255
0.286241 0.045814 0.824 255 255 255
0.188624 0.00178195 0.939 255 255 255
0.272452 -0.038257 0.788 255 255 255
0.233033 -0.181012 0.768 255 255 255
0.0831102 -0.181895 0.643 255 255 255
0.356938 0.159283 0.782 255 255 255
0.300847 0.0948864 0.831 255 255 255
-0.127603 -0.0608182 0.367 255 255 255
-0.108714 0.0479212 0.432 255 255 255
0.253851 0.237758 0.646 255 255 255
-0.0934542 0.0570714 0.443 255 255 255
-0.0975027 -0.148679 0.782 255 255 255
0.263295 -0.240021 0.693 255 255 255
-0.12174 -0.0764842 0.362 255 255 255
-0.147917 -0.0845332 0.325 255 255 255
0.262878 0.00158459 0.835 255 255 255
0.215739 -0.106649 0.842 255 255 255
0.333046 0.0664464 0.768 255 255 255
-0.148512 -0.00536209 0.373 255 255 255
0.34936 0.0429047 0.729 255 255 255
-0.102381 0.0514379 0.438 255 255 255
-0.123754 -0.0756855 0.361 255 255 255
0.281898 0.0392518 0.827 255 255 255
0.248208 0.23844 0.645 255 255 255
-0.131067 -0.055735 0.365 255 255 255
0.0837164 -0.00351865 0.763 255 255 255
-0.050961 -0.0546447 0.702 255 255 255
-0.115219 0.1031 0.452 255 255 255
-0.0949462 0.16883 0.496 255 255 255
0.297589 -0.118156 0.713 255 255 255
-0.193867 0.124181 0.391 255 255 255
-0.259791 -0.197966 0.577 255 255 255
-0.105158 0.0548311 0.746 255 255 255
0.0162132 -0.250678 0.803 255 255 255
-0.164547 -0.0632549 0.78 255 255 255
0.266792 0.0951839 0.884 255 255 255
0.32225 -0.148887 0.659 255 255 255
0.167316 0.00812119 0.966 255 255 255
0.257135 0.15563 0.927 255 255 255
-0.113218 0.0169957 0.415 255 255 255
0.0919748 0.239183 0.625 255 255 255
0.234091 -0.0639436 0.839 255 255 255
0.265194 0.218074 0.701 255 255 255
-0.0109706 0.0920714 0.784 0 0 0
-0.038883 0.0506451 0.756 255 255 255
-0.174798 -0.0157142 0.816 255 255 255
-0.0218594 0.232539 0.652 255 255 255
-0.0859451 0.171005 0.5 255 255 255
0.195504 -0.0235509 0.914 255 255 255
0.259317 -0.0509987 0.807 255 255 255
-0.0675428 0.159749 0.76 255 255 255
0.321562 0.186966 0.85 255 255 255
-0.0633275 0.113088 0.754 255 255 255
-0.144382 -0.0823613 0.329 255 255 255
0.192082 -0.0640562 0.898 255 255 255
0.186076 -0.19994 0.82 255 255 255
0.306862 -0.224419 0.636 255 255 255
0.233052 0.241043 0.638 255 255 255
0.275234 -0.222938 0.689 255 255 255
0.330348 0.0159621 0.745 255 255 255
0.230523 -0.0125355 0.872 255 255 255
-0.0991511 -0.0345165 0.394 255 255 255
0.32249 0.16115 0.831 255 255 255
-0.130857 0.0670434 0.424 255 255 255
0.241523 -0.0985194 0.809 255 255 255
0.276591 -0.0756335 0.764 255 255 255
-0.176338 -0.229233 0.635 255 255 255
-0.135045 0.0938333 0.433 255 255 255
0.125088 0.0598291 0.814 0 0 0
-0.280603 -0.201256 0.555 255 255 255
0.368599 0.216055 0.799 255 255 255
0.00579206 0.126447 0.808 255 255 255
0.198285 0.000250647 0.927 255 255 255
-0.167528 -0.00380918 0.826 255 255 255
0.0439348 0.113298 0.808 255 255 255
0.015273 0.202954 0.7 255 255 255
0.0321371 -0.276248 0.809 255 255 255
0.271947 -0.0977825 0.772 255 255 255
0.074225 0.157343 0.657 255 255 255
0.353743 0.121283 0.775 255 255 255
-0.170497 -0.0240481 0.345 255 255 255
-0.157129 -0.0767432 0.319 255 255 255
0.142242 -0.193399 0.888 255 255 255
-0.111087 0.174104 0.737 255 255 255
0.193155 -0.218552 0.805 255 255 255
0.116431 -0.283682 0.868 0 0 0
-0.0891126 0.00214339 0.416 255 255 255
-0.0283224 0.080403 0.77 255 255 255
0.033454 0.129237 0.809 255 255 255
-0.0278474 0.181887 0.725 255 255 255
0.350305 0.204968 0.817 255 255 255
-0.155584 -0.0963892 0.761 255 255 255
-0.195549 0.1403 0.397 255 255 255
0.120958 -0.289465 0.86 255 255 255
-0.163926 -0.0395376 0.343 255 255 255
-0.0373401 -0.0293397 0.726 0 0 0
-0.0943355 -0.0462246 0.39 255 255 255
0.265353 0.0894297 0.884 255 255 255
0.0257106 -0.0881489 0.705 255 255 255
-0.112571 0.158698 0.755 255 255 255
0.134185 0.091895 0.679 0 0 0
0.191522 -0.156347 0.844 255 255 255
0.244684 -0.18981 0.739 255 255 255
-0.0848008 0.0534669 0.443 255 255 255
-0.0968114 -0.0761796 0.375 255 255 255
-0.0837691 0.15706 0.492 255 255 255
-0.173308 -0.0554227 0.328 255 255 255
-0.142644 -0.185566 0.709 255 255 255
0.208437 0.00469896 0.912 255 255 255
0.358007 0.0185206 0.704 255 255 255
-0.0844593 -0.265975 0.705 255 255 255
0.289434 -0.229665 0.66 255 255 255
0.198283 0.227908 0.657 0 0 0
-0.154608 -0.0398886 0.351 255 255 255
-0.143354 -0.00541959 0.377 255 255 255
-0.0904388 0.106286 0.776 255 255 255
-0.0515842 0.196981 0.695 255 255 255
0.17938 0.224899 0.687 255 255 255
0.0816806 0.127235 0.64 255 255 255
-0.0934993 0.0976505 0.461 255 255 255
0.133968 0.210089 0.701 255 255 255
-0.0915199 0.196321 0.513 255 255 255
0.299654 -0.203574 0.666 255 255 255
0.19457 0.193031 0.736 255 255 255
-0.108727 -0.112904 0.799 255 255 255
0.0338574 0.159539 0.759 255 255 255
-0.19608 -0.205523 0.632 255 255 255
-0.0259338 -0.199556 0.813 255 255 255
-0.153133 0.0647117 0.401 255 255 255
0.00584941 0.0400576 0.816 255 255 255
-0.264861 -0.214149 0.558 255 255 255
0.324276 -0.0213018 0.734 255 255 255
-0.190892 0.105986 0.385 255 255 255
0.310429 -0.0728518 0.724 255 255 255
0.134115 0.11137 0.657 255 255 255
-0.237539 -0.221648 0.58 255 255 255
-0.181203 -0.005505 0.344 255 255 255
-0.11608 -0.209537 0.716 255 255 255
-0.200354 0.140365 0.39 255 255 255
0.0629706 -0.19052 0.63 255 255 255
-0.0723959 -0.21471 0.759 255 255 255
-0.0751629 -0.209358 0.762 255 255 255
0.287894 -0.210407 0.674 255 255 255
-0.09551 0.180271 0.728 255 255 255
-0.145495 0.0094032 0.381 255 255 255
-0.14768 -0.0725032 0.328 255 255 255
-0.20117 -0.229142 0.61 255 255 255
-0.105029 -0.0375309 0.392 255 255 255
-0.120945 0.0634969 0.428 255 255 255
-0.121195 0.0477238 0.424 255 255 255
0.262513 0.0899355 0.889 255 255 255
0.176629 0.0351338 0.974 255 255 255
-0.0814761 -0.252485 0.709 255 255 255
-0.179929 0.142225 0.41 255 255 255
0.15654 -0.242646 0.848 255 255 255
-0.118535 0.129588 0.795 255 255 255
-0.114785 0.120738 0.805 255 255 255
0.276999 -0.191731 0.702 255 255 255
-0.167646 0.0308052 0.854 255 255 255
-0.144477 -0.0831785 0.328 255 255 255
0.223473 -0.109181 0.83 255 255 255
0.117606 0.0797404 0.679 255 255 255
0.0247247 0.242031 0.649 255 255 255
0.337748 -0.0516886 0.693 255 255 255
0.213378 0.0949587 0.954 255 255 255
-0.0924587 0.0207161 0.422 255 255 255
-0.105919 -0.0673834 0.377 255 255 255
0.0942571 0.168589 0.655 255 255 255
-0.09712 -0.0674783 0.381 255 255 255
0.255382 0.118716 0.91 255 255 255
-0.16307 -0.0233904 0.352 255 255 255
0.225946 -0.280961 0.729 255 255 255
0.373857 0.168849 0.762 255 255 255
0.341875 0.0635837 0.749 255 255 255
-0.0884074 0.232107 0.642 255 255 255
0.0696723 -0.192032 0.635 255 255 255
0.279106 -0.0218058 0.796 255 255 255
0.0295273 -0.117202 0.687 255 255 255
-0.0860998 -0.18902 0.76 255 255 255
-0.109796 0.0247188 0.42 255 255 255
-0.128957 0.14055 0.459 255 255 255
-0.013184 -0.179696 0.844 255 255 255
-0.166035 -0.0216104 0.351 255 255 255
-0.278847 -0.211203 0.548 255 255 255
-0.0936733 0.0199456 0.714 255 255 255
0.326503 -0.17688 0.64 255 255 255
-0.0858122 0.178934 0.504 255 255 255
0.182602 -0.0463634 0.924 255 255 255
0.0834783 -0.302341 0.849 255 255 255
-0.0395948 -0.201606 0.795 255 255 255
0.216397 0.194342 0.741 0 0 0
-0.0132987 0.0428673 0.771 255 255 255
-0.0973423 -0.21659 0.724 255 255 255
0.0900465 0.0830366 0.688 255 255 255
-0.116004 0.0826492 0.441 255 255 255
0.336776 -0.0441104 0.698 255 255 255
-0.131457 0.0473861 0.415 255 255 255
0.236562 0.0665912 0.906 255 255 255
-0.0660649 0.0631587 0.73 255 255 255
-0.164616 -0.0316193 0.348 255 255 255
0.240328 0.230412 0.655 255 255 255
-0.142295 -0.199153 0.696 255 255 255
-0.0182792 0.184148 0.72 255 255 255
0.00966555 -0.031106 0.802 255 255 255
0.333293 0.142226 0.808 255 255 255
-0.129479 0.0397648 0.413 255 255 255
0.359903 0.0828413 0.736 255 255 255
0.20991 -0.0288226 0.893 255 255 255
0.22122 0.199401 0.733 0 0 0
0.29952 -0.0840318 0.729 255 255 255
-0.147366 0.126538 0.434 255 255 255
0.0284303 0.106453 0.816 255 255 255
0.309103 -0.136207 0.687 255 255 255
0.328758 -0.130259 0.657 255 255 255
-0.101993 0.119952 0.469 255 255 255
0.0129046 -0.0927958 0.762 255 255 255
-0.168877 0.167115 0.433 255 255 255
-0.0385987 0.126328 0.775 255 255 255
-0.0861978 0.0222466 0.425 255 255 255
-0.164344 0.0753138 0.395 255 255 255
0.232735 -0.0453633 0.849 255 255 255
0.24415 0.0142276 0.86 255 255 255
-0.0160073 -0.163988 0.848 255 255 255
0.293832 -0.145306 0.704 255 255 255
-0.128012 0.000106532 0.394 255 255 255
0.269576 0.0889238 0.879 255 255 255
0.00840175 0.120888 0.806 255 255 255
-0.0909358 -0.0150862 0.406 255 255 255
0.0568589 0.185137 0.693 255 255 255
0.174078 -0.298331 0.784 255 255 255
-0.0232482 0.0539486 0.768 255 255 255
0.068668 0.147271 0.655 255 255 255
-0.0908181 -0.239666 0.719 255 255 255
0.264152 0.0804327 0.88 255 255 255
-0.0440391 -0.227579 0.782 255 255 255
-0.104364 -0.0499772 0.685 255 255 255
-0.122054 0.00734108 0.404 255 255 255
0.153529 0.209586 0.707 255 255 255
0.228122 0.0979454 0.938 255 255 255
-0.163408 -0.152018 0.714 255 255 255
-0.00651341 0.187523 0.715 255 255 255
-0.273369 -0.185081 0.572 255 255 255
0.310673 0.211791 0.688 255 255 255
0.0494007 -0.142436 0.654 255 255 255
-0.15311 -0.0082845 0.368 255 255 255
-0.119737 -0.0509536 0.378 255 255 255
0.230694 0.224993 0.661 255 255 255
-0.130095 0.113089 0.445 255 255 255
0.250701 0.121517 0.92 255 255 255
-0.13226 -0.0468647 0.37 255 255 255
-0.148087 -0.233921 0.666 255 255 255
0.157507 -0.117769 0.918 255 255 255
-0.182846 0.0767825 0.38 255 255 255
-0.153224 -0.0164873 0.364 255 255 255
-0.0996702 -0.00777352 0.699 255 255 255
-0.169247 0.0756298 0.39 255 255 255
-0.134423 -0.0947946 0.339 255 255 255
-0.106992 -0.0966121 0.358 255 255 255
0.0105196 -0.0948997 0.769 255 255 255
-0.149782 -0.0280229 0.36 255 255 255
0.364973 0.139776 0.759 255 255 255
-0.146672 0.170055 0.456 255 255 255
0.176002 -0.102051 0.898 255 255 255
0.308021 -0.105358 0.705 255 255 255
0.155095 -0.206211 0.863 255 255 255
-0.163738 0.0175138 0.369 255 255 255
0.339849 -0.0306546 0.702 255 255 255
0.253363 -0.245772 0.703 255 255 255
-0.0668772 0.210919 0.678 255 255 255
-0.113399 -0.0154754 0.399 255 255 255
0.292045 -0.166546 0.697 255 255 255
-0.188104 0.107796 0.387 255 255 255
0.31216 0.0177969 0.772 255 255 255
-0.277538 -0.182899 0.571 255 255 255
0.135655 0.119646 0.644 255 255 255
-0.144721 -0.0742436 0.331 255 255 255
0.309781 -0.020573 0.751 255 255 255
0.164637 -0.278937 0.813 255 255 255
-0.0245057 0.24312 0.638 255 255 255
0.215786 0.0316199 0.918 255 255 255
-0.141294 -0.026995 0.37 0 0 0
0.0544616 -0.0385241 0.721 255 255 255
0.299434 -0.0283145 0.762 255 255 255
-0.00595555 0.0636876 0.796 255 255 255
-0.145633 -0.0861177 0.327 255 255 255
-0.231637 -0.221253 0.589 255 255 255
-0.157252 -0.0406803 0.348 255 255 255
-0.0358437 -0.273424 0.744 255 255 255
-0.286886 -0.180931 0.562 255 255 255
-0.113793 -0.0967114 0.352 255 255 255
-0.157485 0.0248381 0.38 255 255 255
-0.166234 -0.0446687 0.788 255 255 255
-0.0471663 -0.173308 0.814 255 255 255
-0.170617 -0.000484429 0.357 255 255 255
0.31352 -0.188685 0.652 255 255 255
0.0560441 -0.145227 0.657 255 255 255
0.019893 -0.0385941 0.745 255 255 255
-0.0343067 0.172904 0.737 255 255 255
-0.156348 -0.0500184 0.346 255 255 255
0.32265 0.126917 0.811 255 255 255
-0.0956227 -0.0296855 0.398 255 255 255
0.296003 -0.142405 0.701 255 255 255
-0.0151322 0.173139 0.738 255 255 255
0.297692 0.150154 0.861 255 255 255
0.176517 -0.249009 0.819 255 255 255
-0.110644 0.00475797 0.408 255 255 255
-0.0872075 0.129847 0.781 255 255 255
-0.121404 -0.0774479 0.361 255 255 255
0.182291 -0.0942168 0.893 255 255 255
-0.044186 -0.0221285 0.722 255 255 255
0.235751 -0.0839483 0.821 255 255 255
-0.0966264 -0.0486382 0.389 255 255 255
0.175931 0.0651674 0.997 255 255 255
-0.0146293 0.00777663 0.775 255 255 255
0.199691 -0.0742286 0.88 255 255 255
-0.0607423 -0.189886 0.784 255 255 255
-0.0997071 0.0102423 0.415 255 255 255
-0.16563 0.077885 0.395 255 255 255
0.271053 0.247922 0.637 255 255 255
-0.143258 0.000102746 0.38 0 0 0
0.285276 0.246349 0.641 255 255 255
-0.130211 0.0779696 0.431 255 255 255
0.294519 -0.125294 0.714 255 255 255
0.298553 0.042033 0.803 255 255 255
0.313053 0.14547 0.842 255 255 255
-0.198064 0.127017 0.388 255 255 255
0.06286 -0.0814774 0.697 255 255 255
0.239961 -0.230738 0.743 255 255 255
-0.157565 0.0676355 0.399 255 255 255
-0.165391 -0.0533727 0.784 255 255 255
-0.129698 0.0702973 0.427 255 255 255
0.275131 -0.177406 0.718 255 255 255
-0.0765598 0.0305305 0.717 255 255 255
-0.120865 -0.0922476 0.346 255 255 255
-0.141162 -0.19802 0.696 255 255 255
0.249052 0.129704 0.925 255 255 255
-0.145545 -0.0821109 0.328 255 255 255
0.250641 -0.249914 0.705 255 255 255
-0.159001 -0.193776 0.685 255 255 255
0.306618 0.0836728 0.814 255 255 255
-0.0655822 0.153531 0.766 255 255 255
0.177777 -0.15724 0.864 255 255 255
0.303243 -0.198043 0.662 255 255 255
-0.161391 0.00430738 0.836 255 255 255
-0.117704 -0.0916053 0.35 255 255 255
0.233209 0.0777606 0.916 255 255 255
0.337778 -0.0150789 0.722 255 255 255
-0.0922075 0.0405877 0.73 255 255 255
-0.0839801 0.0115971 0.701 255 255 255
-0.172063 0.0226697 0.365 255 255 255
-0.159674 0.0583044 0.393 255 255 255
-0.143181 -0.215755 0.684 255 255 255
-0.1217 -0.249534 0.676 255 255 255
-0.0590125 0.17016 0.746 255 255 255
-0.13061 -0.0253175 0.381 255 255 255
0.0123684 0.027831 0.808 255 255 255
0.338134 0.063031 0.757 255 255 255
-0.128901 -0.192059 0.716 255 255 255
0.337081 0.204537 0.837 255 255 255
0.115352 0.21077 0.692 255 255 255
-0.198064 0.127648 0.388 255 255 255
0.291473 0.110497 0.847 255 255 255
0.247105 0.193041 0.75 255 255 255
-0.192896 0.108211 0.384 255 255 255
0.122322 0.0351898 0.796 255 255 255
0.252708 -0.0426866 0.824 255 255 255
-0.00712968 0.226014 0.664 255 255 255
0.0277887 -0.160572 0.672 255 255 255
0.301146 -0.0174695 0.776 255 255 255
0.348548 0.192766 0.816 255 255 255
-0.0169089 0.15686 0.764 255 255 255
-0.12433 -0.0459108 0.377 255 255 255
0.335907 -0.0255111 0.718 255 255 255
0.278493 -0.133399 0.733 255 255 255
-0.0412484 0.216256 0.674 255 255 255
-0.259441 -0.214769 0.562 255 255 255
0.34469 0.120446 0.786 255 255 255
-0.156247 0.0242198 0.38 255 255 255
0.131003 0.229418 0.674 255 255 255
-0.175237 0.051262 0.871 255 255 255
-0.142974 -0.00907647 0.376 255 255 255
-0.0885098 -0.0144611 0.407 255 255 255
0.183729 0.192909 0.731 255 255 255
-0.127298 -0.0155994 0.386 255 255 255
-0.171019 0.0625933 0.384 255 255 255
0.0725304 -0.172209 0.642 255 255 255
-0.102588 -0.0411473 0.39 255 255 255
-0.0623398 0.240833 0.632 255 255 255
0.310886 -0.122135 0.696 255 255 255
-0.195397 0.11071 0.384 255 255 255
0.333528 0.155394 0.815 255 255 255
0.341287 0.149743 0.799 255 255 255
-0.146249 -0.0874459 0.326 255 255 255
0.0316857 -0.163569 0.662 255 255 255
0.318597 -0.119503 0.681 255 255 255
0.196266 0.175968 0.766 0 0 0
0.240052 -0.0746869 0.822 255 255 255
-0.169631 -0.0337579 0.341 255 255 255
-0.152288 -0.0261924 0.359 0 0 0
-0.119128 0.000764779 0.403 255 255 255
0.253587 -0.214822 0.73 255 255 255
0.210915 0.171508 0.774 255 255 255
-0.13951 -0.0303303 0.782 255 255 255
-0.191835 0.0915139 0.377 255 255 255
-0.169877 -0.0793633 0.764 255 255 255
0.180045 -0.117456 0.882 255 255 255
-0.0403289 0.197264 0.696 255 255 255
-0.00731506 0.136119 0.803 255 255 255
-0.0357574 -0.208337 0.796 255 255 255
-0.06768 0.211084 0.675 255 255 255
-0.137198 -0.0652209 0.346 0 0 0
0.11565 -0.0709754 0.995 255 255 255
-0.0599368 0.203657 0.687 255 255 255
0.119663 0.130785 0.637 255 255 255
0.29081 -0.101745 0.737 255 255 255
0.315094 -0.0793068 0.708 255 255 255
-0.150493 0.140141 0.439 255 255 255
0.21654 -0.0735972 0.856 255 255 255
-0.129139 -0.0173932 0.384 255 255 255
0.0221093 0.0487313 0.828 255 255 255
0.289052 0.19832 0.895 255 255 255
-0.0826623 -0.00655058 0.69 255 255 255
0.0898743 0.117677 0.639 255 255 255
-0.156954 0.00431482 0.37 255 255 255
-0.175092 -0.0160943 0.343 255 255 255
0.245015 -0.186455 0.74 255 255 255
-0.176723 -0.0122226 0.344 255 255 255
-0.112584 -0.0161187 0.716 255 255 255
0.262911 -0.109513 0.775 255 255 255
0.234117 0.170167 0.849 255 255 255
-0.0986478 -0.0407204 0.392 255 255 255
-0.0888308 0.149902 0.773 255 255 255
-0.114952 0.064121 0.437 255 255 255
-0.0904048 -0.14393 0.798 255 255 255
0.0369204 -0.104787 0.679 255 255 255
-0.156394 0.120172 0.424 255 255 255
-0.177402 -0.01933 0.341 255 255 255
0.204405 0.20641 0.72 255 255 255
-0.115756 -0.213599 0.714 255 255 255
0.00585827 0.225611 0.666 255 255 255
-0.135546 -0.0610745 0.358 255 255 255
-0.0939112 -0.0579492 0.674 255 255 255
-0.0697613 0.241595 0.634 255 255 255
-0.0931977 -0.118559 0.811 255 255 255
0.0859537 0.0986576 0.665 255 255 255
0.27736 0.244644 0.642 255 255 255
-0.0157473 0.0352017 0.768 0 0 0
0.297675 -0.115158 0.716 255 255 255
-0.0682581 -0.0279657 0.692 255 255 255
0.112821 -0.0227529 0.784 255 255 255
0.344721 0.141449 0.789 255 255 255
-0.0901657 -0.0941592 0.763 255 255 255
0.25237 -0.0762329 0.81 255 255 255
-0.155571 -0.0783005 0.319 255 255 255
-0.0564828 -0.230136 0.761 255 255 255
-0.173008 -0.0275727 0.34 255 255 255
-0.105009 -0.21305 0.72 255 255 255
-0.209484 -0.192265 0.629 255 255 255
-0.11088 -0.083968 0.369 0 0 0
0.151778 -0.0959117 0.938 255 255 255
0.208068 0.0494136 0.944 255 255 255
-0.196758 0.112292 0.383 255 255 255
-0.129822 -0.0892095 0.785 255 255 255
-0.0822475 0.114289 0.474 255 255 255
0.373253 0.182136 0.771 255 255 255
-0.119298 -0.0984439 0.348 255 255 255
-0.134743 0.131488 0.446 255 255 255
0.302759 -0.0908161 0.717 255 255 255
0.244656 0.160358 0.937 255 255 255
0.325315 0.0185843 0.753 255 255 255
-0.102423 0.197369 0.505 255 255 255
0.00463078 0.238809 0.646 255 255 255
-0.0850583 0.0244554 0.71 255 255 255
0.290754 0.247922 0.637 255 255 255
0.239557 -0.267833 0.713 255 255 255
0.124941 0.0284244 0.788 255 255 255
-0.121419 -0.0667343 0.37 0 0 0
0.195128 0.153259 0.797 255 255 255
-0.156913 0.163766 0.443 255 255 255
0.212025 -0.00415966 0.902 255 255 255
-0.126314 0.109233 0.447 255 255 255
0.0289686 -0.156663 0.674 255 255 255
-0.152652 0.12508 0.429 255 255 255
-0.105124 0.0347773 0.426 255 255 255
0.331664 -0.0988239 0.676 255 255 255
0.194496 -0.13964 0.851 255 255 255
-0.00490061 0.233609 0.655 255 255 255
-0.0578856 0.183381 0.717 255 255 255
0.30259 -0.159259 0.69 255 255 255
-0.0318903 -0.126746 0.867 255 255 255
0.317514 0.180897 0.854 255 255 255
-0.121347 -0.259626 0.668 255 255 255
-0.18089 0.0103764 0.351 255 255 255
-0.0150068 -0.0243658 0.795 255 255 255
0.00566303 -0.0807785 0.79 255 255 255
0.225703 0.0236243 0.898 255 255 255
0.0938107 -0.297521 0.855 255 255 255
0.357281 0.0420219 0.714 255 255 255
0.0535703 -0.205245 0.628 255 255 255
0.252973 0.0607957 0.886 255 255 255
0.140208 -0.31796 0.825 255 255 255
-0.118392 -0.021052 0.394 255 255 255
0.0664313 0.213719 0.687 255 255 255
-0.0870137 0.129525 0.479 255 255 255
-0.144212 0.0429578 0.847 255 255 255
0.278499 0.0714406 0.858 255 255 255
0.187702 0.164587 0.777 255 255 255
-0.127729 0.168751 0.471 255 255 255
0.216338 0.221684 0.698 255 255 255
0.278977 -0.228542 0.679 255 255 255
0.32665 -0.0340655 0.726 255 255 255
0.2374 -0.262335 0.717 255 255 255
0.0286742 0.0979908 0.823 255 255 255
0.215367 -0.122688 0.83 255 255 255
-0.118021 -0.127208 0.783 255 255 255
-0.289439 -0.175159 0.567 255 255 255
-0.145875 -0.0939588 0.782 255 255 255
-0.225739 -0.196032 0.612 255 255 255
0.158385 0.220096 0.693 255 255 255
0.334916 0.191819 0.835 255 255 255
0.0711513 -0.184923 0.639 255 255 255
-0.164578 0.107531 0.41 255 255 255
-0.243623 -0.21163 0.581 255 255 255
0.0771776 0.170906 0.664 255 255 255
0.196802 0.171287 0.773 255 255 255
-0.105474 -0.0845685 0.369 255 255 255
0.0384177 0.210059 0.686 255 255 255
-0.134147 0.182935 0.472 255 255 255
-0.0271567 -0.200138 0.81 255 255 255
0.171629 -0.00440408 0.955 255 255 255
0.018906 0.164623 0.754 255 255 255
-0.00847186 0.0194728 0.789 255 255 255
0.145138 0.196887 0.711 255 255 255
-0.048703 0.175303 0.737 255 255 255
0.0866955 -0.318274 0.84 255 255 255
-0.139564 0.0639599 0.413 255 255 255
-0.16856 0.168207 0.434 255 255 255
0.193257 0.163743 0.779 255 255 255
0.26782 0.159048 0.912 255 255 255
-0.13868 -0.159313 0.737 255 255 255
0.219696 -0.261317 0.744 255 255 255
0.369915 0.157068 0.759 255 255 255
0.175146 -0.182677 0.858 255 255 255
-0.0915823 0.00963615 0.418 255 255 255
-0.109937 -0.147843 0.771 255 255 255
0.0380588 0.0252362 0.769 255 255 255
-0.0973684 0.17448 0.496 255 255 255
0.313451 0.0189792 0.769 255 255 255
0.262103 -0.25694 0.684 255 255 255
-0.059296 -0.0170425 0.706 255 255 255
0.314261 -0.0979156 0.701 255 255 255
-0.151817 -0.250686 0.645 255 255 255
0.222267 -0.0418496 0.862 255 255 255
0.00684344 -0.28592 0.778 255 255 255
-0.104602 0.148852 0.481 255 255 255
-0.124253 -0.235791 0.684 255 255 255
-0.0989806 -0.0612782 0.381 255 255 255
0.0479724 0.203767 0.695 255 255 255
-0.164396 -0.0667652 0.316 0 0 0
-0.159184 -0.0702141 0.32 0 0 0
-0.131791 0.000740109 0.39 255 255 255
-0.157135 -0.0390933 0.349 255 255 255
0.165585 -0.134051 0.897 255 255 255
-0.142485 0.0536261 0.406 255 255 255
-0.121248 -0.197544 0.719 255 255 255
0.247621 0.19929 0.737 255 255 255
-0.158143 -0.0686518 0.32 255 255 255
-0.042299 0.17839 0.73 255 255 255
-0.123648 0.0400536 0.416 255 255 255
0.207407 0.00322189 0.914 255 255 255
0.329905 0.0135192 0.744 255 255 255
0.231626 -0.0468 0.85 255 255 255
-0.110475 0.0629857 0.439 255 255 255
-0.152806 -0.0940136 0.772 255 255 255
0.292913 0.219746 0.678 255 255 255
0.00559135 0.14999 0.78 255 255 255
0.172969 -0.0317676 0.937 255 255 255
-0.0166082 0.200389 0.699 255 255 255
0.191279 -0.296468 0.766 255 255 255
-0.144578 0.109786 0.432 255 255 255
-0.108272 0.108667 0.46 255 255 255
0.339427 0.0934162 0.774 255 255 255
-0.123918 -0.219977 0.701 255 255 255
0.308466 -0.0823027 0.714 255 255 255
0.252557 -0.118138 0.782 255 255 255
-0.106937 -0.0743595 0.372 255 255 255
0.0799085 -0.117873 0.678 255 255 255
-0.151738 -0.0808593 0.323 255 255 255
-0.136603 -0.0244382 0.377 255 255 255
-0.108364 0.0790539 0.445 255 255 255
0.250156 0.170551 0.918 255 255 255
0.131903 0.232874 0.662 0 0 0
-0.183159 0.12801 0.401 255 255 255
-0.0909358 -0.0131041 0.406 255 255 255
-0.158097 0.101169 0.414 255 255 255
0.07104 -0.185672 0.638 255 255 255
-0.123417 -0.0617322 0.718 255 255 255
0.0295033 0.123971 0.809 255 255 255
0.259911 -0.251298 0.693 255 255 255
-0.113644 -0.102246 0.797 255 255 255
-0.133731 0.152833 0.46 255 255 255
-0.182863 -0.22809 0.629 255 255 255
-0.111223 -0.0561996 0.693 0 0 0
0.047545 0.0955438 0.825 255 255 255
0.183725 -0.114196 0.879 255 255 255
0.140043 -0.305765 0.832 255 255 255
-0.194529 0.111915 0.386 255 255 255
-0.0550865 -0.0275765 0.711 255 255 255
0.123856 -0.0717191 0.983 255 255 255
0.169706 -0.137041 0.888 255 255 255
0.243264 0.224594 0.663 255 255 255
-0.150493 0.142998 0.439 255 255 255
0.337573 0.0492187 0.753 255 255 255
-0.144128 0.0754685 0.889 255 255 255
-0.153423 -0.195191 0.69 255 255 255
0.0394192 -0.0922018 0.684 255 255 255
0.195932 -0.239124 0.795 255 255 255
-0.11941 -0.0347129 0.715 255 255 255
-0.00614902 0.22097 0.675 255 255 255
-0.121308 -0.0439178 0.381 255 255 255
0.0989252 0.236519 0.637 255 255 255
0.034149 0.209038 0.69 255 255 255
0.349808 0.15626 0.786 255 255 255
0.274363 0.086299 0.867 255 255 255
0.259196 0.178537 0.913 255 255 255
-0.168282 -0.0495185 0.335 255 255 255
0.247957 -0.229185 0.738 255 255 255
-0.120543 0.136795 0.464 255 255 255
0.229627 -0.102903 0.823 255 255 255
0.214224 -0.0439047 0.875 255 255 255
0.14921 0.107839 0.682 255 255 255
0.111876 0.127074 0.634 0 0 0
0.263811 -0.198714 0.719 255 255 255
-0.184656 0.129644 0.4 255 255 255
0.199539 0.172903 0.769 255 255 255
-0.120662 0.0591793 0.427 255 255 255
-0.0809198 0.225133 0.649 255 255 255
-0.0361571 0.194672 0.703 255 255 255
0.187994 -0.222821 0.811 255 255 255
-0.150063 0.0291495 0.388 255 255 255
-0.163418 -0.154414 0.709 255 255 255
0.102587 0.121915 0.634 255 255 255
-0.0703952 -0.0684243 0.68 255 255 255
-0.105738 0.179528 0.725 255 255 255
0.0604249 0.0972188 0.67 255 255 255
-0.14432 0.0340019 0.393 255 255 255
0.0295255 -0.0590645 0.714 0 0 0
0.0743902 0.224159 0.678 255 255 255
0.293889 0.123337 0.85 255 255 255
0.331012 0.216612 0.715 255 255 255
0.301171 -0.232153 0.646 255 255 255
-0.137143 0.0698283 0.42 255 255 255
-0.00453103 -0.275633 0.774 255 255 255
0.293141 0.216821 0.765 0 0 0
-0.127856 -0.177995 0.73 255 255 255
-0.0734632 -0.0177276 0.688 255 255 255
0.28968 0.228462 0.668 255 255 255
0.119419 -0.0574971 0.986 255 255 255
0.122951 0.227469 0.678 255 255 255
-0.0750649 0.0196383 0.703 255 255 255
-0.161299 0.0750491 0.397 255 255 255
0.128404 -0.269408 0.863 255 255 255
-0.140949 -0.0834006 0.331 255 255 255
0.0308202 0.126604 0.809 255 255 255
-0.192791 0.0668064 0.366 255 255 255
0.116784 -0.309614 0.85 255 255 255
0.355347 0.12097 0.773 255 255 255
0.292604 -0.126633 0.715 255 255 255
0.278977 -0.227437 0.679 255 255 255
-0.135668 0.102053 0.435 255 255 255
-0.175752 -0.214149 0.652 255 255 255
0.293587 -0.101827 0.729 255 255 255
0.291106 0.243391 0.647 255 255 255
0.0223185 0.171144 0.745 255 255 255
-0.0140749 -0.213571 0.816 255 255 255
0.318535 0.168764 0.842 255 255 255
0.125527 0.0787513 0.68 255 255 255
-0.12273 0.186099 0.714 255 255 255
-0.11216 0.0695734 0.44 255 255 255
0.193747 0.178535 0.761 255 255 255
-0.133233 0.108485 0.441 255 255 255
-0.172896 0.0152455 0.839 255 255 255
0.263604 -0.212103 0.709 255 255 255
-0.135018 -0.0876794 0.335 255 255 255
-0.145697 0.0944197 0.423 255 255 255
-0.111677 -0.0552226 0.382 255 255 255
-0.0770751 -0.238368 0.733 255 255 255
-0.229329 -0.224705 0.588 255 255 255
0.199096 0.204633 0.722 255 255 255
0.264851 0.104755 0.892 255 255 255
0.32397 0.129556 0.811 255 255 255
-0.140534 -0.185828 0.71 255 255 255
0.316299 -0.232898 0.62 255 255 255
0.194041 0.194895 0.734 255 255 255
-0.152278 -0.0112175 0.366 255 255 255
0.180753 0.214652 0.701 255 255 255
-0.103158 0.167243 0.489 255 255 255
-0.0807623 0.0850666 0.745 255 255 255
0.226672 -0.0700667 0.847 255 255 255
0.251707 0.208703 0.728 255 255 255
-0.226248 -0.212856 0.595 255 255 255
0.0474892 -0.0737077 0.688 255 255 255
0.242054 -0.221975 0.742 255 255 255
-0.178778 -0.00217115 0.348 255 255 255
0.222596 -0.232929 0.758 255 255 255
-0.107553 -0.0995483 0.356 255 255 255
0.27787 -0.0625251 0.771 255 255 255
0.090945 0.226366 0.678 255 255 255
-0.16016 -0.125898 0.731 255 255 255
-0.18589 -0.235674 0.622 255 255 255
0.283347 0.107994 0.86 255 255 255
0.0121694 -0.266293 0.795 255 255 255
0.197442 0.112915 0.975 255 255 255
0.264897 -0.124544 0.759 255 255 255
0.325518 0.0338193 0.765 255 255 255
0.125303 -0.282795 0.861 255 255 255
0.238766 0.00307031 0.871 255 255 255
0.201354 -0.286825 0.757 255 255 255
0.128135 0.0155219 0.784 0 0 0
0.304714 0.220652 0.816 255 255 255
0.115665 -0.12407 0.955 255 255 255
0.272693 -0.0457761 0.785 255 255 255
0.308447 -0.221999 0.635 255 255 255
0.284502 -0.130583 0.724 255 255 255
-0.14916 0.113379 0.427 255 255 255
-0.187176 0.0848215 0.38 255 255 255
0.329387 -0.0439596 0.714 255 255 255
-0.0485509 -0.169543 0.815 255 255 255
-0.235516 -0.224307 0.582 255 255 255
-0.0758533 0.150378 0.769 255 255 255
0.203144 0.0703397 0.957 255 255 255
-0.143181 -0.20685 0.684 255 255 255
0.0672922 -0.157915 0.652 255 255 255
-0.113474 0.0919176 0.805 255 255 255
0.382801 0.191922 0.765 255 255 255
-0.128131 -0.0513556 0.372 255 255 255
-0.179357 0.156564 0.418 255 255 255
0.198392 -0.0690453 0.887 255 255 255
0.131687 0.123069 0.64 255 255 255
0.0666247 0.205371 0.689 255 255 255
-0.117018 0.131036 0.465 255 255 255
-0.0896813 0.0209892 0.71 255 255 255
-0.106285 0.160942 0.754 255 255 255
0.118052 0.17437 0.669 255 255 255
-0.122449 -0.0566517 0.375 255 255 255
-0.10871 0.139265 0.475 255 255 255
-0.0883227 0.0479833 0.439 255 255 255
-0.0826936 -0.0610579 0.672 255 255 255
-0.140733 0.159667 0.456 255 255 255
0.108684 0.162512 0.652 255 255 255
0.242587 -0.122072 0.791 255 255 255
-0.121591 0.170901 0.477 255 255 255
-0.0402096 -0.0509311 0.714 255 255 255
0.203402 0.161207 0.779 255 255 255
0.12752 0.122027 0.64 0 0 0
-0.161909 0.0988572 0.41 255 255 255
-0.160484 -0.00639977 0.363 255 255 255
-0.185645 0.139832 0.405 255 255 255
-0.173704 0.0171341 0.361 255 255 255
0.238555 0.125288 0.937 255 255 255
-0.100253 0.101401 0.461 255 255 255
-0.058175 -0.128114 0.839 255 255 255
0.315624 0.229337 0.677 255 255 255
-0.120388 -0.0386396 0.384 255 255 255
0.296287 -0.108197 0.724 255 255 255
0.190615 -0.17611 0.84 255 255 255
-0.102108 0.0621177 0.443 255 255 255
-0.0716907 0.0316089 0.715 255 255 255
-0.0885212 0.0452774 0.729 255 255 255
0.22832 -0.266725 0.729 255 255 255
0.289628 -0.233253 0.658 255 255 255
-0.134139 0.127286 0.444 255 255 255
-0.00340635 0.132692 0.806 255 255 255
-0.142763 0.0321649 0.394 255 255 255
-0.0388316 -0.257809 0.755 255 255 255
0.188571 -0.182292 0.837 255 255 255
0.255797 -0.0318429 0.821 255 255 255
-0.16375 -0.0221816 0.351 255 255 255
0.135014 -0.22519 0.888 255 255 255
-0.162333 -0.0826941 0.314 255 255 255
0.34173 0.15715 0.797 255 255 255
0.253885 -0.162556 0.752 255 255 255
0.243152 -0.059063 0.828 255 255 255
-0.03165 -0.184824 0.824 255 255 255
0.319565 0.0652791 0.784 255 255 255
0.00599994 0.0778645 0.837 255 255 255
0.227529 0.208463 0.719 255 255 255
-0.166855 -0.0381972 0.341 255 255 255
-0.0520728 0.235291 0.645 255 255 255
0.173554 0.176893 0.754 255 255 255
0.0541369 0.0537863 0.866 255 255 255
-0.166147 0.141537 0.426 255 255 255
-0.0656765 0.0843815 0.739 255 255 255
-0.156749 0.0855497 0.407 255 255 255
0.0816101 -0.318537 0.83 255 255 255
0.0832194 -0.124493 0.678 255 255 255
0.123411 -0.308885 0.848 255 255 255
-0.0651036 -0.137725 0.823 255 255 255
-0.0910365 0.213563 0.669 255 255 255
0.290969 0.0607111 0.826 255 255 255
0.276511 0.222506 0.673 255 255 255
-0.0414402 -0.232372 0.781 255 255 255
0.201096 0.23969 0.629 255 255 255
-0.127352 -0.0579896 0.368 255 255 255
-0.106042 0.0156828 0.416 255 255 255
-0.161369 -0.00108926 0.365 255 255 255
0.344063 0.057846 0.738 255 255 255
-0.195425 0.0852275 0.371 255 255 255
-0.05584 -0.12353 0.845 255 255 255
-0.278468 -0.178253 0.571 255 255 255
-0.155017 -0.0811497 0.32 255 255 255
-0.0769347 -0.0121472 0.689 255 255 255
0.0421278 -0.0116981 0.731 255 255 255
-0.0731603 0.03291 0.718 255 255 255
0.275156 0.098374 0.874 255 255 255
0.0184296 0.178416 0.735 255 255 255
-0.151213 -0.0803336 0.323 255 255 255
0.152265 -0.237692 0.855 255 255 255
0.341304 -0.00215464 0.722 255 255 255
-0.168768 0.0641756 0.386 255 255 255
-0.148297 -0.0224724 0.365 255 255 255
0.0603951 0.0173128 0.751 0 0 0
-0.189865 0.138106 0.4 255 255 255
-0.0824327 -0.143281 0.809 255 255 255
0.0566695 -0.297714 0.821 255 255 255
0.164297 -0.110332 0.906 255 255 255
0.318944 -0.0401929 0.73 255 255 255
-0.000781359 0.0133177 0.805 255 255 255
-0.0585617 0.20722 0.684 255 255 255
0.165775 -0.2489 0.832 255 255 255
0.135584 -0.254255 0.864 255 255 255
-0.135386 0.112791 0.441 255 255 255
-0.191326 0.0900474 0.376 255 255 255
0.0284598 0.247273 0.638 255 255 255
-0.0400606 0.0493495 0.755 255 255 255
0.0869209 0.15097 0.648 255 255 255
0.136475 -0.290931 0.852 255 255 255
0.0342551 0.136399 0.797 255 255 255
-0.158466 -0.0587862 0.335 255 255 255
-0.0253596 -0.226187 0.795 255 255 255
-0.239858 -0.207482 0.588 255 255 255
-0.0393459 -0.24753 0.765 255 255 255
-0.157455 0.12668 0.425 255 255 255
-0.146619 -0.0377711 0.358 255 255 255
0.285923 0.0847064 0.851 255 255 255
-0.0190336 -0.143916 0.86 255 255 255
0.158399 0.195775 0.724 255 255 255
-0.0427438 0.160774 0.759 255 255 255
-0.172681 -0.0167981 0.346 255 255 255
-0.169404 0.103985 0.404 255 255 255
0.313628 0.170567 0.851 255 255 255
0.153719 -0.0739493 0.95 255 255 255
-0.181653 0.00178787 0.347 255 255 255
0.386912 0.182283 0.756 255 255 255
-0.0510538 0.109407 0.754 255 255 255
-0.128932 -0.0833895 0.342 255 255 255
-0.183887 -0.230138 0.629 255 255 255
0.302248 -0.0814351 0.727 255 255 255
0.240891 0.0376415 0.884 0 0 0
-0.136 0.126278 0.443 255 255 255
-0.0975126 0.0894059 0.772 255 255 255
-0.0471943 -0.0633294 0.697 255 255 255
0.165082 0.222987 0.688 255 255 255
0.03418 -0.175928 0.648 255 255 255
-0.0956227 -0.0309809 0.398 255 255 255
-0.0856069 -0.259092 0.705 255 255 255
0.298379 -0.199838 0.668 255 255 255
-0.145863 -0.246422 0.656 255 255 255
-0.0913233 -0.23394 0.723 255 255 255
-0.106982 -0.0534974 0.383 255 255 255
0.266557 -0.245809 0.684 255 255 255
-0.15647 -0.0687698 0.323 255 255 255
-0.119436 0.175772 0.484 255 255 255
0.177166 -0.0301782 0.935 255 255 255
-0.053284 0.0360322 0.734 255 255 255
-0.0910845 -0.107069 0.804 255 255 255
-0.128341 0.122874 0.449 255 255 255
0.316887 0.124322 0.82 255 255 255
-0.130889 -0.241446 0.678 255 255 255
0.235123 -0.235575 0.743 255 255 255
0.0735755 -0.172209 0.642 255 255 255
0.256571 -0.199192 0.725 255 255 255
0.197805 0.066491 0.969 255 255 255
-0.0958436 -0.0711669 0.696 255 255 255
-0.112393 -0.0941139 0.353 255 255 255
-0.0645033 0.132685 0.768 255 255 255
-0.107172 -0.0200707 0.4 255 255 255
-0.158104 0.0350065 0.383 255 255 255
-0.16562 0.0343667 0.376 255 255 255
-0.105446 0.0143142 0.723 0 0 0
0.242088 -0.140142 0.777 255 255 255
0.0483265 -0.0966541 0.684 255 255 255
-0.0391055 -0.278048 0.737 255 255 255
0.351741 0.237449 0.833 255 255 255
0.222427 0.166917 0.788 255 255 255
-0.17706 0.054221 0.873 255 255 255
0.140522 -0.294717 0.843 255 255 255
-0.141226 -0.0223579 0.373 255 255 255
0.322863 0.169528 0.839 255 255 255
-0.0737159 -0.0684243 0.68 255 255 255
0.236726 0.152984 0.948 255 255 255
0.220594 0.0971385 0.945 255 255 255
-0.128896 -0.0421178 0.376 255 255 255
-0.0397068 0.245976 0.632 255 255 255
-0.0184377 0.0810295 0.776 255 255 255
-0.15099 0.0671682 0.404 255 255 255
0.0774334 -0.158057 0.657 255 255 255
-0.143171 0.10838 0.432 255 255 255
-0.190689 0.13776 0.399 255 255 255
0.293415 -0.146243 0.703 255 255 255
0.257008 -0.0576363 0.808 255 255 255
-0.147894 0.0398589 0.394 255 255 255
-0.170794 -0.0336589 0.34 255 255 255
-0.158235 -0.0565624 0.338 0 0 0
-0.125432 0.0557395 0.422 255 255 255
0.334005 -0.0298065 0.709 255 255 255
0.238217 0.223779 0.667 255 255 255
0.0337682 0.161582 0.757 255 255 255
0.257574 0.0691331 0.882 255 255 255
-0.0368554 0.15582 0.765 255 255 255
0.181017 0.208458 0.711 255 255 255
0.306273 0.00398278 0.773 255 255 255
-0.103082 0.0596844 0.441 255 255 255
0.331761 0.258041 0.663 255 255 255
-0.029548 -0.28443 0.738 255 255 255
-0.164181 0.0205718 0.37 255 255 255
-0.149696 0.0377428 0.392 255 255 255
0.22612 -0.202785 0.77 255 255 255
0.285532 -0.16826 0.709 255 255 255
0.175308 0.179855 0.751 255 255 255
0.140817 0.225595 0.679 255 255 255
-0.0696849 0.14932 0.77 255 255 255
-0.0319895 0.222772 0.664 255 255 255
-0.187163 0.0631506 0.369 255 255 255
0.347693 -0.0158486 0.704 255 255 255
-0.127868 -0.0514936 0.373 255 255 255
0.0529189 0.14281 0.749 255 255 255
-0.100742 -0.070264 0.376 255 255 255
0.325704 -0.0951182 0.689 255 255 255
0.231337 0.238301 0.639 255 255 255
-0.0848008 0.0549087 0.443 255 255 255
0.238242 -0.0749595 0.825 255 255 255
-0.160586 0.107658 0.892 255 255 255
0.294862 -0.247921 0.646 255 255 255
0.329357 -0.0616742 0.704 255 255 255
-0.139331 -0.0824002 0.781 255 255 255
0.217583 0.0255046 0.913 255 255 255
-0.174059 0.158495 0.425 255 255 255
-0.0212241 -0.180713 0.836 255 255 255
-0.21754 -0.196629 0.617 255 255 255
-0.134974 0.114485 0.442 255 255 255
0.384302 0.196424 0.768 255 255 255
0.367942 0.12265 0.745 255 255 255
-0.0880627 0.107511 0.468 255 255 255
0.165226 -0.288574 0.803 255 255 255
-0.154001 0.0739251 0.405 255 255 255
0.0649721 0.041334 0.842 255 255 255
-0.16519 -0.0420817 0.341 255 255 255
0.188624 0.00483808 0.939 255 255 255
-0.126505 0.0549223 0.421 255 255 255
-0.141651 -0.0230431 0.794 255 255 255
-0.128357 0.107778 0.444 255 255 255
-0.0112364 -0.234997 0.803 255 255 255
-0.120999 -0.0233769 0.39 255 255 255
0.0857137 -0.190122 0.639 255 255 255
0.341064 0.0982 0.772 255 255 255
