ply
format ascii 1.0
comment Created by Open3D
element vertex 1343
property double x
property double y
property double z
property uchar red
property uchar green
property uchar blue
end_header
0.396241 0.000779792 2.884 87 34 17
-0.0997709 0.269228 1.046 186 186 190
0.380432 0.224193 1.31 167 170 169
0.78964 0.118153 1.682 124 134 118
0.0454845 0.238811 1.145 58 53 61
0.687376 0.114798 1.673 174 180 180
0.490879 -0.476629 3.373 116 107 98
0.676862 0.167433 1.555 137 150 145
0.333223 0.288166 1.053 104 104 100
0.347743 0.298327 0.86 162 163 154
-0.269691 -0.795468 2.78 158 147 153
0.155814 0.258428 0.867 100 96 89
-0.247348 0.325384 1.009 134 142 143
0.12309 -1.09277 3.231 133 128 126
-0.859072 -0.588067 2.53 24 36 40
1.00188 -0.792798 2.755 134 129 127
0.132528 0.296102 0.988 95 94 94
1.13448 -0.0635546 2.32 159 159 159
-1.15247 0.020841 2.479 26 27 23
-1.14506 -0.541563 2.236 138 141 140
0.923514 -0.956708 3.198 93 89 92
-1.04128 -0.969344 2.626 29 33 28
-0.449909 0.207435 2.953 120 112 109
-1.12275 -0.0141622 3.071 4 10 10
0.506327 0.317686 1.032 182 196 198
0.214458 0.257635 0.787 91 76 66
0.263845 0.232704 1.442 179 179 179
-0.786041 -0.260323 2.719 11 19 16
-1.07429 -0.13428 2.181 119 120 111
-0.316261 0.1798 3.055 108 101 95
-0.343809 0.40094 1.114 63 63 59
0.0688928 0.210649 1.267 163 160 157
-1.13056 -0.106942 2.449 3 13 18
1.1034 -0.602778 2.707 126 124 116
-1.04052 -0.103497 2.561 59 53 59
-0.376562 0.23204 1.26 192 192 196
-0.356958 -0.89143 2.755 161 155 157
-0.933385 -0.381921 2.672 11 16 21
-0.653692 -0.387255 2.649 149 144 140
-0.901118 -0.123157 2.719 3 28 60
-0.399063 -0.395434 2.831 142 134 133
-0.822973 -0.389594 2.695 8 19 28
0.302459 0.00574248 3.026 62 45 47
1.09924 -0.451154 2.479 34 16 7
-0.665198 -0.699763 2.593 165 162 159
0.077456 0.262921 1.048 12 19 27
0.294502 0.164292 1.624 44 46 52
0.104954 0.298854 0.812 190 197 203
0.963069 -0.998082 3.373 69 65 70
-0.0063943 0.162911 1.513 179 168 176
-0.607173 -0.50802 2.672 156 150 152
-0.212137 -0.0297434 3.133 114 106 103
-0.333881 0.153571 1.595 197 196 198
-0.99039 -0.281489 2.55 49 48 52
0.43895 0.30152 0.935 182 195 194
-0.683223 -0.376932 2.55 153 143 143
-0.192717 -0.193878 3.149 118 107 111
1.26169 -0.862067 2.489 133 133 127
-0.396553 -0.90633 2.719 167 163 166
0.0814412 -0.696816 3.248 129 122 116
1.03323 -0.579547 2.743 128 126 116
0.341865 -0.0139547 3.026 86 71 70
0.533787 -1.00362 3.266 123 115 114
0.538459 0.283035 1.143 180 191 191
1.20719 -0.720785 2.519 130 129 131
0.26649 -1.23066 3.248 138 131 123
-0.214669 0.285636 1.05 191 190 194
0.49334 0.259179 1.196 174 180 178
0.0945787 0.296215 0.862 185 192 200
-0.52068 0.177418 1.47 183 185 191
-0.00922808 0.28711 1.013 21 29 28
0.204841 0.24956 0.815 98 81 63
-1.04674 -0.794423 2.044 165 161 162
0.603892 0.0184833 1.842 162 162 164
0.871991 -1.14772 2.953 137 140 143
-0.870907 -0.484416 2.615 48 18 11
-1.07931 -0.347464 2.228 129 129 123
-0.987069 -0.539551 2.459 65 64 71
-0.286537 0.238716 1.252 106 109 112
0.600695 -0.725695 3.283 121 113 110
-0.990922 -0.32466 2.499 92 98 96
0.290424 0.278178 0.73 117 109 95
-1.16642 0.0415081 2.509 32 28 29
0.488654 0.0871019 1.664 122 122 122
-0.0386612 0.306868 0.893 181 183 189
-1.01109 -0.343473 2.459 58 64 66
0.493612 0.0396281 1.719 138 144 142
0.143469 0.049836 1.784 132 129 124
0.090933 0.262233 1.066 90 88 97
0.917142 -0.253693 2.743 38 18 10
1.45265 -1.21854 4.409 51 54 55
0.0629472 -0.13704 3.391 101 91 89
0.406659 0.273207 1.089 133 142 135
-0.592446 -0.730035 2.626 166 161 157
-0.810451 -0.533461 2.626 43 45 55
-0.413404 0.208418 2.967 124 116 113
-0.466725 0.376616 1.217 80 86 84
-0.223475 0.263512 1.198 111 116 121
0.956489 0.0282366 1.893 149 165 156
-1.03976 -0.073281 2.844 15 19 14
0.192126 0.236 1.366 146 147 138
0.274249 -0.33397 3.215 60 51 46
0.694065 0.110857 1.696 176 182 182
-0.420348 -0.144775 2.982 129 124 122
-0.141032 0.303971 0.967 179 184 189
0.179938 0.105627 1.616 169 163 169
-0.408925 -0.719953 2.684 160 151 154
-1.05178 -0.841815 2.489 75 77 85
0.284462 0.0777181 1.758 179 174 170
1.06367 -0.429739 2.519 36 23 10
1.1342 -1.08807 3.718 50 49 56
-0.66321 0.402196 1.342 30 23 15
1.25364 -0.649824 2.53 126 123 118
-0.0192188 -0.271581 3.283 116 106 104
-0.942854 -0.577906 2.469 13 21 38
-0.462464 -0.112905 2.911 131 122 125
0.628757 0.029944 1.81 126 136 124
0.180556 -0.0399402 3.133 45 31 25
0.746151 -0.536546 3.336 25 22 19
0.372933 -1.00364 3.301 116 105 100
-0.426401 0.215001 1.319 187 187 189
0.908899 -0.055038 2.136 154 154 156
-1.09106 -0.273335 2.158 129 132 131
-0.725864 0.410743 1.378 26 15 8
-0.871482 -0.664593 2.604 14 26 40
0.900736 0.0244784 1.842 129 137 126
-0.177495 0.186169 1.502 181 177 182
-0.0942825 0.135131 1.724 179 174 172
0.330484 0.304624 1.039 176 185 178
-0.410773 -0.990062 2.755 168 165 162
-0.0992453 0.298247 0.974 192 191 198
0.328014 -0.775412 3.336 111 100 91
1.05957 -0.376449 2.519 48 25 6
-0.53313 0.292347 1.339 83 83 87
1.12868 -0.893868 2.593 138 136 128
0.866159 -0.43355 2.78 39 41 32
-0.636145 -0.791149 2.561 166 166 166
-0.0561165 0.306843 0.942 178 184 186
-0.733073 0.357042 1.396 0 9 12
0.59644 -0.793069 3.231 121 114 106
-0.249391 0.36135 1.004 104 105 96
-1.10441 -0.274922 2.143 126 130 125
1.01515 -0.282618 2.638 54 24 6
0.0716306 -0.522679 3.283 126 117 112
-1.15317 -0.0172743 2.196 114 117 120
-1.1434 0.174972 2.329 104 99 107
-1.08565 -0.696457 2.303 6 17 17
0.149064 0.277119 0.822 118 111 92
-0.976047 -0.976822 2.743 99 102 101
-1.07127 -0.311441 2.204 131 128 125
-0.445102 0.212241 2.953 123 118 114
0.242849 -0.302579 3.215 25 17 14
1.25446 -0.67306 2.54 123 123 119
-0.630415 -0.817512 2.489 176 172 173
1.00636 -0.56415 2.755 126 124 116
-1.04354 -0.647692 2.064 147 155 154
-0.288 0.314824 1.062 127 133 131
1.41122 -1.21624 4.676 45 46 42
0.139788 0.205477 1.313 172 169 166
-0.321499 0.171535 1.524 190 190 194
0.361658 -1.14609 3.248 111 104 96
0.0541588 -0.74854 3.198 131 122 125
-0.981627 -0.853572 2.638 70 80 85
0.502201 0.229115 1.278 141 148 140
-1.11002 0.0337259 2.261 109 112 111
-1.13737 -0.954997 2.499 36 42 44
-0.243977 0.0879672 3.149 118 110 109
0.249317 -0.346148 3.231 26 19 13
-1.07182 -0.418469 2.22 117 118 114
-0.245216 0.160521 3.165 102 94 93
-1.04711 -0.155398 2.459 23 29 31
0.0741859 0.298697 0.808 188 198 205
-0.236791 0.235856 1.237 103 109 109
0.893489 -0.89054 2.898 134 133 135
-0.929036 -0.842833 2.672 100 105 114
-0.250169 0.166131 1.591 200 199 203
-0.504976 -0.862158 2.638 169 169 165
-0.647467 -0.792929 2.54 171 172 166
1.20795 -0.328979 2.383 49 25 11
-0.70037 0.243735 1.372 6 6 8
-0.885149 -0.837882 2.684 70 73 74
0.0576266 0.236386 1.029 18 24 24
0.516584 0.273316 1.165 189 200 200
-0.731719 0.0940674 2.731 125 120 116
-0.99891 -0.127449 2.54 77 80 83
-0.892734 -0.875899 2.707 100 105 110
-0.344941 0.353065 1.106 94 95 91
1.1801 -0.990886 2.604 132 130 122
-0.640468 0.360958 1.487 14 13 17
-0.516877 0.181707 1.466 186 189 190
0.941105 -0.121571 2.684 100 96 87
0.665232 0.181079 1.442 162 173 171
-0.199988 0.36125 0.948 123 122 124
0.511577 0.190336 1.459 147 159 151
0.47055 0.293639 1.073 188 199 199
0.197123 0.257833 0.816 110 100 86
-0.920101 -0.366165 2.684 10 28 55
-0.578656 -0.142099 2.743 129 118 122
0.158811 -0.684836 3.318 125 117 114
0.944428 -0.0156617 1.991 125 137 129
0.468107 0.0737394 1.668 144 148 141
1.0373 -0.796605 2.707 132 133 124
-0.0617681 0.267437 1.066 193 193 197
-1.1597 0.215376 3.215 20 23 24
0.993603 -0.381662 2.582 27 15 15
0.223614 0.227553 1.396 169 165 168
-0.921404 0.129928 2.939 22 28 28
1.02619 -0.764901 3.858 39 40 36
-0.046429 0.0386935 3.318 81 73 70
-0.445146 -0.303294 2.831 141 132 135
1.17898 -0.391697 2.411 47 25 15
-1.0311 -0.219423 2.459 29 36 40
-0.0395441 -0.493534 3.198 122 113 108
1.01939 -0.163094 2.649 46 22 6
-1.10265 -0.290267 2.449 19 25 25
-0.519662 -0.867997 2.604 171 167 168
0.231953 -1.05693 3.283 138 131 125
0.246039 0.266644 0.758 101 98 84
-0.446431 0.32584 1.205 94 89 85
0.563889 0.301774 1.116 185 198 197
-0.693303 0.094894 2.755 124 121 118
-1.10929 -0.790911 2.42 48 52 64
-0.0999393 -0.391731 3.133 130 122 119
-0.809861 -0.55307 2.638 66 73 81
-1.11741 -0.950653 2.509 45 54 47
0.320176 0.309759 1.017 136 132 133
1.0596 -0.74704 2.719 129 129 123
0.463403 0.204879 1.366 161 161 165
-0.357335 -0.749191 2.793 156 147 150
0.101586 -0.186704 3.391 107 96 91
0.188597 0.201726 1.406 162 157 155
-0.219968 0.360432 0.975 112 115 114
-0.180611 -0.313645 3.117 127 119 118
-1.32771 0.170746 3.071 54 56 47
-1.14783 -0.939515 2.469 49 53 48
-1.01922 -0.196208 2.469 28 32 46
0.216453 0.273051 0.729 100 86 80
0.87521 -0.139492 2.78 31 15 8
-0.623307 -0.0974611 2.743 142 133 138
0.396821 0.274176 1.072 125 136 136
0.295993 0.232901 1.201 166 167 158
-0.30991 0.281797 1.116 165 165 169
0.000949614 0.176752 1.445 190 184 190
0.283035 -0.636241 3.318 142 127 117
-0.259951 -0.765559 2.925 150 142 141
-0.724695 0.315471 1.393 7 10 11
0.434345 0.0496425 1.887 150 149 149
-0.282298 -0.229481 3.011 131 123 122
-0.184319 0.068155 3.181 106 101 97
-0.642149 0.406906 1.308 11 25 47
-0.866093 0.0196476 2.898 8 11 12
0.107312 -1.21896 3.231 135 127 124
-0.389846 -0.49218 2.831 142 137 135
-0.405212 0.349538 1.16 103 106 105
-0.448246 -0.872824 2.684 165 161 162
-0.595762 0.412618 1.286 6 33 57
0.106762 0.282487 1.051 22 27 32
-0.578316 -0.927891 2.582 167 166 166
0.212492 0.275967 0.74 114 97 81
0.969286 -1.01773 2.871 140 141 137
-0.555889 -0.233774 2.719 130 122 119
1.26574 -0.955226 2.489 126 133 125
0.510061 0.203074 1.384 158 164 162
1.2002 -0.542265 2.383 33 18 19
0.231001 0.0372605 1.882 114 110 101
-0.197912 0.210154 1.357 83 109 127
0.406508 0.0373778 2.057 181 181 181
-1.05266 -0.618245 2.173 117 116 116
-0.311981 -0.10542 2.967 121 116 114
-0.728272 -0.591706 2.638 161 153 150
-0.280315 0.293525 1.079 168 168 170
-0.175852 0.325251 0.951 158 161 160
0.132521 -0.927417 3.336 136 126 124
-1.08849 -0.112985 2.181 119 119 119
-0.175915 -0.729638 2.953 146 136 136
-1.13056 -0.130854 2.449 5 12 4
-0.238763 0.28305 1.066 169 168 172
0.12309 -1.07174 3.231 135 127 124
1.18579 -0.794136 2.626 135 132 129
-0.959482 -0.251474 2.672 70 68 75
-0.0842369 0.264955 1.187 105 110 117
-0.18739 0.353236 0.939 152 152 154
0.21835 0.22003 1.406 175 171 174
0.677331 -0.594381 3.266 137 136 136
-0.959848 -0.400188 2.649 49 58 49
0.621336 -0.0966995 2.996 139 130 133
-0.0970496 0.323182 0.882 164 165 161
1.04216 -0.646504 2.743 132 128 119
0.0773967 -0.901572 3.301 135 126 121
0.126405 -0.0962934 3.318 82 73 68
-0.811981 -0.0946925 2.793 12 13 7
-0.61233 -0.634635 2.638 165 162 159
-0.0705118 0.115943 1.917 162 157 153
-1.15009 -0.072815 2.509 21 21 15
0.64291 0.174269 1.571 162 166 159
0.549419 0.207129 1.381 142 143 137
0.323719 0.260663 1.039 177 180 183
0.126816 0.140207 1.432 160 157 152
-0.285768 -0.301469 2.996 130 122 121
-0.978001 -0.187652 2.572 38 41 42
0.382317 -0.645121 3.336 116 105 96
-0.325164 0.392321 1.1 66 69 68
1.11662 -0.615993 2.707 125 126 117
-0.138646 0.182408 1.532 191 190 194
-0.0989505 -0.584726 3.102 137 129 126
0.0546687 0.168524 1.435 169 163 167
0.335611 0.236237 1.239 162 166 159
-0.505042 0.219289 2.857 126 121 119
0.243972 -0.622238 3.301 147 126 121
1.07218 -0.789837 2.684 133 131 123
-0.529048 -0.657119 2.695 161 155 157
0.0502515 0.216492 1.265 189 188 190
-0.963052 -0.731628 2.459 82 87 107
0.12717 0.286501 1.079 151 149 158
0.165978 0.114587 1.559 179 180 176
-0.383198 0.395327 1.145 80 80 74
-1.05098 -0.744069 2.099 154 162 163
0.716792 0.11053 1.691 172 178 178
-0.585847 -0.837764 2.489 172 172 168
0.558258 0.224943 1.302 143 155 145
0.273777 0.245404 1.141 139 147 136
-0.430647 -0.999361 2.604 169 170 161
-0.663211 0.326398 1.473 9 15 17
-0.604563 0.0957551 2.78 119 114 112
-0.0849847 -1.04694 2.967 147 142 140
1.51724 -1.23289 4.409 51 54 55
-1.11689 -0.215912 2.181 127 126 126
0.104263 0.141397 1.547 156 153 150
-0.898249 -0.556042 2.479 91 96 101
-0.423064 -0.250269 2.967 135 127 126
-0.171031 0.301439 0.995 184 183 187
-0.227246 -0.423356 2.996 135 125 123
-0.182385 0.188613 1.502 164 159 169
-0.78748 -0.0709877 2.755 30 26 29
-0.0817019 0.28518 1.012 190 190 192
0.852046 0.0469328 1.784 131 142 138
-0.41604 0.328681 1.18 108 108 110
-0.914027 -0.716252 2.489 80 79 86
0.317017 0.229118 1.449 145 149 142
0.915253 -1.05161 2.953 140 140 136
-0.959848 -0.210513 2.649 72 72 76
0.0568007 -0.0864221 3.354 94 86 83
-0.169181 0.262704 1.16 110 112 118
0.467493 0.244527 1.22 172 184 176
0.110272 0.0523607 3.165 28 20 17
-0.277925 0.0558031 3.071 112 102 102
0.840574 -0.0591251 2.831 26 12 6
-1.30378 0.376153 3.248 44 50 48
1.26064 -0.863759 2.604 127 134 128
0.069776 -0.821398 3.198 133 124 119
-0.157949 0.135764 3.071 101 93 92
0.845182 -0.519822 2.831 52 32 24
-0.61258 0.0590277 2.755 122 122 118
-0.887915 0.120363 2.939 11 11 13
-0.933971 -0.747596 2.499 70 69 71
-0.678056 -0.354234 2.66 149 144 140
0.193326 0.247234 0.834 126 117 100
0.0973025 -1.17252 3.248 136 129 123
-1.17244 -0.0501467 2.604 20 23 22
0.789914 -1.25709 3.248 133 133 133
1.10589 -0.570668 2.66 124 121 116
-0.259825 -0.971012 2.871 149 144 142
-0.775923 -0.750527 2.684 37 40 39
0.726301 -0.386229 3.448 52 51 55
-0.653815 -0.671656 2.615 164 161 158
0.575256 0.198948 1.47 172 176 171
0.582724 0.22788 1.319 160 167 161
-1.01543 -0.108548 2.582 32 23 26
-0.502777 -0.68067 2.719 156 152 153
0.592176 0.1721 1.729 51 66 52
0.751544 -0.424644 3.487 29 20 25
-0.918426 -0.531837 2.479 97 103 103
-0.0324916 -1.03328 3.026 144 136 135
0.85508 -0.670498 3.588 26 23 18
0.0603071 0.136959 1.583 139 139 135
0.523388 -0.928431 3.301 122 114 111
-0.822736 -1.07131 2.768 9 20 31
-0.397481 0.437871 1.154 8 8 8
-1.15846 0.0803687 2.449 87 87 89
-0.129975 0.276574 1.029 182 177 185
-0.09493 0.316607 0.917 192 194 200
0.594475 0.0742611 1.744 163 166 169
-0.505042 0.0565638 2.857 123 114 117
0.568642 0.00758237 2.151 169 172 175
-0.0655727 -0.233324 3.198 118 108 108
-1.09366 -0.252325 2.32 13 15 25
0.993979 -0.0943818 2.54 154 155 149
1.29334 -0.916718 4.087 42 48 46
-0.446706 0.137323 2.996 116 110 112
-1.13365 -0.944447 2.43 60 52 51
-0.957909 -1.07581 2.768 19 14 22
0.918827 -0.593998 2.996 42 42 36
0.664454 0.0625482 1.734 154 166 158
0.407702 0.317875 0.845 181 191 196
0.953971 -1.06575 2.939 139 140 136
-0.675252 -0.128608 2.649 137 132 128
-1.00714 -0.150391 2.509 91 96 86
-0.818872 -0.18307 2.755 5 15 22
0.112626 -0.175668 3.391 100 91 86
-0.727614 0.0871388 1.403 16 15 15
-1.10762 0.295316 3.231 18 24 22
-1.02289 -0.608322 2.43 69 81 83
-0.0895594 0.250891 1.262 93 93 95
-0.14939 0.283813 1.013 141 135 137
-0.876081 -1.07143 2.78 12 18 18
1.35261 -1.09309 4.606 39 43 38
0.39414 -0.893043 3.391 114 106 103
0.394276 0.24596 1.135 158 163 153
-0.0395441 -0.462309 3.198 118 109 104
-0.706998 0.110676 1.412 27 29 35
0.254574 0.0505623 1.81 131 129 119
-1.06255 -0.613197 2.143 145 151 153
-0.905496 -0.507661 2.499 43 45 51
0.0338572 -0.448395 3.248 125 116 111
0.99751 -0.903726 2.793 110 116 116
0.390823 0.102424 1.607 138 143 133
-1.10201 -0.442237 2.43 12 12 14
0.300416 -0.653113 3.215 126 111 99
0.0878688 0.195074 1.273 140 140 136
-1.04311 -0.283449 2.459 47 58 67
0.234995 0.141285 1.633 155 151 156
-1.07113 -0.28745 2.459 61 73 79
1.17692 -0.511242 2.383 26 13 19
-0.598006 0.403837 1.333 18 32 65
0.256117 0.236684 1.162 145 146 137
-0.712135 -0.589014 2.626 161 156 154
-0.336153 0.189743 3.055 114 107 99
0.325203 -0.054689 3.102 65 47 53
-1.1524 -0.556635 2.181 141 149 150
-0.439323 0.182203 1.47 191 190 194
-0.543827 -0.323933 2.66 146 141 139
-0.502596 0.473283 1.242 7 15 12
-0.505043 -0.80294 2.684 166 161 159
-0.601907 -0.201906 2.707 148 140 137
0.686002 0.0318538 1.753 128 142 131
0.00214633 -0.509343 3.266 131 120 115
0.0127105 0.174401 1.445 194 188 194
0.51853 0.136578 1.673 133 136 137
-0.0368559 0.272578 1.002 35 40 47
0.615605 0.192985 1.409 151 166 163
-0.688543 -0.239501 2.684 142 139 136
0.362925 0.314907 1.007 194 202 203
0.207338 0.2346 1.22 169 170 166
-0.775923 -0.331223 2.684 8 15 9
0.255916 -1.08795 3.248 142 137 133
-0.642808 -0.110367 2.731 126 121 119
0.408587 0.211339 1.473 180 183 184
-0.853454 -0.881423 2.78 16 12 13
-0.603611 -0.106854 2.755 142 137 133
0.622071 -0.634872 3.283 97 92 88
1.20044 -0.893868 2.593 133 134 130
0.598288 0.238015 1.27 186 197 195
-0.199363 0.31403 0.999 170 173 176
0.169581 -0.527549 3.215 141 128 117
-0.166521 0.323706 0.942 153 153 153
0.222478 -0.998264 3.301 139 131 128
-0.180377 -1.08314 2.871 153 148 146
1.00644 -1.00357 2.78 138 142 137
0.440353 0.206302 1.406 190 190 192
-0.514305 0.184697 1.452 187 190 191
-0.432742 -0.270203 2.871 136 125 129
0.542928 0.19805 1.429 130 133 132
-0.0492202 0.327362 0.874 144 144 144
-0.708609 -0.465697 2.582 153 147 151
0.0899015 0.247261 1.141 118 112 116
-0.106946 0.318355 0.905 182 187 192
0.116848 0.278237 1.081 89 80 87
-0.968612 -0.234325 2.626 64 71 79
0.847477 -0.158324 2.793 25 18 10
0.559089 -0.681351 3.354 121 114 106
1.06537 -0.902307 2.593 132 132 128
-1.03098 -0.757191 2.107 144 155 155
0.626788 -0.29057 3.198 128 112 117
0.197131 0.172883 1.452 186 185 185
-0.846286 0.105004 2.911 14 17 18
0.0992467 0.29618 0.866 189 196 202
-0.296606 0.192574 1.406 125 121 126
0.888772 -0.565136 2.898 47 40 34
0.280818 0.244828 1.147 142 147 137
0.881556 -0.435459 3.674 25 25 19
0.747348 0.142797 1.62 149 158 151
-0.564143 -0.398366 2.695 146 142 143
-0.728107 0.168557 1.378 8 15 9
0.280859 0.233188 1.445 166 170 165
0.323502 0.193856 1.524 187 187 187
-0.572886 -0.591889 2.78 158 149 152
-0.323266 -0.0768368 2.982 122 114 113
-1.10265 -0.00306805 2.261 110 117 111
0.0502525 0.127295 1.591 141 133 130
-0.984802 -0.0934042 2.755 16 12 17
-1.12505 -0.231696 2.42 8 16 15
-0.421149 0.313774 1.189 100 103 106
-0.278042 0.294734 1.077 152 152 156
-0.769541 -0.0261548 2.755 101 90 94
-0.474551 -0.107684 2.898 131 122 127
0.73295 -0.853226 3.301 88 88 92
0.41661 0.304811 0.95 186 198 200
0.399851 -1.18153 3.215 111 106 102
-0.0609902 0.266415 1.083 191 193 199
1.1614 -0.658546 2.719 125 126 117
-0.0591114 0.331249 0.873 138 138 140
-0.0843849 0.253828 1.217 92 97 102
0.162122 0.272228 1.114 38 40 46
-0.72461 -0.0601526 2.672 132 122 120
0.415272 0.240852 1.242 176 176 178
-1.21473 -0.0591251 2.831 13 22 13
0.611075 0.258746 1.194 143 144 135
-1.11387 -0.647866 2.43 13 16 15
0.0265451 0.309789 0.937 21 26 31
-0.594915 0.452153 1.262 5 18 27
0.409469 -0.612549 3.336 116 106 104
0.658022 -0.243733 3.198 137 121 118
0.85508 -0.682176 3.588 26 23 18
0.150745 0.239851 0.887 131 116 106
0.113078 0.298617 0.777 188 198 203
-0.01239 0.270948 1.002 13 20 24
-0.547884 -0.593838 2.768 152 143 146
-0.308704 -0.144775 2.982 131 124 118
0.218755 0.264346 1.089 121 113 112
-0.857736 0.17462 2.967 18 14 15
-0.220686 -0.281162 3.04 121 110 114
0.412508 0.312335 1.004 194 205 203
0.0385343 0.244527 1.22 127 126 126
-0.975007 -0.501567 2.469 58 68 71
-1.04315 -0.645849 2.037 153 157 150
0.819115 -0.51339 2.953 36 39 38
0.353767 0.223278 1.505 193 192 196
-1.31683 0.25323 3.165 49 55 55
-1.06641 -0.31965 2.43 60 70 73
-0.0296041 0.310616 0.883 184 187 190
-1.08554 -0.525096 2.411 8 16 17
1.2023 -0.891172 2.561 136 136 132
0.894112 -0.747831 3.652 34 35 29
-1.08989 -0.610988 2.32 13 16 17
1.10104 -0.93943 2.638 131 131 127
-0.601953 0.19444 2.768 116 108 107
0.46107 0.312174 1.036 185 195 200
0.030677 0.192574 1.406 192 188 191
-0.888328 -0.867088 2.707 101 101 103
-0.726004 0.179292 2.743 118 115 112
-0.608507 -0.945439 2.55 172 173 169
-1.10549 -0.878662 2.329 58 80 90
1.09997 -0.393794 2.499 52 24 7
-1.01127 -0.286907 2.489 63 65 71
1.49879 -1.2256 4.712 41 48 42
0.15878 0.283613 1.116 96 102 100
-0.857096 -0.492969 2.638 22 17 13
-0.982634 -0.374955 2.509 75 66 69
-0.14644 0.276037 1.027 184 183 187
-0.717686 0.228783 2.695 117 114 109
-0.650378 0.0227578 2.707 123 123 119
0.823722 -0.263992 2.805 34 18 11
-0.0979616 -0.763791 3.071 137 132 128
1.1863 -0.33942 2.402 54 24 6
0.178354 0.221354 0.86 92 67 60
-0.16226 -0.617218 2.967 134 126 125
-1.05194 -0.873664 2.499 61 58 72
0.0328969 0.236908 1.232 170 165 163
-0.353112 0.169943 1.532 185 185 189
-0.0425389 -0.988594 3.04 143 139 132
-0.388778 0.213208 1.308 190 190 192
-0.251793 0.309889 1.034 156 161 166
0.577318 0.175774 1.71 86 98 90
1.2203 -0.166734 2.392 43 22 7
-0.717011 0.433191 1.357 12 8 11
-0.35923 -0.739731 2.844 153 148 146
0.448514 0.280311 1.132 183 186 189
0.507351 -0.14729 3.373 88 79 74
0.194713 -0.477921 3.198 144 128 123
-0.676763 0.363017 1.466 6 8 16
-0.119393 -0.989143 2.982 151 141 139
0.822305 -1.03282 2.982 137 138 134
-0.951625 0.240473 3.133 13 16 15
-0.557781 0.0282768 2.818 125 120 116
0.506583 0.292688 1.13 161 174 171
0.980392 -0.277564 2.672 45 21 9
-0.239143 0.225888 1.26 94 101 95
-1.0711 -0.25945 2.189 126 127 123
0.61885 -0.737882 3.266 105 96 91
0.624166 -0.727252 3.266 103 96 88
0.16458 0.295942 0.826 68 68 62
1.16314 -0.999361 2.604 131 132 123
-0.704391 0.375983 1.416 6 8 14
0.846315 -0.89054 2.898 137 137 141
-0.626794 -0.801196 2.54 170 170 166
-0.261065 0.306432 1.051 155 157 163
0.615913 0.229878 1.294 185 193 192
1.08681 -0.579547 2.743 124 122 112
-0.107788 -0.344434 3.215 126 116 114
-1.12109 -0.157925 2.499 16 16 16
0.029311 0.131474 1.579 179 172 181
-0.734345 -0.189743 2.66 132 123 126
-0.148674 -0.576688 3.086 142 134 131
0.199318 0.299595 0.773 138 143 148
-0.68759 0.444051 1.33 10 9 9
0.320843 -0.787426 3.318 110 103 97
0.0146151 0.323242 0.863 191 197 197
-0.146676 0.189149 1.487 200 195 203
0.299594 0.195305 1.516 181 180 182
-0.371987 -0.298236 2.871 134 128 130
0.495658 0.286254 1.156 171 179 176
0.669204 0.124336 1.655 161 167 167
0.135134 0.0499757 1.789 130 126 119
-0.172788 -0.974585 2.982 146 143 138
0.549737 -0.509343 3.266 117 107 105
-0.199068 0.339813 0.966 145 145 147
-1.1524 -0.0171563 2.181 112 115 116
-0.311791 0.233185 1.289 98 103 108
-0.0792178 0.316455 0.908 192 195 198
-0.459649 -0.947658 2.649 163 160 155
-1.31082 0.0715104 3.102 26 27 23
-0.739933 -0.926104 2.649 167 167 161
0.103225 0.300653 0.779 188 198 201
-0.923579 -0.127018 2.707 5 17 31
1.03305 -0.782438 2.719 130 130 126
-0.243087 -0.131483 3.011 126 116 116
0.269572 0.236245 1.435 182 182 184
-1.06968 -0.592811 2.037 143 149 147
-0.692978 0.200822 1.384 9 10 6
-1.07513 -0.219423 2.459 49 56 60
0.427459 -1.16839 3.266 118 113 109
-0.452223 0.41777 1.21 64 61 56
-0.0369663 0.283207 1.005 43 48 57
-0.317745 0.285941 1.118 162 165 168
-0.639722 0.437731 1.286 7 14 18
-0.15175 0.276574 1.029 187 187 191
0.504501 -1.0783 3.283 120 116 109
-0.968163 -0.315275 2.66 84 86 92
-0.113963 -0.906915 2.967 145 142 137
1.07731 -0.990399 2.719 131 133 122
-0.172946 -0.538903 3.071 131 120 124
-0.296843 -1.01262 2.78 161 158 155
0.2911 0.234444 1.189 151 156 146
-0.617436 -0.579326 2.66 165 157 156
1.11892 -0.249363 2.561 49 23 8
0.78066 -0.0905061 2.953 51 35 40
0.253348 -0.905131 3.354 145 134 129
0.276245 0.264995 0.743 145 139 115
-0.367141 0.334982 1.13 101 101 101
0.471419 -0.534356 3.391 116 109 103
-0.802901 -0.599332 2.672 29 41 45
0.925639 -0.250319 2.755 37 19 8
-0.794894 -0.98155 2.719 30 30 30
-0.742008 -0.251474 2.672 126 114 114
1.19468 -1.12804 4.257 39 44 34
0.570143 -0.519658 3.231 117 109 106
-0.932392 -0.219527 2.707 1 23 49
-0.966969 -0.742639 2.469 91 100 112
0.477056 -0.0486488 3.04 83 78 74
-0.350618 -0.568935 2.967 148 140 139
0.828288 -0.0357588 2.805 21 14 4
-0.426049 0.208296 1.345 186 189 192
-0.288164 0.335188 1.05 119 119 121
-0.615504 -0.680167 2.615 164 159 157
-1.13117 -0.195414 2.459 11 18 22
-1.01495 -0.365988 2.449 53 60 64
-1.10979 -0.0881404 2.181 112 121 112
-0.386679 0.172634 1.47 196 196 198
-0.503654 0.29961 1.286 114 118 113
-0.295805 0.339785 1.059 101 102 98
-0.962214 -0.472946 2.509 21 26 31
0.281284 0.151078 1.624 67 67 61
-0.0623641 0.127502 1.774 185 181 184
-0.338312 0.346408 1.102 95 94 96
1.08908 -0.280385 2.54 57 24 7
0.654827 0.17455 1.466 157 167 155
0.346066 -1.12182 3.301 116 108 105
-0.0743784 0.301771 0.96 193 195 201
0.372596 0.31207 0.879 174 184 187
-0.0540401 -0.769014 3.133 135 130 128
-0.502855 -0.15956 2.898 129 118 122
-0.573682 -0.68615 2.638 162 156 158
-0.644852 -0.195823 2.684 138 130 129
1.17747 -0.392503 2.392 50 29 14
-0.776804 -0.608029 2.672 38 38 42
-0.182073 -0.668888 2.898 144 136 133
1.26675 -0.743529 2.499 131 131 125
-0.20566 -0.668888 2.898 145 137 136
0.190515 -1.1763 3.215 132 125 119
0.986755 -0.929229 3.04 125 121 124
-0.344399 0.0898694 3.04 116 108 105
0.0699259 0.199158 1.286 137 137 133
1.36555 -1.01606 3.931 36 42 40
0.700679 0.0703992 1.719 176 179 178
-0.331815 0.279207 1.135 170 173 174
1.12239 -0.431508 2.459 51 25 12
0.630724 0.123549 1.719 136 136 132
-0.440951 0.385997 1.185 73 77 70
-0.11155 0.278249 1.029 169 172 175
0.487979 -0.628166 3.391 123 111 111
1.01669 -0.53593 3.026 40 41 32
-0.979063 -0.547554 2.459 43 52 64
-0.9776 -0.289223 2.582 53 52 61
0.208221 0.040066 1.87 153 144 147
0.636588 -0.876525 3.248 100 93 87
-0.293876 0.230652 1.275 101 107 109
-1.12265 -0.983313 2.53 63 53 63
0.550658 -0.894845 3.336 120 116 107
0.32363 0.204767 1.513 182 182 184
0.351738 0.203277 1.539 145 145 147
-0.0987451 0.187394 1.532 195 194 198
0.196597 0.269407 0.803 83 69 52
0.594101 -0.688552 3.336 119 114 110
0.100685 0.21223 1.252 136 136 130
-0.175704 -1.11117 2.871 154 148 150
0.127636 0.290407 1.013 171 174 177
-1.1767 0.0172204 2.54 25 28 29
-1.08001 -0.687983 2.044 152 159 167
-0.297461 0.26117 1.145 180 179 186
0.314074 -0.575248 3.248 129 114 104
-0.705061 0.296584 1.422 8 8 10
1.03662 -0.222517 2.638 56 22 10
0.148812 -0.232535 3.336 74 63 54
0.637808 -0.0591251 2.831 136 131 129
0.17441 0.277757 1.1 54 60 58
-0.858935 -0.798573 2.684 38 45 49
0.843532 -0.424502 2.78 46 27 21
-0.771554 -0.685011 2.684 56 56 52
0.843175 -1.00333 3.467 44 40 41
1.01908 -0.883877 2.626 134 130 131
-0.633917 0.0274038 2.731 128 125 122
1.10288 -0.188381 2.582 46 21 1
-0.217487 0.276478 1.081 162 164 174
0.210809 0.24531 1.132 185 185 185
0.00924609 0.317797 0.887 173 173 177
0.835775 -0.436272 3.631 13 13 17
-0.172946 -0.56389 3.071 139 131 130
-0.848882 0.217046 2.953 16 19 20
-0.833165 -0.838446 2.743 19 25 27
-0.376164 0.305885 1.152 134 137 140
0.197758 -0.591105 3.248 144 126 117
-0.315315 -0.744054 2.953 152 142 142
-0.197106 -0.6861 2.911 143 135 132
-0.0537641 -0.780304 3.117 140 130 128
-0.107617 0.228129 1.333 88 88 90
0.816479 0.130976 1.637 146 152 154
0.154402 0.258428 0.867 101 97 90
-0.337543 -1.04824 2.743 166 161 159
0.301968 0.0588736 1.794 164 158 160
-0.570084 0.274549 1.381 68 75 79
-1.23841 0.0367227 3.149 20 26 24
0.6372 -1.06079 3.198 106 102 93
0.258127 0.0254397 3.026 41 26 27
-0.0286863 -0.665328 3.149 126 117 110
0.684661 -0.386615 3.354 131 127 130
-0.278726 0.261196 1.137 190 190 194
-0.240301 0.3231 1.007 142 148 150
0.353352 0.231087 1.289 150 151 142
-0.83763 -0.222446 2.743 9 15 15
0.847194 -0.575463 3.507 25 22 17
0.293235 0.23691 1.182 141 148 140
1.13854 -0.458677 2.392 42 23 10
-0.0792892 0.272818 1.171 131 133 141
-0.201938 0.189489 3.133 146 138 137
-0.356958 -0.936263 2.755 154 154 150
0.944666 -1.06543 2.925 138 138 138
0.539374 0.28811 1.141 165 171 173
0.461046 0.127293 1.624 143 144 140
-0.446948 0.224193 1.31 184 187 188
0.0745867 0.303218 0.858 159 171 173
0.788872 -0.452474 3.527 18 18 14
0.457273 0.108525 1.62 121 125 118
1.14186 -0.059573 2.312 156 159 158
-0.231721 -0.0687748 3.055 118 108 108
-0.115963 0.323576 0.895 155 155 159
0.539374 0.286253 1.141 171 179 180
-0.566655 -0.413355 2.707 148 144 145
0.215177 0.0964845 1.686 193 189 192
0.495656 0.216082 1.339 176 179 180
0.949621 -1.03191 2.911 137 140 139
0.439666 -1.14919 3.318 118 111 105
-1.121 0.0113146 2.196 110 114 109
-0.250044 0.315652 1.02 123 122 129
0.922395 -0.171828 2.719 37 17 9
0.707991 0.0262229 1.758 132 142 128
0.834163 -0.374514 3.117 30 34 27
-1.14923 0.346172 3.215 16 23 17
0.504056 0.284865 1.158 162 165 168
0.29308 0.228325 1.459 148 153 143
-1.09638 -0.469253 2.204 138 140 131
0.860921 -0.670498 3.588 26 23 20
0.0110636 0.307989 0.918 71 73 79
-1.08453 -0.270823 2.166 129 129 129
1.21411 -1.12422 4.377 41 41 41
-0.586033 0.436759 1.265 10 15 33
-0.351063 0.370121 1.114 77 84 78
0.904238 -0.350356 2.731 32 14 5
-0.605321 0.402928 1.33 19 33 64
1.08838 -0.814024 2.649 133 129 120
0.00758156 -0.263677 3.318 117 106 101
-0.166739 0.317847 0.952 157 157 159
-0.378706 0.152801 1.587 172 171 173
1.08067 -0.29575 2.53 54 26 9
-0.579451 -0.887344 2.55 176 175 175
0.346936 0.254949 1.102 174 183 174
1.11372 -0.269347 2.44 49 19 1
1.02695 -0.397681 2.55 41 20 5
0.29081 0.273649 0.737 111 92 86
-1.09395 -0.124966 2.143 121 122 118
0.215921 -0.998164 3.283 137 130 124
-1.01916 -0.432145 2.44 56 63 69
-0.109884 0.270415 1.114 138 143 150
-1.14447 -0.126307 2.166 120 124 117
-1.03529 -0.774782 2.469 43 55 71
-0.167087 -0.286118 3.149 118 110 109
-0.558844 0.247581 1.381 144 151 159
-0.487339 -0.823036 2.707 168 165 160
-0.357569 0.24895 1.203 184 187 190
0.286959 -0.842482 3.301 125 115 113
-0.547463 0.244268 1.375 147 149 157
1.21268 -0.699028 2.638 128 126 114
-0.0465815 -1.02796 2.982 144 136 135
0.707904 -1.10135 3.165 135 136 132
-1.07308 -0.509016 2.253 24 22 31
-0.220347 0.196248 1.416 91 118 142
0.852023 -0.167415 2.793 25 18 8
-1.32271 0.190736 3.071 51 55 50
-1.15779 0.140626 3.181 25 21 24
0.397736 -0.0980151 3.198 61 57 50
-0.618638 -0.414211 2.684 155 149 151
0.10678 0.298066 0.906 77 86 98
0.742073 0.0151242 1.799 157 160 161
0.346713 0.0810832 1.769 142 139 136
0.107312 -1.1138 3.231 138 130 127
-0.611689 -0.563679 2.731 163 155 152
0.293622 -0.118832 3.198 66 57 50
-0.738508 0.247422 2.707 121 113 112
-0.581915 0.4347 1.265 10 18 33
0.188226 0.286961 0.812 49 42 36
-1.36194 0.333869 3.248 48 51 52
0.567855 -1.11966 3.248 122 117 113
0.180048 -1.1763 3.215 134 127 121
-0.417001 0.26139 1.234 155 161 163
0.351555 0.150975 1.595 72 81 72
0.428122 0.228301 1.262 176 179 180
0.215397 0.269056 0.772 116 111 93
-0.0823047 0.266887 1.187 106 111 118
-1.26256 0.0106139 3.011 22 24 15
0.641875 -0.633389 3.248 122 114 113
-0.350199 -0.327745 2.884 137 127 127
0.73125 0.0180016 1.794 141 150 143
-0.39207 0.0106668 3.026 122 114 111
-1.09744 -0.00692351 2.32 66 69 68
0.289042 0.276897 1.024 101 103 94
-0.262431 0.239215 1.244 108 107 116
0.270043 0.142797 1.62 83 82 82
0.772288 0.182125 1.509 162 168 170
-0.406862 0.194065 1.384 190 193 196
1.01093 -0.537871 2.805 124 122 114
0.486234 -1.18569 3.198 121 113 110
-0.507113 -0.679047 2.695 161 155 157
0.870665 -0.0511471 2.449 154 154 154
0.275065 0.231645 1.316 145 146 140
0.266531 0.0746444 1.753 150 141 144
-0.473245 0.35778 1.234 79 85 83
0.370086 -0.191202 3.373 72 63 54
-0.180722 -0.792109 2.953 147 137 135
1.11228 -0.863759 2.604 132 132 128
-0.484306 0.231117 1.313 162 161 168
0.642975 -0.395398 3.336 131 128 123
-0.0619104 0.216794 1.33 181 177 182
-0.727614 0.0894219 1.403 16 15 15
-0.565257 0.46989 1.26 5 15 29
0.364595 -0.224136 3.373 72 63 58
0.168685 -0.509147 3.198 143 128 118
-0.201762 0.246512 1.22 105 108 109
0.28405 0.174336 1.595 149 149 149
-0.954912 -0.742639 2.469 111 118 126
-0.349876 0.329016 1.116 108 114 112
-0.453634 -0.829518 2.743 163 160 155
0.0222986 0.253072 1.022 17 20 23
-0.739933 -0.322593 2.649 118 107 111
-0.705883 0.353688 1.419 5 13 10
-0.565261 -0.0528235 2.743 130 125 123
-0.70414 0.201754 1.375 8 11 12
1.29361 -1.1571 4.505 41 45 40
-0.79077 0.212686 2.831 87 84 79
-0.455496 0.195278 1.409 194 197 200
1.17117 -0.160047 2.469 51 25 10
-1.05842 -0.62004 2.107 144 147 150
0.615946 0.205326 1.384 173 181 178
0.475409 0.201754 1.375 158 164 166
0.0159085 0.323784 0.857 189 195 197
-0.409975 -0.41093 2.78 144 135 138
0.122705 0.271089 1.102 167 166 170
-1.32415 0.2218 3.086 48 54 52
-0.172177 0.310927 0.974 170 169 171
-0.70216 0.484099 1.333 4 7 10
0.496746 0.00403834 2.128 150 149 151
0.193069 0.243278 1.357 155 155 151
-0.9152 -0.47645 2.572 40 40 44
0.961138 -0.435577 2.793 97 82 81
-0.414634 0.108612 3.011 123 118 114
0.23768 0.254968 0.775 77 55 45
1.02831 -1.01674 2.695 127 134 126
-0.288038 0.220086 1.286 96 99 100
0.468262 0.197753 1.535 164 167 166
-0.707789 0.27553 1.409 6 6 10
-0.166599 0.221408 1.372 89 88 95
-0.514593 0.481502 1.232 14 13 15
0.461046 0.188077 1.624 125 131 129
-0.695589 0.410199 1.354 42 15 7
-0.968975 -0.211174 2.604 56 62 64
0.0669638 0.284004 1.044 29 34 39
-1.0759 -0.396014 2.236 102 104 88
-1.25526 -0.0040464 2.982 22 27 13
-0.104024 0.253411 1.215 93 98 103
0.507216 -0.851415 3.336 120 115 113
0.109639 0.298896 0.798 186 198 202
-0.861284 -0.260323 2.719 10 12 20
-0.0539622 0.187761 1.535 172 171 173
-1.06843 -0.278576 2.228 98 98 92
0.239672 0.076215 1.724 186 185 187
-0.190995 -0.563145 3.04 139 131 130
1.14444 -0.79247 2.649 132 132 126
0.412619 0.316888 0.861 186 199 198
0.0960941 0.29826 0.889 18 27 39
-0.315131 0.245966 1.198 192 195 196
0.533987 0.313055 1.092 189 199 202
-1.06465 -0.699664 2.099 147 153 155
0.844506 -0.672567 3.568 27 24 19
-0.149903 0.325516 0.934 191 194 195
1.0243 -0.726852 2.743 134 126 125
0.0237847 -0.215082 3.318 109 98 91
0.594689 0.0603808 1.753 161 161 161
-1.37712 0.380916 3.336 45 48 47
-0.382193 -0.682214 2.743 155 149 151
-0.337373 0.157966 1.587 196 195 197
-0.987386 -0.602884 2.44 35 46 57
0.785133 0.0785622 1.714 98 114 105
1.0373 -0.646829 2.707 131 129 119
-0.283002 -0.424087 2.967 137 128 131
0.143506 0.119968 1.563 188 187 191
0.194224 0.274976 0.804 70 61 40
-0.706757 0.202493 2.755 118 115 112
-0.0774729 0.3196 0.888 184 187 190
0.417075 0.0248161 2.128 158 158 154
0.515134 0.212945 1.333 185 188 189
-0.644462 0.253856 1.416 22 27 32
0.642975 -0.373683 3.336 133 130 125
0.398805 0.308129 0.88 185 196 196
-0.200481 0.19715 1.406 129 152 171
0.229264 -0.0244011 3.102 19 60 53
0.422598 -0.604938 3.354 117 108 101
0.366502 -0.0980151 3.198 66 62 53
-1.27851 0.120561 3.198 23 27 20
-0.616921 0.449111 1.265 2 14 30
0.525766 0.278729 1.156 192 200 201
-1.10674 -0.209579 2.189 120 123 124
0.0780459 0.245291 1.158 113 104 107
0.0626395 0.299066 0.795 190 195 202
0.493573 -0.741389 3.354 120 113 107
0.691544 -0.511994 3.283 112 101 105
-0.397231 -0.590808 2.818 148 140 137
-0.715726 0.103861 2.755 123 118 114
0.50988 -0.220481 3.318 103 92 85
-0.557842 -0.404545 2.707 146 145 145
-0.125204 0.155593 1.616 143 137 139
-0.504857 -0.834719 2.66 156 153 150
-0.280059 0.179445 1.528 198 196 203
-0.30928 0.245966 1.198 193 196 199
0.210859 -0.932214 3.373 137 128 121
0.0803277 0.293352 1.041 142 147 152
1.11827 -0.165298 2.55 47 26 11
-1.09019 -0.45986 2.228 137 137 131
1.19072 -0.769435 2.572 132 129 124
0.483162 -0.036974 2.572 122 133 142
-1.04972 -0.701166 2.189 20 25 32
-0.241132 -0.774786 2.871 149 141 140
1.11698 -0.561014 2.615 123 122 122
0.49152 -0.0815522 3.165 83 78 76
-1.03029 -0.76043 2.051 157 160 159
-0.639198 -0.937598 2.54 176 175 177
-0.343695 -1.02644 2.793 164 159 157
1.15437 -0.995021 2.672 128 129 123
0.128318 0.181754 1.327 189 185 188
0.125071 -0.837888 3.283 138 129 122
-0.352876 0.353806 1.114 100 100 100
0.452581 -1.2208 3.181 117 114 109
-0.615938 0.32647 1.452 35 38 39
-0.250478 -0.896259 2.871 153 145 144
-0.0357713 0.206743 1.409 188 187 191
0.535674 0.281667 1.145 182 195 194
0.295541 0.267662 0.768 116 103 92
0.520711 0.319681 1.044 189 200 200
0.775051 0.107459 1.686 80 92 84
-0.887839 -0.269172 2.719 31 42 51
1.12239 -0.263441 2.459 48 20 1
1.07724 -0.874501 2.561 135 133 125
-0.645972 -0.250363 2.707 139 133 135
0.135007 0.238144 1.249 144 145 139
0.441464 -1.00906 3.373 118 109 104
1.2143 -0.152364 2.411 42 21 6
-0.589462 0.214062 2.731 115 111 104
-0.512003 -0.119562 2.844 142 134 131
0.507216 -0.87313 3.336 124 115 110
-1.24778 0.12739 2.684 27 33 33
-0.118255 -0.02529 3.215 110 102 99
-0.143659 -0.0147479 3.198 117 108 103
1.10563 -0.563998 2.649 125 123 115
-0.963122 -0.57721 2.449 40 49 61
0.260876 0.260502 0.769 96 98 85
-0.120359 0.138456 1.696 159 154 152
-0.253922 0.240852 1.242 109 109 113
-0.014049 0.245347 1.004 18 16 25
-1.3086 0.302026 2.805 57 65 64
0.223469 0.118303 1.646 142 132 130
1.03018 -0.491877 2.911 125 116 107
0.158894 0.303997 0.791 185 197 203
0.163215 -0.154455 3.41 64 55 50
0.209866 0.260858 0.789 109 93 70
-0.660916 0.333665 1.484 7 13 13
-0.676529 0.242911 1.406 10 13 16
-1.05266 -0.766765 2.173 121 132 132
0.502107 0.269154 1.18 186 197 193
0.831357 -0.38622 2.831 51 28 23
0.143834 0.180644 1.351 186 185 187
0.756846 -1.05962 3.133 126 123 120
0.11501 -0.595379 3.301 124 116 115
-0.835653 -0.564346 2.572 68 79 79
0.61442 -0.820533 3.215 110 99 103
-0.977544 -0.311554 2.593 62 67 72
0.143525 0.249955 0.887 101 84 70
0.278017 0.266852 1.092 159 163 156
0.336939 -0.018879 3.026 84 73 77
0.541793 0.184025 1.567 155 161 161
1.10962 -0.802058 2.638 134 132 124
-0.364283 -0.510781 2.884 136 126 124
0.487356 0.243535 1.225 173 182 173
0.437221 0.275112 1.141 122 137 121
-0.908767 -0.447993 2.626 18 18 22
-0.225474 0.136905 1.677 186 182 185
-1.02361 -0.770443 2.051 156 162 162
0.382056 0.313003 0.811 186 197 206
0.238024 0.216278 1.442 163 166 165
-0.301886 -0.634624 2.871 146 141 137
-0.245667 -0.69416 2.925 143 135 134
-0.866021 -0.486454 2.626 25 14 7
-1.16547 0.31109 3.231 20 23 22
0.291392 -0.64059 3.231 136 122 107
-0.111951 0.268857 1.154 114 119 126
-0.0113884 0.307497 0.921 167 170 173
0.0550056 -0.733815 3.248 133 124 117
0.652449 -0.564677 3.248 139 133 137
-0.0191193 -0.302064 3.266 114 102 100
0.859035 -0.039862 2.261 162 165 166
0.823541 0.117521 1.673 147 158 154
-0.683223 -0.8085 2.55 171 171 171
1.04095 -0.486403 2.649 78 61 63
-0.596721 -0.704395 2.626 168 160 159
0.112636 0.139295 1.524 155 152 147
0.123038 0.278504 0.855 161 161 157
-0.429486 0.359405 1.18 91 95 88
0.463773 -0.221678 3.336 92 77 76
1.07893 -0.858236 2.626 135 132 127
-0.526442 -0.0180804 2.898 125 120 118
1.46416 -1.09451 4.316 46 53 57
0.110272 0.0214578 3.165 23 20 17
0.412024 0.0809989 1.65 144 143 143
-0.407125 0.306157 1.182 112 118 118
-0.0660342 0.267187 1.079 192 195 198
-0.431359 0.06743 2.925 119 114 112
-0.452246 0.274103 1.237 154 161 165
-0.3429 0.288442 1.135 165 165 167
-0.63327 -0.386269 2.672 147 141 143
-0.0229002 0.186478 1.466 150 149 153
0.652861 -0.0380809 2.649 108 79 69
0.428245 0.24992 1.162 170 173 172
0.0880273 0.310841 0.994 157 157 161
-0.102193 0.240759 1.319 87 87 89
0.215658 0.0681918 1.734 189 188 188
-0.47875 -0.177005 2.953 132 124 123
-0.259354 0.103341 3.149 119 109 109
-0.662009 0.193399 1.429 30 36 36
1.07477 -0.0754617 2.338 155 156 150
-0.00592942 0.201296 1.403 157 153 154
1.10021 -0.628649 2.743 126 127 118
0.380254 -1.12219 3.318 111 102 97
0.35865 -0.722633 3.318 110 101 92
-0.650378 0.0315682 2.707 126 121 117
0.631994 -0.16567 3.198 127 114 118
0.287638 -0.258114 3.248 45 36 31
1.17933 -0.914966 2.593 134 131 126
0.378921 -1.09071 3.354 112 103 96
-0.144966 0.299403 0.983 181 181 185
1.21268 -0.694735 2.638 128 124 117
0.969965 -0.0159213 2.024 131 143 135
-0.0521945 -1.09238 3.026 142 137 133
-0.224379 0.270014 1.143 117 119 127
-0.561841 -0.305017 2.684 145 136 139
-0.614576 0.400398 1.336 14 35 66
-0.675364 -0.308602 2.755 149 141 140
-0.557781 0.097064 2.818 113 104 107
-0.919387 -0.468079 2.572 29 31 37
0.236824 0.27245 0.737 149 140 131
-0.45844 0.291039 1.232 138 144 142
-0.355448 -0.13439 2.967 135 127 126
1.21112 -0.520901 2.374 40 21 6
0.126196 0.282517 0.83 114 104 92
0.398101 0.270438 1.085 139 146 138
-0.621549 0.0724776 2.755 126 121 117
0.468829 0.182145 1.642 114 118 111
0.253329 -0.570762 3.283 141 126 116
-0.725196 0.168924 1.381 9 16 10
-0.0135874 -0.55894 3.215 128 113 112
0.406219 -0.583106 3.354 114 103 96
-0.21437 -0.734443 2.953 148 140 139
-0.151851 0.243317 1.234 100 100 102
-0.870136 -0.29572 2.719 12 17 22
-0.986741 -0.242227 2.53 61 60 62
0.0270794 0.122731 1.599 188 184 187
-0.691797 -0.528724 2.582 160 152 151
-0.427545 0.157987 1.513 190 190 192
-0.414773 0.341419 1.171 99 102 101
0.514502 0.263839 1.182 185 193 194
0.92119 -0.913484 2.911 145 145 147
-0.59897 0.257734 1.412 49 54 61
-0.565609 0.438485 1.27 9 24 50
0.621602 0.223404 1.357 125 136 134
0.0238685 0.242142 1.018 18 21 22
-0.871556 -1.04881 2.78 16 16 18
-0.0829163 0.0752911 3.266 99 91 88
-0.250428 -0.936917 2.925 156 153 148
0.523947 0.285263 1.152 175 183 184
0.424992 -0.663255 3.373 118 108 106
-1.0074 -0.032373 2.911 8 8 8
-0.974102 -0.367187 2.54 37 30 39
-0.642157 0.258464 1.416 32 31 31
-1.10715 0.0328756 2.204 116 116 116
-1.10036 -0.233379 2.212 123 126 125
1.02831 -0.46415 2.695 113 111 101
-0.498277 0.216468 1.369 176 179 182
-1.13687 -0.12489 2.489 2 8 6
0.534134 -1.18091 3.301 123 116 110
-0.362197 -0.671852 2.831 153 145 144
-0.110396 0.341585 0.874 169 172 175
-0.641045 -0.75251 2.615 170 167 162
0.0909819 0.307057 0.957 37 35 44
-0.880932 -0.671584 2.582 49 42 51
-1.10707 -0.359572 2.128 129 136 130
0.322981 0.285632 0.783 103 86 68
-0.460104 -0.658299 2.755 157 151 153
-0.579615 0.46784 1.26 8 18 36
1.10563 -0.0361826 2.261 164 165 159
-1.11783 0.335708 3.215 22 22 22
-0.839153 -0.264747 2.719 10 17 23
-0.558343 -0.225918 2.731 137 130 124
-1.18841 -0.0420486 2.925 15 17 23
-0.204765 0.135844 1.664 191 190 192
0.940099 -0.282446 2.719 46 22 6
-0.897141 -0.166665 2.707 17 41 69
0.978633 -1.04577 2.871 135 138 137
0.455626 0.0907941 1.633 128 129 123
1.06708 0.00734971 2.085 149 145 146
-1.11386 -0.230953 2.189 127 126 126
0.129557 0.00594554 3.133 31 19 17
-0.718221 0.329897 1.416 4 7 10
-0.350199 -0.398144 2.884 139 130 133
-0.653154 -0.896853 2.53 179 175 176
-0.574598 0.340568 1.403 57 60 63
-0.507203 -0.424037 2.719 148 142 144
0.250494 0.229646 1.247 151 153 142
-0.517318 0.292411 1.31 98 98 98
1.04461 -0.275898 2.615 57 25 5
0.12835 -1.05596 3.231 139 131 128
-0.0302258 0.0764898 3.318 83 76 70
0.0105815 0.323145 0.878 186 189 192
-1.02477 -0.907101 2.695 86 94 111
-0.305065 -0.761709 2.857 153 144 149
-0.700909 0.385589 1.409 5 13 14
0.623302 -1.22478 3.318 124 117 109
0.91734 -1.06458 2.884 138 141 142
0.259318 0.174269 1.571 182 181 183
0.403469 0.078741 1.659 155 151 152
-1.07036 -0.746726 2.43 48 48 68
-0.826303 -0.116872 2.78 5 14 7
0.633833 0.192046 1.419 134 149 146
-0.563796 0.409729 1.324 15 23 49
-0.228555 -0.787026 2.831 151 143 140
0.0492133 -1.12921 3.215 138 128 126
-1.05803 -0.546589 2.402 44 49 58
-0.890607 -0.581924 2.469 97 102 107
0.112683 0.289407 1.027 30 30 32
-0.435488 -0.0857006 2.953 128 120 119
-0.38599 -0.752554 2.707 157 153 154
1.14175 -0.401856 2.449 55 25 9
-0.937792 0.175744 3.071 15 15 15
0.663023 -1.19366 3.248 96 96 100
0.131131 -0.670584 3.301 125 120 116
-0.599846 0.243874 1.425 108 110 120
-0.702846 -0.382726 2.561 151 143 142
0.74092 -0.00558059 1.87 185 185 185
0.961865 -0.040152 2.085 151 154 157
-0.408574 0.0587416 2.967 118 113 111
0.691121 -0.00279123 2.057 162 169 163
1.25549 -0.938404 2.509 135 135 135
0.377581 -0.909598 3.391 113 106 98
-0.298278 0.15916 1.599 196 195 204
0.538964 0.239669 1.257 138 152 143
0.666754 -1.21815 3.215 91 85 87
-1.28077 0.0781132 3.165 26 27 21
-0.540731 0.473813 1.265 4 12 27
0.12915 0.28817 0.823 111 99 97
0.865663 -0.144689 2.793 32 16 11
-0.0495107 0.239478 1.289 120 110 122
-0.461353 -0.519037 2.684 154 149 147
0.168465 0.255468 1.12 168 168 164
0.0754609 0.256821 1.044 15 21 23
0.548368 0.0677985 1.724 148 151 150
1.18579 -0.845416 2.626 135 132 127
0.168685 -0.498738 3.198 145 126 122
1.15823 -1.00358 2.593 136 131 127
0.326329 0.22595 1.459 167 170 169
-0.993739 -0.0897278 2.78 19 15 16
-0.274725 -0.33403 2.982 136 126 126
1.23565 -0.699462 2.561 131 128 125
0.141785 0.280629 1.07 167 173 171
-0.356958 -0.83763 2.755 156 147 150
-0.456579 0.35575 1.227 89 96 88
0.419501 -1.05846 3.373 120 113 107
-0.134098 0.247934 1.237 95 98 101
0.10267 0.235946 1.227 166 166 162
-0.277742 0.251872 1.18 162 164 172
-1.09365 -0.420762 2.312 12 19 23
-0.706282 0.387056 1.406 5 11 13
0.00550137 0.19715 1.406 187 178 183
0.931247 -0.30457 2.719 43 19 7
-0.242236 0.211402 1.31 109 102 111
0.205233 -0.62953 3.283 141 127 121
-0.462464 0.0528958 2.911 119 114 112
0.800428 0.0265362 1.779 167 171 166
0.945474 -0.353062 2.684 39 17 7
-0.746357 -0.199296 2.672 106 97 104
-1.07469 0.212026 3.165 17 18 12
0.897052 -0.922637 2.925 143 143 137
0.243353 0.24551 0.777 90 88 78
0.766673 0.0511132 1.729 130 134 127
-1.01301 0.25587 3.198 9 15 13
0.321526 0.245639 1.187 136 133 128
-0.303774 0.386903 1.075 62 66 59
0.902295 -0.0351018 1.991 151 157 157
-1.08042 -0.443022 2.253 77 74 71
-0.639175 0.369889 1.484 10 12 20
-0.547917 -0.802058 2.638 169 169 165
0.740819 -0.00884044 1.917 180 183 184
0.618278 -0.993034 3.181 118 114 107
-1.37141 0.298669 3.102 51 51 53
1.05313 -0.871663 2.615 134 131 128
0.109949 0.265227 1.1 188 187 191
0.926729 -1.10682 2.884 137 142 132
-0.0821863 0.281901 1.018 188 194 196
0.790358 0.0487186 1.744 146 152 152
-0.665066 -0.358562 2.66 151 143 140
1.21343 -0.6847 2.649 129 124 120
1.1258 -0.441709 2.449 44 25 10
0.499383 0.295038 1.118 186 197 195
-0.502479 0.303087 1.283 115 118 119
1.10582 -0.264891 2.55 51 23 6
-0.87996 -0.478141 2.604 67 26 18
0.730431 -0.0128772 2.064 162 163 157
0.427462 0.0147865 2.181 137 138 127
0.428266 0.0953438 1.62 137 139 130
0.475307 -0.110729 3.266 70 63 55
-1.03844 -0.395621 2.411 67 79 83
-0.434582 0.412245 1.194 51 50 50
-0.892265 -0.105458 2.719 0 20 44
-1.00721 -0.290957 2.489 87 86 88
0.760955 -1.19723 3.215 137 136 136
0.0021136 0.304316 0.925 26 36 39
0.2424 0.243294 0.778 96 94 82
-0.252752 -0.989649 2.844 154 151 148
-0.204418 0.344022 0.969 136 134 145
-0.296088 -0.412475 2.953 139 130 133
-0.188168 0.304581 1 163 169 171
-0.938602 -0.523769 2.479 79 84 89
0.260522 0.266204 0.743 109 100 83
1.15529 -0.93124 2.615 132 132 132
-0.522778 -0.41702 2.731 147 142 138
-1.09065 -0.789506 2.44 50 59 69
0.324669 0.257993 1.07 186 192 192
0.838619 0.0827753 1.744 155 158 159
0.0677425 0.295281 1.03 154 160 160
-0.489499 -0.618724 2.719 156 146 146
0.0235988 0.32285 0.833 181 187 189
-0.165348 0.256104 1.173 108 110 116
0.413031 0.191933 1.612 124 131 123
-0.702746 0.155427 1.422 5 10 15
0.579319 -0.426514 3.283 111 102 97
-0.388183 -0.164956 2.996 120 111 114
1.14977 -0.456951 2.383 55 26 12
0.227404 0.250474 1.114 190 190 190
0.699794 0.0867271 1.71 172 178 176
0.171335 0.240623 1.262 188 188 190
0.462036 0.29297 1.09 189 200 200
-0.341311 0.167778 1.535 193 191 198
-0.465708 -0.258406 2.844 134 122 122
-0.433302 -0.309315 2.844 139 130 133
0.637602 0.197992 1.412 139 150 146
-0.0666397 -0.954664 3.011 147 137 135
0.712921 -0.522679 3.283 42 35 44
-0.876842 -0.429752 2.672 13 16 19
-0.472585 -0.930415 2.649 165 160 158
0.488114 -0.997918 3.354 123 116 110
0.413937 0.304169 0.92 185 195 198
0.717945 0.164095 1.524 151 163 153
0.571686 0.252286 1.173 181 189 190
-0.336132 -0.422843 2.925 141 133 132
-0.429337 0.16741 3.011 115 107 104
0.424658 0.0479045 1.941 151 147 140
0.386558 -0.723633 3.373 119 108 101
0.578381 0.242922 1.232 189 197 198
-0.129101 -0.65916 2.982 146 137 140
1.12296 -0.291296 2.392 49 21 2
0.80467 -0.487315 2.884 34 40 40
0.937631 -0.976016 2.818 126 127 123
-0.000972574 0.256273 1.002 15 21 23
0.556852 -0.276419 3.215 115 106 101
0.562657 0.183453 1.52 169 171 177
1.22836 -1.13847 4.377 37 44 36
0.27258 0.263074 1.106 141 135 139
0.59644 -0.54069 3.231 101 92 85
-0.15407 -0.0251563 3.198 123 114 109
-0.321234 0.174828 3.055 103 95 94
-0.133366 0.240177 1.249 96 96 98
1.05186 -0.408521 2.54 43 22 7
0.488458 0.253917 1.208 185 192 186
-1.05974 -0.533376 2.173 133 139 137
0.472238 0.261092 1.187 155 163 152
-0.300101 0.342475 1.062 90 91 87
-0.887312 -0.901441 2.731 104 104 106
-0.160315 0.117508 3.117 107 97 97
0.658615 0.13869 1.603 178 186 185
-0.855117 0.0912297 2.925 15 15 17
-1.1297 -0.213635 2.158 121 127 125
-0.0124147 0.274756 1.004 12 23 23
-0.795989 -0.516579 2.649 17 16 23
0.260997 0.265681 1.059 144 153 144
0.280488 0.179839 1.575 182 182 184
-0.415494 -0.135069 2.982 137 127 125
-0.754078 -0.27881 2.684 97 89 88
-0.195277 -0.637498 2.884 143 134 137
-0.302803 -0.508522 2.925 134 129 127
-0.604575 -0.149705 2.719 133 128 126
