ply
format ascii 1.0
comment Created by Open3D
element vertex 1301
property double x
property double y
property double z
property uchar red
property uchar green
property uchar blue
end_header
0.470176 -0.188747 0.952 255 255 255
0.335176 -0.11676 1.532 255 255 255
-0.784834 -0.241276 2.064 255 255 255
0.168959 0.276764 1.587 255 255 255
0.176396 0.0939068 1.794 255 255 255
0.210058 0.109187 1.758 255 255 255
0.205771 -0.231063 1.848 255 255 255
0.140565 -0.411766 1.784 255 255 255
-0.337805 0.500441 1.378 255 255 255
0.274662 -0.265455 1.571 255 255 255
0.326771 -0.423924 1.185 255 255 255
0.481379 0.136423 1.267 255 255 255
0.239858 0.396925 1.425 255 255 255
0.265071 0.0424636 1.842 255 255 255
-0.16426 0.470869 1.39 255 255 255
0.339787 -0.33441 1.262 255 255 255
-0.578533 -0.065327 2.024 255 255 255
-0.710222 -0.811977 2.143 255 255 255
-0.312744 0.279883 1.62 255 255 255
0.429761 -0.0493037 1.22 255 255 255
0.0379832 0.248248 1.62 255 255 255
-0.453071 0.264631 1.691 255 255 255
-0.0300325 -0.522564 1.591 255 255 255
0.370012 0.438287 1.366 255 255 255
-0.313825 0.37261 1.535 255 255 255
0.461496 -0.0412158 1.16 255 255 255
0.400151 -0.183145 1.239 255 255 255
-0.540358 0.495649 1.409 255 255 255
0.32709 -0.288796 1.336 255 255 255
-0.328485 0.445839 1.456 255 255 255
0.387713 -0.0980049 1.406 255 255 255
-0.216677 0.480259 1.378 255 255 255
-0.72605 -0.661325 2.365 255 255 255
-0.766887 -0.0680059 2.107 255 255 255
0.431239 -0.284142 0.955 255 255 255
-0.41422 -0.561261 2.365 0 0 0
-0.758706 0.185584 1.673 255 255 255
-0.818464 -0.420321 2.269 255 255 255
0.120095 -0.317457 1.826 255 255 255
-0.093869 -0.381821 1.62 255 255 255
-0.870688 -0.805002 2.143 255 255 255
-0.261082 0.04221 1.831 0 0 0
-0.423631 -0.75796 2.158 255 255 255
-0.763198 -0.0161337 2.051 255 255 255
0.192126 0.462739 1.366 255 255 255
0.417679 -0.221429 1.09 255 255 255
0.252141 0.413628 1.403 255 255 255
-0.131838 0.497964 1.359 255 255 255
0.444829 -0.113906 1.132 255 255 255
-0.650865 0.302089 1.655 255 255 255
0.235076 -0.445701 1.498 255 255 255
-0.748775 0.0104593 2.03 255 255 255
0.381223 -0.381839 1.039 255 255 255
-0.202089 0.152845 1.734 255 255 255
-0.285087 -0.314133 2.173 255 255 255
0.268307 -0.416695 1.416 255 255 255
0.209675 0.000516707 1.911 255 255 255
0.138191 0.248248 1.62 255 255 255
0.128245 0.409973 1.422 255 255 255
-0.280982 0.331058 1.575 255 255 255
-0.591042 0.354118 1.294 255 255 255
-0.699217 0.167355 1.831 255 255 255
0.500539 0.0126529 1.085 255 255 255
-0.173869 0.364807 1.513 255 255 255
-0.635722 0.146977 1.837 255 255 255
0.18232 0.486238 1.327 255 255 255
-0.630608 0.261063 1.324 255 255 255
-0.949916 -0.391251 2.338 255 255 255
0.42208 0.425882 1.369 255 255 255
0.295682 0.231856 1.616 255 255 255
0.306137 -0.207912 1.524 255 255 255
-0.634966 0.128316 1.87 0 0 0
-0.557421 0.419696 1.498 255 255 255
-0.695903 0.100842 1.372 255 255 255
-0.206725 -0.178631 1.966 255 255 255
0.412254 -0.115479 1.227 255 255 255
-0.886979 -0.7509 2.099 255 255 255
-0.452625 0.0255548 1.923 255 255 255
-0.442322 0.404201 1.513 255 255 255
0.475952 0.34229 1.459 255 255 255
0.351223 0.208866 1.642 255 255 255
-0.285706 0.328416 1.587 255 255 255
-0.566946 0.135997 1.083 255 255 255
-0.692041 -0.374636 2.196 255 255 255
-0.157329 -0.42265 1.595 255 255 255
-0.551649 0.0289526 1.941 0 0 0
0.438417 -0.277138 0.947 255 255 255
-0.0431978 -0.512181 1.599 255 255 255
-0.851392 -0.0581031 2.121 255 255 255
-0.199695 -0.275721 1.929 255 255 255
0.407131 -0.0965632 1.267 255 255 255
-0.359336 0.36575 1.559 255 255 255
-0.176718 0.250918 1.655 255 255 255
0.157779 -0.386431 1.815 255 255 255
-0.355197 -0.145262 1.991 255 255 255
-0.0439675 -0.546636 1.535 255 255 255
-0.515784 0.224107 1.004 255 255 255
-0.885378 -0.730108 2.128 255 255 255
-0.171065 -0.513158 1.532 255 255 255
-0.396684 0.297343 1.629 255 255 255
0.586769 0.451248 1.237 255 255 255
-0.81477 -0.412936 2.269 255 255 255
0.457356 -0.238572 0.923 255 255 255
-0.649598 0.309832 1.378 255 255 255
-0.866984 -0.261533 1.677 255 255 255
0.0634816 0.382566 1.477 255 255 255
0.44647 -0.275196 0.91 255 255 255
-0.285087 -0.317669 2.173 255 255 255
0.589206 0.464206 1.213 255 255 255
0.472757 0.0588066 1.239 255 255 255
0.290325 0.475441 1.327 255 255 255
0.582927 0.313554 1.139 255 255 255
0.195399 0.178035 1.705 255 255 255
-0.0852251 -0.0945203 1.769 255 255 255
0.139777 0.104407 1.774 255 255 255
-0.699845 -0.238724 2.071 255 255 255
-1.06585 -0.315816 2.261 255 255 255
-0.687737 0.0423799 1.978 255 255 255
0.358481 -0.103075 1.445 255 255 255
0.0971648 0.192513 1.686 255 255 255
-0.4586 0.00367208 1.935 255 255 255
-0.972337 -0.302082 1.917 255 255 255
-0.332886 0.144796 1.739 255 255 255
-0.528485 0.278815 1.677 255 255 255
-0.772876 -0.130155 2.114 255 255 255
0.501232 0.112555 1.169 255 255 255
-0.629418 0.0322105 1.947 255 255 255
0.237653 -0.345024 1.633 255 255 255
0.110108 0.491735 1.342 255 255 255
-0.735557 0.00715584 2.03 255 255 255
-0.0408963 0.49943 1.351 255 255 255
-0.629459 0.360809 1.393 255 255 255
0.462015 0.0999196 1.33 255 255 255
-0.209477 -0.0483387 1.876 255 255 255
-0.6187 0.306867 1.299 255 255 255
0.479318 -0.109621 1.039 255 255 255
-0.189644 0.31986 1.583 255 255 255
-0.0616259 0.120288 1.753 255 255 255
-0.140685 -0.442654 1.583 255 255 255
0.0162026 -0.22132 1.842 255 255 255
-0.523213 0.025794 1.941 255 255 255
-0.194178 -0.387241 1.714 255 255 255
-0.426881 0.406151 1.502 255 255 255
0.201521 -0.444106 1.579 255 255 255
0.126266 0.331919 1.509 255 255 255
-0.630863 0.327193 1.357 255 255 255
0.296872 -0.281112 1.466 255 255 255
0.445313 -0.0388283 1.203 255 255 255
-0.597305 0.113463 1.876 0 0 0
0.24623 -0.311238 1.637 255 255 255
0.179177 0.4593 1.369 0 0 0
0.512078 0.0498233 1.087 255 255 255
-0.75036 -0.0588411 1.456 255 255 255
-0.829544 -0.401859 2.269 255 255 255
-0.628205 0.130586 1.859 255 255 255
0.322683 -0.233336 1.422 255 255 255
0.331317 0.129144 1.719 255 255 255
0.561767 0.263034 1.145 255 255 255
-0.0215353 -0.553069 1.539 255 255 255
-0.136152 -0.480748 1.532 255 255 255
-0.206238 0.288994 1.612 255 255 255
0.131179 0.183046 1.7 255 255 255
-0.48046 -0.157894 1.947 255 255 255
-1.07321 -0.422519 2.261 255 255 255
0.176559 -0.112137 1.923 255 255 255
-0.53807 0.308851 1.096 255 255 255
-0.198611 0.035736 1.805 255 255 255
-0.813136 -0.220863 1.563 255 255 255
-0.923014 -0.721305 2.143 255 255 255
0.353704 -0.390571 1.112 255 255 255
-0.955682 -0.385136 1.837 255 255 255
0.451045 -0.149786 1.06 255 255 255
-0.126403 0.362878 1.505 255 255 255
0.442155 0.338383 1.473 255 255 255
0.253157 -0.141749 1.821 255 255 255
0.385101 0.38209 1.439 255 255 255
-0.632179 0.23608 1.305 255 255 255
-0.322855 0.446977 1.452 255 255 255
-0.324664 0.368572 1.539 255 255 255
-0.117695 -0.121338 1.826 255 255 255
0.42258 0.372724 1.439 255 255 255
-0.57978 0.472143 1.336 255 255 255
0.317803 -0.134539 1.595 255 255 255
-0.47017 -0.643473 2.356 255 255 255
-0.655861 -0.281997 2.092 255 255 255
0.383785 0.0658727 1.547 255 255 255
-0.570657 0.333875 1.178 255 255 255
0.44484 -0.153601 1.087 255 255 255
0.253082 0.462579 1.359 255 255 255
0.412352 -0.186898 1.139 255 255 255
0.294645 -0.396983 1.327 255 255 255
-0.68952 0.145242 1.853 255 255 255
0.43152 -0.271953 0.984 255 255 255
0.476841 -0.00344982 1.156 255 255 255
0.106349 -0.215807 1.899 255 255 255
-0.727374 -0.210505 2.092 255 255 255
-0.233251 -0.0945258 1.947 255 255 255
0.32744 0.415214 1.393 255 255 255
0.460269 -0.247994 0.908 255 255 255
-0.570556 0.403598 1.52 255 255 255
0.0411019 0.478168 1.372 255 255 255
-0.287497 -0.0148436 1.887 255 255 255
-0.572052 0.417258 1.498 255 255 255
0.548052 0.298387 1.205 255 255 255
-0.574756 0.36121 1.232 255 255 255
0.515492 0.336739 1.351 255 255 255
0.450639 -0.0936293 1.11 255 255 255
0.325154 -0.0670449 1.659 255 255 255
-1.01403 -0.457872 2.236 255 255 255
-0.402494 0.197994 1.734 255 255 255
0.471421 -0.205573 0.93 255 255 255
0.169021 -0.478358 1.691 255 255 255
-1.08536 -0.416188 2.189 255 255 255
-0.867411 -0.135359 2.037 255 255 255
-0.538274 0.274171 1.682 255 255 255
-0.707864 0.016957 2.017 255 255 255
0.167198 0.240339 1.62 255 255 255
0.216205 -0.524907 1.422 255 255 255
0.0563297 0.0390979 1.696 255 255 255
-0.505341 0.415987 1.087 255 255 255
-0.325343 0.163659 1.729 255 255 255
0.479551 0.00785089 1.158 255 255 255
0.0176318 0.390844 1.463 255 255 255
0.455261 0.0964534 1.342 255 255 255
-0.711161 0.273694 1.696 255 255 255
-0.849385 0.0879488 1.853 255 255 255
-0.743031 0.138161 1.539 255 255 255
0.16054 -0.042368 1.882 255 255 255
0.0489209 -0.00487332 1.633 255 255 255
0.433468 -0.125453 1.171 255 255 255
0.449255 -0.288623 0.892 255 255 255
-0.201489 0.292341 1.616 255 255 255
0.192521 -0.320289 1.729 255 255 255
-0.22823 0.385568 1.498 255 255 255
0.384306 0.288429 1.539 255 255 255
0.45257 -0.172699 1.032 255 255 255
-1.0454 -0.701772 2.158 255 255 255
0.498967 -0.0377899 1.017 255 255 255
0.538272 0.39346 1.342 255 255 255
-0.469701 -0.331868 2.128 255 255 255
-1.06398 -0.255888 2.189 255 255 255
0.414891 0.0899361 1.487 255 255 255
0.429725 -0.0106273 1.351 255 255 255
0.0764616 0.0641714 1.779 255 255 255
0.199455 -0.455535 1.583 255 255 255
0.0212314 0.45631 1.387 255 255 255
-0.0199328 -0.516345 1.612 255 255 255
-0.598126 0.094255 1.132 255 255 255
-0.586089 0.314872 1.239 255 255 255
0.180089 -0.581442 1.528 255 255 255
-0.605847 -0.517065 2.392 255 255 255
0.0981464 -0.328493 1.805 255 255 255
-0.790455 -0.815464 2.143 255 255 255
-0.420008 -0.152342 1.917 255 255 255
0.382175 -0.170969 1.316 255 255 255
0.455373 -0.258274 0.913 255 255 255
-0.0705869 0.0894151 1.763 0 0 0
-0.104904 0.507149 1.354 255 255 255
-0.773747 -0.129724 2.107 255 255 255
-0.15274 0.0295139 1.784 255 255 255
0.349436 -0.255033 1.33 255 255 255
0.522334 0.29373 1.297 255 255 255
-0.0964153 -0.237649 1.763 255 255 255
0.412527 -0.157408 1.182 255 255 255
0.426161 -0.33063 0.937 255 255 255
-0.683081 -0.702152 2.261 255 255 255
-0.0783429 0.065747 1.744 0 0 0
0.450826 0.239615 1.47 255 255 255
-0.667242 -0.0699769 2.064 255 255 255
-0.0819009 0.00322611 1.7 255 255 255
-0.733225 -0.0575004 2.099 255 255 255
0.129884 0.432415 1.39 255 255 255
0.454939 -0.115002 1.09 255 255 255
-0.0731769 -0.402499 1.629 255 255 255
-0.591617 -0.309796 2.143 255 255 255
-0.510099 -0.753664 2.261 255 255 255
0.214309 -0.133391 1.87 255 255 255
-0.220507 -0.250568 2.004 255 255 255
-0.297332 0.432202 1.466 255 255 255
0.237653 0.223665 1.633 255 255 255
0.313169 -0.3492 1.351 255 255 255
0.136583 -0.0536318 1.848 255 255 255
0.39467 -0.371319 0.98 255 255 255
0.516427 0.443689 1.342 255 255 255
-0.460815 0.300944 0.897 255 255 255
-0.445305 0.323143 0.848 255 255 255
-0.417809 0.170266 1.739 255 255 255
0.500318 -0.016707 1.044 255 255 255
0.483122 -0.123495 0.975 255 255 255
-0.0982151 0.167917 1.744 255 255 255
-0.177479 -0.0580183 1.893 255 255 255
-0.180387 0.244159 1.664 255 255 255
0.171218 0.345638 1.494 255 255 255
-0.623716 -0.841152 2.22 255 255 255
-0.191561 0.30748 1.599 255 255 255
-0.75914 -0.720317 2.204 255 255 255
0.215593 0.39182 1.449 255 255 255
0.252322 0.0713772 1.815 255 255 255
0.354321 0.453065 1.357 255 255 255
0.346076 -0.282796 1.27 255 255 255
-0.593323 -0.768044 2.228 255 255 255
-0.0774345 0.481451 1.375 255 255 255
-0.470412 -0.835632 2.196 255 255 255
-0.937385 -0.46502 2.253 255 255 255
-0.0471927 0.330232 1.559 255 255 255
-0.658237 -0.236149 2.078 255 255 255
0.478808 0.0971155 1.239 255 255 255
0.270069 0.371798 1.463 255 255 255
-0.449138 0.459886 1.463 255 255 255
-0.167686 -0.325982 1.7 255 255 255
0.507603 0.0409034 1.085 255 255 255
0.365773 -0.0506519 1.494 255 255 255
-0.138581 0.25016 1.65 255 255 255
-0.226603 0.0588736 1.794 255 255 255
0.459253 0.204022 1.422 255 255 255
0.168649 0.0339798 1.87 255 255 255
-0.49759 0.38811 1.547 255 255 255
-1.08656 -0.492491 2.228 255 255 255
0.473933 0.170957 1.327 255 255 255
-0.100199 -0.336217 1.682 255 255 255
-0.983517 -0.159732 2.01 255 255 255
0.379229 -0.39156 1.029 255 255 255
0.540283 0.20605 1.139 255 255 255
0.191538 0.253468 1.603 255 255 255
0.44345 -0.279991 0.916 255 255 255
0.0284565 -0.202186 1.859 255 255 255
0.395351 0.125966 1.543 255 255 255
-0.0472829 0.508155 1.345 255 255 255
-0.48371 0.264893 0.924 255 255 255
-0.378393 0.494681 1.387 255 255 255
-0.145806 0.512533 1.345 255 255 255
-0.382149 -0.769643 2.085 255 255 255
0.326918 0.00859416 1.668 255 255 255
-0.370241 -0.359969 2.261 255 255 255
0.284324 -0.146564 1.673 255 255 255
-0.321491 0.468812 1.425 255 255 255
0.348338 -0.345119 1.22 255 255 255
-0.306867 -0.586731 1.972 255 255 255
0.12273 -0.292881 1.821 255 255 255
0.367341 -0.26486 1.244 255 255 255
-0.817654 -0.0367625 1.633 255 255 255
-0.0017219 -0.296869 1.774 255 255 255
-1.07182 -0.5413 2.22 255 255 255
0.142841 0.446314 1.384 255 255 255
0.0618484 0.4219 1.439 255 255 255
0.234231 0.0337799 1.859 255 255 255
-0.331763 0.128478 1.748 255 255 255
-1.06953 -0.5329 2.261 255 255 255
0.561767 0.270487 1.145 255 255 255
0.1894 -0.462441 1.607 255 255 255
0.449604 -0.250803 0.935 255 255 255
0.329758 -0.00224574 1.655 255 255 255
0.179612 -0.476402 1.637 255 255 255
-1.04974 -0.548159 2.204 255 255 255
0.0154637 -0.131123 1.758 255 255 255
-0.952522 -0.750151 2.078 255 255 255
0.490665 0.0740615 1.162 255 255 255
-1.01354 -0.719719 2.128 255 255 255
-0.243081 -0.203636 2.057 255 255 255
0.301908 -0.468136 1.225 255 255 255
0.271951 0.03358 1.848 255 255 255
0.125006 -0.629631 1.62 255 255 255
0.256145 -0.300971 1.583 255 255 255
0.411927 -0.290523 1.027 255 255 255
0.566444 0.364134 1.215 255 255 255
-0.467091 -0.67397 2.303 0 0 0
0.0205426 0.50047 1.342 255 255 255
0.289108 0.295942 1.539 255 255 255
0.203311 0.0517635 1.853 255 255 255
0.429897 -0.232706 1.03 255 255 255
0.441709 -0.129894 1.143 255 255 255
0.159026 -0.574346 1.591 255 255 255
0.356 -0.163077 1.435 255 255 255
-0.683729 0.0135865 2.004 255 255 255
-0.297118 0.331899 1.579 255 255 255
-0.382996 0.274326 1.65 255 255 255
0.589243 0.439574 1.205 255 255 255
0.203454 -0.0772289 1.911 255 255 255
-0.379414 0.407507 1.498 255 255 255
-0.864823 -0.50708 2.294 255 255 255
-0.591785 0.379406 1.563 255 255 255
0.555154 0.323275 1.225 255 255 255
0.451068 -0.284118 0.887 255 255 255
0.223925 -0.494317 1.505 255 255 255
0.414742 -0.306202 0.986 255 255 255
0.38683 -0.172322 1.31 255 255 255
0.263822 0.327008 1.509 255 255 255
0.200468 0.396967 1.442 255 255 255
0.0271472 0.274337 1.603 255 255 255
-0.671723 -0.204378 2.099 255 255 255
-0.542169 0.421418 1.187 255 255 255
-0.405028 -0.230194 1.997 255 255 255
0.472321 -0.0376329 1.11 255 255 255
0.450507 0.110493 1.381 255 255 255
-0.776018 -0.395359 2.253 255 255 255
0.531294 0.441886 1.33 255 255 255
-0.880615 -0.0947568 2.092 255 255 255
0.32286 -0.19949 1.498 255 255 255
0.518344 0.0671142 1.053 255 255 255
-0.577527 0.426527 1.316 255 255 255
0.386396 -0.269356 1.167 255 255 255
0.307198 0.482208 1.316 255 255 255
-0.560898 -0.646969 2.383 255 255 255
-0.045558 0.35798 1.505 255 255 255
0.066332 0.365798 1.487 255 255 255
0.491759 0.272988 1.396 255 255 255
-0.696209 -0.412038 2.244 255 255 255
-0.340193 -0.768499 2.037 0 0 0
-0.466758 0.360164 1.579 255 255 255
0.58524 0.331231 1.162 255 255 255
-0.118372 -0.341561 1.668 255 255 255
-0.731668 0.274823 1.686 255 255 255
-0.625113 0.394161 1.551 255 255 255
-0.884748 -0.485008 2.278 255 255 255
0.498967 -0.0311699 1.017 255 255 255
0.44597 0.281495 1.502 255 255 255
-0.724965 0.210818 1.616 255 255 255
0.281045 -0.161421 1.686 255 255 255
0.466133 0.295236 1.473 255 255 255
-0.683614 0.328144 1.624 255 255 255
0.407682 -0.263273 1.087 255 255 255
0.178623 0.478578 1.348 255 255 255
0.341737 -0.368563 1.232 255 255 255
-0.441147 0.143109 1.753 255 255 255
-0.649303 0.0533113 1.252 255 255 255
0.557099 0.244443 1.128 255 255 255
0.424571 -0.326364 0.892 255 255 255
-1.06338 -0.242625 2.166 255 255 255
-0.0548833 -0.404476 1.637 255 255 255
-0.206356 0.477845 1.384 255 255 255
-0.453408 -0.365993 2.166 255 255 255
0.244082 -0.119404 1.842 255 255 255
-0.206725 -0.245817 1.966 0 0 0
0.322939 -0.264465 1.403 255 255 255
0.380954 -0.0091026 1.459 255 255 255
0.202052 -0.371038 1.691 255 255 255
0.0210936 0.469047 1.378 255 255 255
0.0111182 -0.597766 1.551 255 255 255
-0.0452917 -0.263705 1.784 255 255 255
-0.197105 0.425045 1.466 255 255 255
0.0539739 0.376118 1.48 255 255 255
0.189989 0.244398 1.612 255 255 255
0.35486 0.0976391 1.659 255 255 255
-0.561175 -0.697822 2.32 255 255 255
0.230929 -0.488405 1.487 255 255 255
0.351767 -0.363666 1.147 255 255 255
0.263462 0.239152 1.612 255 255 255
-0.316899 0.152405 1.729 255 255 255
0.239528 0.475324 1.345 255 255 255
-0.434793 0.192905 1.739 255 255 255
0.0140299 0.291137 1.595 255 255 255
-0.683071 -0.0261466 2.051 255 255 255
-0.574077 -0.842779 2.196 255 255 255
-0.56703 -0.128287 2.03 255 255 255
-0.60281 -0.532943 2.411 255 255 255
0.346989 -0.146509 1.456 255 255 255
0.485537 -0.0227019 1.087 255 255 255
-0.422276 -0.481937 2.411 255 255 255
0.46884 0.382896 1.416 255 255 255
0.292757 -0.166567 1.629 255 255 255
0.374598 0.110887 1.616 255 255 255
-0.595007 -0.108145 2.024 255 255 255
0.313954 -0.233134 1.435 255 255 255
-0.524036 0.470372 1.466 255 255 255
-0.321949 0.492424 1.387 255 255 255
-0.460318 0.013078 1.929 255 255 255
0.14186 0.160846 1.729 255 255 255
-0.077854 -0.441363 1.616 255 255 255
0.0388976 0.216428 1.659 255 255 255
0.262926 -0.110466 1.748 255 255 255
0.408678 0.161898 1.575 255 255 255
0.148615 -0.31226 1.848 255 255 255
-0.486086 0.364378 1.575 255 255 255
-0.289082 0.125634 1.748 255 255 255
-0.263747 0.368968 1.52 255 255 255
0.289529 0.301287 1.528 255 255 255
0.0982091 0.307209 1.571 255 255 255
0.459587 -0.132741 1.048 255 255 255
-0.134166 0.265532 1.629 255 255 255
-0.7125 -0.72749 2.204 255 255 255
0.211935 0.410811 1.409 255 255 255
0.12608 -0.1617 1.917 255 255 255
0.366235 0.478177 1.305 255 255 255
-0.00968845 -0.441242 1.655 255 255 255
0.112097 0.235647 1.624 255 255 255
0.495087 -0.0989134 0.983 255 255 255
0.380476 0.0850063 1.575 255 255 255
-0.698828 -0.219241 2.078 0 0 0
-0.0515487 -0.47555 1.616 255 255 255
-0.38914 -0.0602557 1.966 255 255 255
0.541818 0.276681 1.213 255 255 255
0.528814 0.243638 1.267 255 255 255
-0.375221 0.479598 1.409 255 255 255
0.0686035 -0.0103504 1.659 255 255 255
0.211071 0.226323 1.633 255 255 255
0.474943 0.0623319 1.229 255 255 255
0.430854 0.196859 1.509 255 255 255
-0.243305 0.449199 1.429 255 255 255
-0.841974 -0.606511 2.303 255 255 255
-0.270552 0.00356011 1.876 255 255 255
0.119133 0.394994 1.452 255 255 255
0.141759 0.382103 1.466 255 255 255
-0.542527 0.310598 1.629 255 255 255
-0.77043 0.0823941 1.935 255 255 255
-0.0627157 -0.217254 1.784 255 255 255
-0.645328 0.396121 1.539 255 255 255
-0.0373147 -0.361709 1.686 255 255 255
-0.209178 -0.219438 1.959 255 255 255
-0.0428736 0.307755 1.587 255 255 255
-0.60093 0.432293 1.491 255 255 255
0.532668 0.180729 1.167 255 255 255
-0.628099 0.328144 1.624 255 255 255
0.22055 0.0686498 1.821 255 255 255
-0.0925373 -0.280497 1.744 255 255 255
-0.750705 0.157966 1.587 255 255 255
0.30477 0.311446 1.505 255 255 255
-0.329176 -0.186354 2.051 255 255 255
-0.982282 -0.573956 2.166 255 255 255
0.57066 0.392871 1.237 0 0 0
0.41283 -0.0497548 1.339 255 255 255
0.545927 0.362206 1.308 255 255 255
0.0164595 -0.541749 1.579 255 255 255
-0.783921 0.147858 1.848 255 255 255
-0.257396 0.0480378 1.826 255 255 255
-0.234943 0.515962 1.354 255 255 255
0.516542 0.436899 1.348 255 255 255
-0.174038 0.0180016 1.794 255 255 255
0.461536 0.036066 1.22 255 255 255
-0.0392623 -0.273774 1.774 255 255 255
-0.845167 -0.761472 2.158 255 255 255
0.448161 -0.259099 0.932 255 255 255
0.213165 0.0962865 1.784 255 255 255
-1.052 -0.744664 1.991 255 255 255
0.180384 -0.482 1.62 255 255 255
0.333009 -0.408178 1.173 255 255 255
-0.673961 -0.234558 2.064 255 255 255
-0.927761 -0.655758 2.204 255 255 255
0.0279374 0.350632 1.505 255 255 255
0.295908 0.120631 1.758 255 255 255
-0.833356 -0.734939 2.173 255 255 255
-0.130081 -0.552804 1.491 255 255 255
-0.094998 0.454725 1.403 255 255 255
-0.473494 -0.312484 2.114 255 255 255
-0.535997 0.368566 1.571 255 255 255
0.530887 0.380709 1.351 255 255 255
-0.242399 0.324065 1.591 255 255 255
-0.0185114 -0.125782 1.724 255 255 255
0.104967 0.157575 1.724 0 0 0
-1.03486 -0.227682 2.158 255 255 255
0.216634 -0.494809 1.456 255 255 255
-0.720466 0.0769104 1.425 0 0 0
0.191782 0.217939 1.65 255 255 255
-0.181227 -0.500618 1.555 255 255 255
-0.0339346 0.0596985 1.655 255 255 255
-0.52957 0.420817 1.502 255 255 255
0.414058 -0.2099 1.104 255 255 255
-0.612875 -0.830314 2.22 255 255 255
-0.589531 0.214427 1.753 255 255 255
0.554912 0.235054 1.154 255 255 255
0.00551311 0.438326 1.409 255 255 255
-0.465692 0.311518 1.62 255 255 255
0.290543 -0.418201 1.299 255 255 255
0.565377 0.269542 1.141 255 255 255
0.464788 -0.210394 0.938 255 255 255
-1.0761 -0.357262 2.244 255 255 255
0.242165 -0.26763 1.664 255 255 255
0.101026 -0.0394639 1.753 255 255 255
0.0832444 0.186582 1.682 255 255 255
-0.317816 0.352327 1.567 255 255 255
0.0661464 0.320987 1.539 255 255 255
0.124174 0.367475 1.484 255 255 255
-0.988433 -0.463162 2.244 255 255 255
-0.905165 -0.0197277 2.078 255 255 255
0.136713 -0.197856 1.935 255 255 255
0.351365 -0.271476 1.305 255 255 255
0.0409462 0.0243584 1.633 255 255 255
0.337353 0.429912 1.1 255 255 255
-0.584244 0.422134 1.498 255 255 255
0.304589 0.199143 1.65 255 255 255
0.410393 -0.327107 0.991 255 255 255
-0.656138 0.172072 1.319 255 255 255
0.479782 0.430354 1.362 255 255 255
0.260539 0.447887 1.375 255 255 255
-0.599635 0.369627 1.327 255 255 255
0.453161 -0.0618736 1.158 255 255 255
-0.677475 0.342127 1.567 255 255 255
0.29343 0.384746 1.449 255 255 255
0.22799 -0.49718 1.409 255 255 255
0.187062 0.483009 1.33 255 255 255
-0.805697 -0.0436912 2.092 255 255 255
0.407848 -0.344559 0.981 255 255 255
-0.521599 0.381541 1.551 255 255 255
0.0692567 0.508886 1.313 255 255 255
0.345117 -0.062357 1.543 255 255 255
-0.302712 -0.170221 2.099 255 255 255
-0.989192 -0.578859 2.158 255 255 255
-0.110136 0.00332669 1.753 255 255 255
0.281526 0.0851485 1.794 255 255 255
-0.073229 -0.536347 1.52 255 255 255
0.345262 -0.250222 1.339 255 255 255
-0.244832 0.42743 1.466 255 255 255
0.330555 0.19483 1.659 255 255 255
-0.195943 -0.0933606 1.923 255 255 255
0.349881 -0.283314 1.254 255 255 255
0.566319 0.359039 1.198 0 0 0
-0.0690999 -0.148819 1.799 255 255 255
-0.84627 -0.71433 2.143 255 255 255
0.263463 0.370174 1.466 255 255 255
0.522041 0.156843 1.173 255 255 255
0.395004 -0.273274 1.106 255 255 255
-0.136262 0.500175 1.359 255 255 255
0.0984525 -0.0681849 1.758 255 255 255
0.313915 -0.453991 1.173 255 255 255
0.524298 0.0612672 1.041 255 255 255
0.364977 0.219249 1.62 255 255 255
-0.0280981 -0.476725 1.629 255 255 255
-0.249866 -0.0948171 1.953 0 0 0
-0.963638 -0.289921 2.204 255 255 255
-0.83686 -0.595886 2.32 255 255 255
-0.392026 0.398222 1.509 255 255 255
-0.508449 0.14896 1.789 0 0 0
-0.630554 0.247653 1.333 255 255 255
0.447221 0.305122 1.498 255 255 255
-0.0531888 -0.575734 1.513 255 255 255
-0.554915 -0.605893 2.374 255 255 255
0.515464 0.133646 1.154 255 255 255
0.37468 -0.208439 1.283 255 255 255
-1.08586 -0.623469 2.107 255 255 255
0.576972 0.41233 1.229 255 255 255
-0.634816 -0.709916 2.286 255 255 255
0.272005 0.0878224 1.789 255 255 255
-0.672284 0.220132 1.753 255 255 255
-0.948481 -0.064332 2.099 255 255 255
0.054502 0.475935 1.372 255 255 255
-0.070673 0.439128 1.419 255 255 255
0.0139244 -0.532817 1.583 255 255 255
0.178541 -0.455295 1.677 255 255 255
-0.380135 0.156924 1.748 255 255 255
-0.721408 0.159368 1.842 255 255 255
-0.161633 0.383766 1.491 255 255 255
-1.07043 -0.626828 2.166 255 255 255
-0.193597 0.289711 1.616 255 255 255
-0.496949 -0.586576 2.374 255 255 255
0.537387 0.207672 1.169 255 255 255
0.0455686 0.473702 1.372 255 255 255
-0.17341 0.37121 1.509 255 255 255
-0.910523 -0.0544712 2.114 255 255 255
-0.448981 0.523965 1.375 255 255 255
0.048801 -0.503234 1.629 255 255 255
0.395414 0.308997 1.505 255 255 255
-0.4895 0.445059 1.477 255 255 255
-0.620205 -0.150588 2.064 255 255 255
0.0161374 0.50153 1.339 255 255 255
0.442749 -0.252299 0.97 255 255 255
0.472303 -0.0295031 1.145 255 255 255
-0.431353 0.151235 1.748 255 255 255
0.330083 -0.138757 1.555 255 255 255
0.363291 -0.26486 1.244 255 255 255
-0.982167 -0.65963 2.158 255 255 255
0.0549271 -0.112727 1.739 255 255 255
-1.08173 -0.645012 2.099 255 255 255
-0.486861 -0.375176 2.158 255 255 255
-0.400657 -0.175269 1.929 255 255 255
-0.649249 0.370442 1.579 255 255 255
-0.0284603 -0.00492405 1.65 255 255 255
-0.471701 -0.767163 2.236 0 0 0
-0.288126 0.414653 1.48 255 255 255
0.494384 0.000293909 1.087 255 255 255
0.389603 -0.294872 1.106 255 255 255
0.517304 0.332252 1.333 255 255 255
0.523305 0.45656 1.31 255 255 255
0.00106462 0.058436 1.62 255 255 255
-0.956939 -0.105525 2.037 255 255 255
0.165003 0.424135 1.4 255 255 255
0.408775 -0.361047 0.957 255 255 255
0.302453 0.153872 1.714 255 255 255
0.515202 0.205624 1.249 255 255 255
0.307808 0.302183 1.52 255 255 255
0.0654607 -0.574034 1.583 255 255 255
-1.03256 -0.764104 1.991 255 255 255
-0.55728 0.378435 1.559 255 255 255
0.0145936 0.440083 1.4 255 255 255
-0.473629 0.386589 1.551 255 255 255
0.181867 0.410838 1.425 255 255 255
0.402301 -0.0929164 1.333 255 255 255
0.0515829 0.489522 1.354 255 255 255
-0.552811 -0.649779 2.365 255 255 255
0.466535 0.380592 1.416 255 255 255
0.0783526 -0.489722 1.637 255 255 255
-0.120998 -0.100813 1.831 0 0 0
0.416625 -0.168995 1.156 255 255 255
-0.475788 0.167917 1.744 255 255 255
0.558721 0.267905 1.158 255 255 255
0.326692 -0.149645 1.563 255 255 255
0.558824 0.256095 1.139 255 255 255
-0.480694 -0.766256 2.244 255 255 255
0.1808 0.369545 1.473 255 255 255
0.280063 0.0274759 1.842 255 255 255
-1.079 -0.692044 2.107 255 255 255
0.204199 0.18977 1.686 255 255 255
-0.463986 -0.369518 2.166 255 255 255
0.531365 0.247313 1.244 255 255 255
0.283105 0.503627 1.294 255 255 255
-0.00418868 -0.511099 1.612 255 255 255
0.466974 -0.1098 1.057 255 255 255
-0.626459 0.425869 1.494 255 255 255
-0.949592 -0.752612 2.057 255 255 255
-0.678867 0.129139 1.882 255 255 255
-0.139618 -0.452082 1.571 255 255 255
0.104023 -0.48426 1.664 255 255 255
0.46769 -0.0371822 1.152 255 255 255
0.064231 0.156845 1.686 255 255 255
-0.739302 0.198177 1.642 255 255 255
0.0189334 -0.544117 1.571 255 255 255
0.0727522 0.38793 1.47 255 255 255
-0.524281 0.431133 1.487 255 255 255
-0.469437 -0.688896 2.278 255 255 255
0.298605 -0.0500331 1.724 255 255 255
-0.744789 -0.716731 2.204 255 255 255
0.13437 -0.359497 1.859 255 255 255
-0.197199 -0.480547 1.624 255 255 255
-0.5479 0.46083 1.466 255 255 255
0.289344 0.154321 1.719 255 255 255
-0.377039 0.0640319 1.859 255 255 255
0.406538 0.00970853 1.432 255 255 255
-0.455157 0.514995 1.387 255 255 255
-0.140716 0.479057 1.381 255 255 255
0.0509106 0.438825 1.396 255 255 255
0.487851 0.343708 1.445 255 255 255
-0.577079 -0.022075 1.985 255 255 255
0.342489 -0.349322 1.242 255 255 255
0.210072 -0.395985 1.646 255 255 255
-0.108344 0.520125 1.342 255 255 255
-0.549729 0.160709 1.06 255 255 255
0.318018 -0.0774215 1.65 255 255 255
-0.794325 -0.102294 2.107 0 0 0
0.105576 0.152845 1.734 255 255 255
0.241036 0.394214 1.432 255 255 255
0.497395 0.381815 1.412 255 255 255
-0.221938 -0.363792 2.017 255 255 255
0.226189 0.00975344 1.893 255 255 255
-0.89972 -0.616019 2.269 255 255 255
0.578503 0.447246 1.254 255 255 255
-0.119646 -0.406168 1.612 255 255 255
-0.299172 0.372419 1.524 255 255 255
0.340768 0.325534 1.491 255 255 255
-0.804993 -0.0195948 2.064 255 255 255
-0.562801 0.480953 1.273 255 255 255
-0.748208 -0.566267 2.338 255 255 255
-0.243908 -0.241276 2.064 255 255 255
-0.505139 0.430694 1.102 255 255 255
0.536173 0.138492 1.075 255 255 255
0.0828654 0.312322 1.571 255 255 255
-0.796301 0.0946951 1.929 255 255 255
-0.142106 -0.42371 1.599 255 255 255
0.561471 0.423769 1.257 255 255 255
0.0766484 0.502488 1.33 255 255 255
-0.297013 0.384504 1.513 255 255 255
0.0787407 0.277462 1.591 255 255 255
0.317517 -0.00508818 1.705 255 255 255
0.361034 -0.319824 1.171 255 255 255
-0.534494 0.412955 1.509 255 255 255
-0.113493 0.475774 1.378 255 255 255
0.505738 0.0634074 1.108 255 255 255
-0.39549 0.131699 1.753 255 255 255
0.151376 0.242975 1.62 255 255 255
-0.470365 0.291316 1.655 255 255 255
0.228813 0.415022 1.4 255 255 255
0.18074 -0.553758 1.555 255 255 255
-0.341378 0.139137 1.739 255 255 255
0.0228287 0.493933 1.348 255 255 255
0.45195 -0.128587 1.1 255 255 255
0.263612 -0.465842 1.345 255 255 255
-0.715318 0.228165 1.555 255 255 255
0.490477 -0.0876976 1.02 255 255 255
0.0815995 0.320138 1.547 255 255 255
0.0619457 0.346564 1.498 255 255 255
0.436806 0.451414 1.339 255 255 255
0.345329 -0.142062 1.459 255 255 255
-0.753747 -0.113702 2.128 0 0 0
-0.672009 -0.820691 2.166 255 255 255
0.394956 0.0344412 1.494 255 255 255
-0.918122 -0.355261 2.278 0 0 0
0.0209024 0.338585 1.528 255 255 255
-0.573394 0.470606 1.452 255 255 255
0.47221 -0.0359557 1.114 255 255 255
-1.08989 -0.436533 2.22 255 255 255
0.0503888 -0.426543 1.682 255 255 255
0.14605 0.303101 1.563 255 255 255
0.0809466 0.480522 1.366 255 255 255
-0.0648615 0.271974 1.62 255 255 255
-0.368129 0.462761 1.435 255 255 255
-0.421037 0.439059 1.473 255 255 255
0.494745 -0.038756 1.043 255 255 255
0.462864 -0.221026 0.925 255 255 255
0.186524 -0.39791 1.7 255 255 255
-0.815736 0.116306 1.923 255 255 255
0.204801 0.170607 1.714 255 255 255
0.40778 -0.195677 1.147 255 255 255
0.24657 0.451375 1.372 255 255 255
0.273097 -0.376337 1.429 255 255 255
0.184209 -0.0366856 1.905 255 255 255
0.29162 0.187744 1.668 255 255 255
0.396682 -0.101822 1.336 255 255 255
-0.380038 0.388757 1.52 255 255 255
-0.355023 0.237814 1.696 0 0 0
-0.123267 -0.452659 1.591 255 255 255
-0.51671 0.228507 1.009 255 255 255
0.334986 -0.295875 1.291 255 255 255
0.470855 -0.0477722 1.094 255 255 255
-0.7409 -0.431398 2.269 255 255 255
0.236241 -0.222749 1.805 255 255 255
0.475952 0.328044 1.459 255 255 255
-0.461749 -0.138028 1.935 255 255 255
0.294656 0.0182726 1.821 255 255 255
0.366948 0.252882 1.583 255 255 255
0.435623 -0.1578 1.104 255 255 255
0.197337 0.426968 1.387 255 255 255
-0.344536 0.0660471 1.831 255 255 255
0.157895 -0.0578344 1.887 255 255 255
0.197917 -0.226388 1.859 255 255 255
0.0735657 -0.1269 1.779 255 255 255
-0.735806 -0.618099 2.347 255 255 255
0.370192 -0.146365 1.409 255 255 255
-0.602248 0.469618 1.393 255 255 255
-0.405642 -0.209231 1.953 255 255 255
0.13437 -0.0751275 1.859 0 0 0
0.0834424 0.176051 1.686 255 255 255
-0.0883761 -0.441363 1.616 255 255 255
-0.989485 -0.664491 2.151 255 255 255
-0.607315 -0.761996 2.253 255 255 255
0.330028 0.463222 1.348 255 255 255
-0.132954 0.317284 1.583 255 255 255
0.341121 0.22795 1.607 255 255 255
-0.961912 -0.428685 2.294 255 255 255
0.0755029 -0.517757 1.633 255 255 255
0.380188 0.467903 1.324 255 255 255
-0.810461 -0.0465215 1.603 255 255 255
-0.493932 0.38244 1.03 0 0 0
-0.0751963 0.479213 1.375 255 255 255
0.525407 0.144034 1.147 255 255 255
-0.0891841 -0.287354 1.734 255 255 255
-0.811572 -0.734096 2.181 255 255 255
-0.222992 -0.0578344 1.887 255 255 255
0.275642 -0.306308 1.52 255 255 255
-0.0772472 0.326014 1.551 255 255 255
0.174511 -0.0813477 1.935 255 255 255
0.281729 0.21421 1.642 255 255 255
0.107481 -0.236223 1.865 255 255 255
-1.02215 -0.390663 2.312 255 255 255
0.452203 0.228325 1.459 255 255 255
0.455475 0.465409 1.299 255 255 255
-0.389039 0.343911 1.587 255 255 255
-0.411161 -0.466462 2.392 255 255 255
0.190465 -0.293557 1.789 255 255 255
0.422566 -0.0430575 1.27 255 255 255
0.553066 0.254713 1.158 255 255 255
0.181108 -0.0397857 1.905 255 255 255
-0.045305 -0.365237 1.677 255 255 255
0.19703 -0.291849 1.744 255 255 255
-0.945236 -0.0714347 2.107 255 255 255
0.129005 0.362645 1.484 255 255 255
0.500022 0.20571 1.262 255 255 255
0.359895 -0.384267 1.12 255 255 255
0.428307 -0.194973 1.081 255 255 255
-0.421992 0.408595 1.502 255 255 255
-0.414133 0.400677 1.509 255 255 255
-0.459946 0.347367 1.591 255 255 255
0.226157 0.321971 1.52 255 255 255
0.390681 -0.375336 0.978 255 255 255
0.398977 -0.187924 1.205 255 255 255
-0.476234 0.307947 1.629 255 255 255
-0.964924 -0.105367 1.972 255 255 255
0.510253 0.000269574 0.997 255 255 255
0.235433 -0.443656 1.516 255 255 255
0.0587421 -0.068136 1.686 255 255 255
-0.616871 0.176762 1.232 0 0 0
0.525849 0.139317 1.124 255 255 255
0.321514 -0.277249 1.387 255 255 255
-0.217507 -0.34751 2.037 255 255 255
0.0427516 0.0892481 1.705 255 255 255
-0.0600351 -0.515911 1.563 255 255 255
0.538736 0.3027 1.247 255 255 255
-0.747545 0.126814 1.893 255 255 255
0.155249 0.22898 1.633 255 255 255
0.365337 -0.383867 1.098 255 255 255
0.383136 -0.0842767 1.406 255 255 255
-0.947394 -0.43091 2.286 255 255 255
0.398956 -0.128102 1.294 255 255 255
0.374073 0.0334026 1.559 255 255 255
-0.539208 0.499169 1.406 255 255 255
0.485487 0.34301 1.452 255 255 255
0.225795 0.495057 1.316 255 255 255
0.445115 -0.209496 1.015 255 255 255
0.325155 -0.399067 1.215 255 255 255
-0.696714 0.141226 1.396 255 255 255
-0.422619 0.399277 1.513 255 255 255
-0.0261251 0.46208 1.384 255 255 255
-0.758392 -0.818508 2.151 255 255 255
0.204628 0.0429938 1.865 255 255 255
-1.06882 -0.673702 2.114 255 255 255
-0.265128 -0.204378 2.099 255 255 255
0.410113 0.10572 1.505 255 255 255
-0.549701 0.532915 1.375 255 255 255
-0.647005 0.392128 1.543 255 255 255
0.384582 -0.195565 1.254 255 255 255
-0.587137 0.294485 1.673 255 255 255
0.243562 -0.203875 1.794 255 255 255
0.125694 -0.0439581 1.821 255 255 255
0.512058 0.306105 1.342 0 0 0
0.372271 -0.347695 1.108 255 255 255
0.556836 0.267905 1.158 255 255 255
-0.476039 -0.409064 2.189 255 255 255
0.332163 0.068939 1.753 255 255 255
0.106476 0.500221 1.324 255 255 255
0.462014 -0.167451 0.991 255 255 255
-0.332593 0.506064 1.375 255 255 255
-0.769435 -0.305604 2.114 255 255 255
0.220731 0.439895 1.378 255 255 255
-0.142819 0.258845 1.637 255 255 255
-0.6054 0.00695138 1.972 255 255 255
-0.580119 0.459886 1.463 255 255 255
-0.58839 0.141843 1.848 255 255 255
-0.832981 -0.0848034 1.637 255 255 255
0.0327899 0.0268669 1.624 255 255 255
-0.28318 0.46222 1.419 255 255 255
-0.380275 0.429471 1.473 255 255 255
-0.637332 -0.199617 2.121 255 255 255
0.505277 -0.0160029 1 255 255 255
0.452091 -0.140604 1.096 255 255 255
-0.737384 -0.808007 2.151 255 255 255
0.404471 0.455899 1.333 255 255 255
0.406076 -0.206923 1.137 255 255 255
0.234448 -0.471254 1.494 255 255 255
0.126799 -0.0832066 1.837 0 0 0
0.349596 -0.190995 1.4 255 255 255
0.398937 -0.0721859 1.351 255 255 255
-0.475819 -0.160566 1.941 255 255 255
0.398467 -0.372303 0.966 255 255 255
-0.735312 -0.1028 1.409 255 255 255
-0.938053 -0.0579113 2.114 255 255 255
0.143456 -0.192153 1.941 0 0 0
0.0190863 -0.237876 1.831 255 255 255
-0.543646 0.100928 1.87 255 255 255
0.422155 -0.043227 1.275 255 255 255
-0.0659569 0.309555 1.583 255 255 255
-0.367763 0.451703 1.452 255 255 255
-0.509693 0.418614 1.108 255 255 255
0.350674 0.0133756 1.591 255 255 255
0.0950901 -0.488241 1.65 255 255 255
0.497312 -0.0593048 1.017 255 255 255
-0.297655 -0.0179714 1.893 255 255 255
0.18783 -0.467661 1.616 255 255 255
0.400704 -0.1478 1.247 255 255 255
-0.0893403 0.44237 1.422 255 255 255
-0.028857 0.109353 1.673 0 0 0
0.499569 0.0490532 1.152 255 255 255
0.300404 -0.470897 1.227 255 255 255
-0.295105 -0.21215 2.143 255 255 255
-0.83601 0.0858082 1.941 255 255 255
-0.581691 0.291762 1.673 255 255 255
0.00931927 -0.404646 1.682 255 255 255
-0.0630672 -0.195117 1.794 255 255 255
0.0300721 0.0215282 1.62 0 0 0
0.194846 0.471894 1.354 255 255 255
0.448909 -0.191078 1.005 255 255 255
0.323806 0.242428 1.599 255 255 255
-0.392477 0.450578 1.456 255 255 255
0.557059 0.380041 1.275 255 255 255
-0.660455 -0.135155 2.085 255 255 255
0.149277 -0.423378 1.784 255 255 255
-0.388549 -0.192747 1.947 255 255 255
-0.169067 0.209657 1.714 255 255 255
0.298166 -0.198462 1.547 255 255 255
0.239809 0.464791 1.359 255 255 255
-0.649218 0.125675 1.876 255 255 255
-0.157354 -0.516559 1.52 255 255 255
0.429628 0.140862 1.463 255 255 255
-0.543504 0.16443 1.799 0 0 0
0.439429 -0.235184 0.991 255 255 255
0.429987 0.420417 1.108 255 255 255
-0.353017 -0.711161 1.997 255 255 255
-0.0518444 -0.190966 1.81 255 255 255
-0.501439 0.358501 1.583 255 255 255
0.528384 0.196898 1.196 255 255 255
0.499181 0.111262 1.196 255 255 255
0.212252 0.41838 1.396 255 255 255
0.426337 -0.320094 0.951 255 255 255
0.457489 -0.222729 0.945 255 255 255
0.307744 -0.204017 1.532 255 255 255
0.0298308 0.261946 1.607 255 255 255
0.471427 -0.076682 1.075 255 255 255
0.129012 0.00940823 1.826 255 255 255
-0.263582 -0.281523 2.114 255 255 255
0.0931882 -0.462597 1.664 255 255 255
-0.649697 0.187097 1.319 255 255 255
0.216794 -0.0438313 1.947 255 255 255
0.00683954 -0.338031 1.748 255 255 255
-0.86175 -0.738061 2.121 255 255 255
-0.760559 -0.0609162 2.099 255 255 255
0.302063 0.503627 1.294 255 255 255
0.30639 -0.21626 1.513 255 255 255
0.0148304 0.206232 1.686 255 255 255
-0.805986 -0.567878 2.329 255 255 255
-0.531484 -0.226766 2.085 255 255 255
-1.0132 -0.772355 2.004 255 255 255
-0.529937 -0.763524 2.236 255 255 255
0.359945 -0.187869 1.345 255 255 255
-0.697898 -0.652252 2.374 255 255 255
0.419337 -0.298943 0.978 255 255 255
-0.532475 -0.748209 2.278 255 255 255
-0.156753 0.512533 1.345 255 255 255
0.441165 0.013436 1.339 255 255 255
0.0358262 -0.448464 1.642 255 255 255
-0.363908 0.244643 1.686 255 255 255
-0.952151 -0.541563 2.236 255 255 255
-0.465038 0.289673 0.941 255 255 255
-0.456895 0.288623 1.655 255 255 255
0.363385 -0.386249 1.051 255 255 255
0.371197 -0.297464 1.173 255 255 255
-1.00676 -0.603442 2.158 255 255 255
-0.181603 0.300423 1.603 255 255 255
0.412738 0.416561 1.375 255 255 255
-0.361248 0.12314 1.753 255 255 255
-0.784396 -0.788469 2.136 255 255 255
-0.137485 0.33776 1.547 255 255 255
0.435522 -0.0486166 1.203 255 255 255
0.545936 0.166791 1.077 255 255 255
0.0507286 0.412668 1.456 255 255 255
0.314162 -0.213952 1.48 255 255 255
-0.230861 0.492717 1.369 255 255 255
0.415611 0.462484 1.327 255 255 255
-0.842742 0.0460288 1.865 255 255 255
-0.609216 0.233193 1.744 255 255 255
-1.08425 -0.41516 2.261 255 255 255
0.120463 -0.462896 1.705 255 255 255
0.398605 -0.262475 1.106 255 255 255
-0.428028 0.464794 1.456 255 255 255
0.428915 -0.192517 1.087 255 255 255
0.0936871 -0.162756 1.893 255 255 255
0.475099 -0.126534 1.012 255 255 255
-0.44063 0.329985 0.855 255 255 255
0.170005 -0.432835 1.729 255 255 255
0.443834 0.140207 1.432 255 255 255
0.22158 0.404792 1.412 255 255 255
0.324198 -0.212708 1.439 255 255 255
0.565124 0.420398 1.247 255 255 255
-0.188518 0.122157 1.739 0 0 0
-0.6195 -0.758952 2.244 255 255 255
0.361656 -0.353095 1.137 255 255 255
0.452574 -0.220002 0.988 255 255 255
0.262926 -0.0115295 1.848 255 255 255
-0.447881 0.224907 1.724 255 255 255
-1.06604 -0.355132 2.143 255 255 255
0.198723 0.152845 1.734 255 255 255
-0.084936 0.146795 1.763 255 255 255
0.195927 -0.536045 1.555 255 255 255
0.558759 0.280176 1.162 255 255 255
-0.560682 -0.840557 2.228 255 255 255
0.156793 -0.276258 1.911 255 255 255
0.227784 -0.254097 1.719 255 255 255
-0.737138 0.266822 1.705 255 255 255
-0.668487 0.268231 1.714 255 255 255
0.439529 -0.224108 1.029 255 255 255
0.385852 -0.375197 0.986 255 255 255
0.0931983 -0.0190613 1.714 255 255 255
-0.78001 -0.0366356 2.078 255 255 255
-0.00950697 0.254146 1.624 255 255 255
0.0460077 -0.509618 1.624 255 255 255
0.4356 0.0200177 1.342 255 255 255
-0.913904 -0.538792 2.286 255 255 255
0.401413 0.13888 1.547 255 255 255
-0.502546 0.246634 1.719 255 255 255
-0.394346 -0.794108 2.114 255 255 255
-0.822744 -0.770301 2.173 255 255 255
-0.629289 0.359406 1.587 255 255 255
0.420963 0.0934373 1.466 255 255 255
0.567298 0.271739 1.112 255 255 255
-0.25915 0.429816 1.466 255 255 255
-0.423412 -0.202252 1.947 255 255 255
0.488135 0.106591 1.232 255 255 255
0.0176318 0.393225 1.463 255 255 255
0.502951 0.152331 1.229 255 255 255
-0.62466 -0.377784 2.173 255 255 255
0.096626 -0.580649 1.587 255 255 255
-0.348205 0.516089 1.366 255 255 255
-0.310559 -0.04671 1.935 255 255 255
-0.468606 -0.545763 2.469 255 255 255
0.271068 0.0424636 1.842 255 255 255
-0.651811 -0.690271 2.32 255 255 255
-0.413904 -0.0121472 1.947 255 255 255
0.447603 -0.264214 0.934 255 255 255
-0.600717 0.43097 1.4 255 255 255
0.424034 0.0760048 1.452 255 255 255
-0.123353 0.0873315 1.779 255 255 255
0.530779 0.319058 1.297 255 255 255
-0.669421 0.23554 1.445 255 255 255
-0.881498 -0.674819 2.196 255 255 255
0.0100071 0.443369 1.396 255 255 255
0.150441 0.404381 1.435 255 255 255
-0.992712 -0.637046 2.189 255 255 255
-0.364155 0.0800169 1.81 0 0 0
-0.0371155 -0.0732304 1.677 255 255 255
-0.742689 0.266822 1.705 255 255 255
0.301126 -0.377548 1.327 255 255 255
0.507874 0.304911 1.366 255 255 255
-0.771395 -0.2312 2.064 255 255 255
0.54067 0.188596 1.102 255 255 255
0.298102 -0.407737 1.286 255 255 255
-0.646845 -0.215444 2.107 255 255 255
0.484033 -0.0159856 1.112 255 255 255
-0.586687 0.30644 1.664 255 255 255
-0.532053 -0.259146 2.128 255 255 255
-0.116744 0.459559 1.39 255 255 255
0.100462 -0.515092 1.65 255 255 255
-0.540237 0.405965 1.187 255 255 255
0.377087 0.297236 1.52 255 255 255
-1.07074 -0.577931 2.181 255 255 255
-0.108942 -0.290175 1.734 255 255 255
-0.564154 -0.022075 1.985 255 255 255
-0.527096 0.43036 1.154 255 255 255
-0.181805 -0.356866 1.729 255 255 255
-0.624256 0.154587 1.821 255 255 255
-0.322918 0.352327 1.567 255 255 255
-1.07301 -0.564374 2.143 255 255 255
0.357055 -0.189825 1.359 255 255 255
0.175413 -0.374025 1.784 255 255 255
-1.06941 -0.428356 2.253 255 255 255
0.329792 -0.422851 1.182 255 255 255
0.312483 -0.293049 1.387 255 255 255
0.329363 -0.319584 1.302 255 255 255
-0.493344 0.0654097 1.899 255 255 255
0.510098 0.302688 1.366 255 255 255
0.40819 0.396224 1.39 255 255 255
-0.221207 0.146777 1.729 255 255 255
0.247044 0.415022 1.4 255 255 255
-0.037802 0.300763 1.591 255 255 255
-0.334815 0.30211 1.612 255 255 255
0.272301 -0.495355 1.313 255 255 255
-0.0167055 0.49943 1.351 255 255 255
0.434924 -0.312528 0.858 0 0 0
-0.748056 0.100084 1.494 255 255 255
-0.854048 0.0205596 1.763 255 255 255
0.43179 -0.163781 1.108 255 255 255
-0.363312 0.408595 1.502 255 255 255
-0.463415 0.329118 1.603 255 255 255
-0.360152 -0.342655 2.244 255 255 255
-0.145364 0.357539 1.524 255 255 255
-0.341219 0.240574 1.696 0 0 0
0.352908 -0.309666 1.229 255 255 255
0.231889 -0.448974 1.509 255 255 255
-0.379983 -0.241435 2.037 255 255 255
0.106154 -0.535505 1.655 255 255 255
-0.305069 -0.390782 2.269 255 255 255
-0.749119 -0.503447 2.329 255 255 255
0.25578 0.374178 1.463 255 255 255
0.358148 0.0670411 1.637 255 255 255
0.230174 -0.394826 1.547 255 255 255
-0.174657 0.520257 1.348 255 255 255
0.285475 -0.184778 1.603 255 255 255
-0.502345 0.380843 1.044 0 0 0
0.455869 -0.24678 0.92 255 255 255
-0.921346 -0.579713 2.286 255 255 255
-1.00692 -0.722425 2.136 255 255 255
0.320605 -0.409079 1.198 255 255 255
0.477504 -0.16377 0.942 255 255 255
-0.863296 -0.531704 2.32 255 255 255
-0.609959 0.0165282 1.966 255 255 255
0.388172 0.424335 1.128 255 255 255
0.41838 0.439816 1.357 255 255 255
-0.175696 -0.2453 1.842 0 0 0
0.116516 0.254891 1.612 255 255 255
-0.511269 -0.290313 2.128 255 255 255
-0.46657 0.291205 0.941 255 255 255
0.166445 0.428815 1.393 255 255 255
0.137541 0.480708 1.354 255 255 255
-0.452977 0.331727 1.603 255 255 255
0.285519 -0.298637 1.494 255 255 255
-0.844423 0.0728565 1.779 255 255 255
0.468269 0.199 1.387 255 255 255
-0.457383 0.304977 0.871 255 255 255
0.495194 0.356331 1.439 255 255 255
0.372815 -0.248265 1.242 255 255 255
0.301968 0.0180016 1.794 255 255 255
-0.415583 0.0471641 1.911 0 0 0
-0.224175 0.497172 1.369 255 255 255
0.0217212 0.429891 1.419 255 255 255
0.109615 0.503459 1.31 255 255 255
0.516615 0.114305 1.112 255 255 255
0.538657 0.175899 1.124 255 255 255
-0.524392 0.198577 1.024 255 255 255
0.345494 0.243804 1.591 255 255 255
-0.768969 -0.751841 2.181 255 255 255
0.194755 -0.153028 1.887 255 255 255
-0.650338 0.391112 1.539 255 255 255
0.430389 -0.129485 1.173 255 255 255
0.237918 0.314541 1.532 255 255 255
0.196674 0.0310359 1.876 255 255 255
-0.881826 -0.632244 2.261 255 255 255
0.449281 0.258517 1.442 255 255 255
0.478722 0.000312566 1.156 255 255 255
0.343513 -0.367889 1.21 255 255 255
-0.317536 0.122789 1.748 255 255 255
0.420068 -0.222588 1.087 255 255 255
0.446629 -0.242942 0.958 255 255 255
-0.793495 -0.426198 2.261 255 255 255
0.587758 0.374437 1.167 255 255 255
-0.0574908 -0.520998 1.563 255 255 255
0.410196 -0.348001 0.964 255 255 255
0.23771 -0.470515 1.484 255 255 255
0.446032 0.0294617 1.278 255 255 255
0.434251 -0.303507 0.938 255 255 255
0.437618 0.233537 1.524 255 255 255
-0.515378 -0.450595 2.236 255 255 255
-0.633425 -0.0125402 2.01 255 255 255
-0.408342 -0.220222 1.966 255 255 255
-0.0878839 -0.454596 1.607 255 255 255
0.406594 -0.319045 1.022 255 255 255
0.396038 0.4446 1.208 255 255 255
0.352407 0.0576253 1.673 255 255 255
-0.78554 -0.681027 2.228 255 255 255
0.156329 -0.530439 1.673 255 255 255
0.433012 -0.321729 0.916 255 255 255
-0.507382 0.0566709 1.917 255 255 255
-0.542877 0.416759 1.505 255 255 255
0.296889 0.45969 1.357 255 255 255
0.47158 -0.18526 0.958 255 255 255
-0.319886 0.216243 1.7 255 255 255
-0.750612 -0.00277359 2.044 255 255 255
-0.431663 -0.683472 2.236 255 255 255
-0.101774 -0.469801 1.579 255 255 255
-0.617546 0.0749538 1.176 255 255 255
0.507345 0.261063 1.324 255 255 255
-0.851913 -0.679736 2.212 255 255 255
-1.06575 -0.42469 2.253 0 0 0
0.0284565 -0.153783 1.859 255 255 255
0.0588398 0.474894 1.369 255 255 255
-0.325326 0.457978 1.442 255 255 255
0.537491 0.163457 1.114 255 255 255
-0.15194 -0.0760569 1.882 255 255 255
0.459227 -0.101366 1.096 255 255 255
-0.051134 -0.495202 1.603 255 255 255
-0.40964 0.230752 1.705 255 255 255
0.0272996 -0.516345 1.612 255 255 255
0.0602821 -0.283055 1.815 255 255 255
0.542167 0.239559 1.205 255 255 255
0.146914 -0.57746 1.629 255 255 255
-0.206839 0.361548 1.52 255 255 255
-0.446223 0.442655 1.477 255 255 255
0.21442 0.503459 1.299 255 255 255
-0.871039 -0.138197 2.03 255 255 255
0.424029 0.0297817 1.39 255 255 255
0.376953 0.266304 1.571 255 255 255
-0.248544 0.462561 1.406 255 255 255
0.0917077 0.0793096 1.794 255 255 255
0.291363 0.290678 1.551 255 255 255
0.0569835 0.462319 1.378 255 255 255
-0.948481 -0.0711635 2.099 255 255 255
-0.119243 -0.566842 1.477 255 255 255
0.392843 -0.262873 1.147 255 255 255
-0.631249 0.308482 1.646 255 255 255
-0.108701 0.454725 1.403 255 255 255
0.289062 -0.336819 1.439 255 255 255
-0.174865 0.148051 1.744 255 255 255
0.138652 -0.0758145 1.876 0 0 0
0.295289 0.364008 1.47 255 255 255
-0.31553 -0.147729 2.071 255 255 255
0.552722 0.436243 1.294 255 255 255
-0.632929 -0.701598 2.32 255 255 255
-1.07895 -0.359425 2.329 255 255 255
-0.136773 0.197423 1.729 255 255 255
-0.146207 -0.433443 1.587 255 255 255
-0.775679 -0.162162 1.491 255 255 255
-0.796964 -0.0923131 2.114 255 255 255
0.0327899 -0.496404 1.624 255 255 255
0.297777 0.250234 1.599 255 255 255
0.39117 -0.353079 1.034 255 255 255
0.460118 -0.214415 0.97 255 255 255
0.3783 0.471482 1.31 255 255 255
0.334347 -0.422727 1.171 255 255 255
-0.789871 0.116994 1.705 255 255 255
-0.795697 0.124518 1.905 255 255 255
0.489763 -0.0276479 1.073 255 255 255
-0.880615 -0.241145 2.092 255 255 255
0.579459 0.465579 1.265 255 255 255
0.0425259 0.138456 1.696 255 255 255
0.27856 -0.313914 1.509 255 255 255
-0.243723 0.143964 1.729 255 255 255
0.415521 0.127167 1.498 255 255 255
-0.0391088 -0.387949 1.646 255 255 255
-0.0146392 0.272407 1.607 255 255 255
0.346036 -0.113026 1.452 255 255 255
0.076705 -0.447708 1.659 255 255 255
0.244677 -0.0426156 1.893 255 255 255
0.0859522 -0.238488 1.859 255 255 255
-0.397129 0.303609 1.62 255 255 255
0.360061 0.484731 1.283 255 255 255
0.30161 -0.408771 1.257 255 255 255
0.459227 -0.0995826 1.096 255 255 255
-0.640343 0.351943 1.412 255 255 255
-0.448634 -0.420561 2.212 255 255 255
