ply
format ascii 1.0
comment Created by Open3D
element vertex 1286
property double x
property double y
property double z
property uchar red
property uchar green
property uchar blue
end_header
0.339767 0.0764256 0.679 255 255 255
0.0217757 -0.0954366 0.625 255 255 255
0.28849 -0.0667701 0.653 255 255 255
-0.126101 -0.208831 0.676 255 255 255
-0.147321 -0.106705 0.597 255 255 255
0.0994215 -0.241 0.81 255 255 255
-0.131516 -0.0950826 0.267 255 255 255
0.24038 -0.0671458 0.726 255 255 255
-0.114111 0.059698 0.69 255 255 255
-0.132921 0.0700413 0.377 255 255 255
0.0564262 0.204552 0.53 255 255 255
0.0759217 0.0968652 0.566 255 255 255
-0.0723621 0.0707142 0.699 255 255 255
-0.0794247 0.148801 0.613 255 255 255
0.215395 -0.208308 0.657 255 255 255
-0.119509 -0.040144 0.309 255 255 255
-0.262699 -0.0151415 0.725 255 255 255
0.259195 0.200984 0.574 255 255 255
0.153804 0.0134993 0.905 255 255 255
0.211196 -0.0333799 0.794 255 255 255
0.043794 -0.0201497 0.782 255 255 255
0.00140983 -0.0972272 0.617 0 0 0
-0.208097 -0.0543548 0.745 255 255 255
-0.152723 0.131966 0.623 255 255 255
-0.037255 0.184513 0.578 255 255 255
0.337442 0.0755425 0.681 255 255 255
0.107453 0.0517993 0.577 255 255 255
-0.0735574 -0.103749 0.614 255 255 255
0.189729 0.043543 0.887 255 255 255
-0.202549 -0.1153 0.689 255 255 255
-0.172352 0.126148 0.376 255 255 255
-0.165938 0.053445 0.338 255 255 255
0.253441 -0.19902 0.612 255 255 255
0.117173 -0.24065 0.779 255 255 255
-0.0881716 0.19975 0.555 255 255 255
-0.153902 0.0562315 0.352 255 255 255
-0.180177 0.0849948 0.341 255 255 255
0.305628 -0.103508 0.601 255 255 255
-0.104541 0.145047 0.614 255 255 255
0.241027 -0.205571 0.629 255 255 255
0.0505044 0.0703218 0.56 255 255 255
0.284328 0.0557446 0.742 255 255 255
0.0822736 0.129351 0.606 255 255 255
0.234944 0.114632 0.847 0 0 0
0.25231 0.156301 0.619 0 0 0
0.0817728 -0.282742 0.805 255 255 255
0.174562 -0.217941 0.713 255 255 255
-0.169269 0.149119 0.393 255 255 255
0.211823 -0.0481463 0.782 255 255 255
-0.150558 -0.0386737 0.294 255 255 255
-0.198357 -0.169565 0.636 255 255 255
-0.0139875 -0.191125 0.632 255 255 255
0.199015 -0.24042 0.663 255 255 255
0.0263081 0.0658963 0.569 255 255 255
0.188878 -0.0725063 0.798 255 255 255
-0.100795 -0.0769102 0.592 255 255 255
0.0871224 -0.268666 0.806 255 255 255
0.293166 -0.0336686 0.671 255 255 255
0.299773 -0.101253 0.611 255 255 255
-0.0233681 -0.113236 0.697 255 255 255
-0.0403304 0.112781 0.659 255 255 255
-0.0166319 0.0810675 0.7 255 255 255
0.240043 -0.0900561 0.711 255 255 255
0.0725477 0.175621 0.599 0 0 0
0.0842319 -0.159802 0.886 255 255 255
-0.160719 -0.188852 0.66 255 255 255
-0.0849938 -0.0941388 0.61 255 255 255
-0.178193 0.15086 0.386 255 255 255
0.319355 0.125778 0.742 255 255 255
-0.0866915 -0.0778967 0.615 255 255 255
0.118567 0.204508 0.546 0 0 0
0.0981312 0.185161 0.583 255 255 255
0.0229254 -0.054432 0.658 255 255 255
-0.244247 -0.174795 0.578 255 255 255
-0.0779343 0.142744 0.617 255 255 255
0.293694 0.0326349 0.712 255 255 255
0.275681 0.0813427 0.779 255 255 255
0.301437 -0.0735284 0.629 255 255 255
-0.0449215 0.0630245 0.715 255 255 255
0.0359697 -0.127261 0.607 255 255 255
-0.176391 0.0693961 0.338 255 255 255
-0.108627 -0.0102099 0.638 255 255 255
0.0667168 0.0487277 0.574 255 255 255
0.104885 -0.154785 0.866 255 255 255
-0.152218 -0.019401 0.307 255 255 255
-0.0934685 -0.0818223 0.607 255 255 255
0.320469 0.0548065 0.685 255 255 255
0.088231 0.180616 0.593 0 0 0
0.0410699 0.030177 0.595 255 255 255
-0.0722382 -0.26142 0.687 255 255 255
-0.134349 8.9768e-05 0.332 0 0 0
-0.190248 -0.203333 0.61 255 255 255
-0.150078 0.113944 0.393 255 255 255
-0.157727 -0.00593133 0.308 255 255 255
-0.23626 -0.139964 0.624 255 255 255
0.222632 0.0923844 0.858 255 255 255
-0.15659 0.151251 0.599 255 255 255
0.181444 0.0614819 0.896 255 255 255
0.00569994 -0.0599318 0.648 255 255 255
0.270407 -0.215619 0.574 255 255 255
0.334 0.132153 0.724 255 255 255
-0.115469 0.128322 0.63 255 255 255
-0.150093 -0.177976 0.68 255 255 255
0.215772 -0.0977366 0.743 255 255 255
0.318838 0.14576 0.758 255 255 255
0.161728 -0.150719 0.786 255 255 255
0.0749957 0.138373 0.611 255 255 255
0.218175 -0.244348 0.634 255 255 255
0.228181 -0.137992 0.696 255 255 255
0.247158 0.114641 0.837 255 255 255
-0.170068 0.0484209 0.33 255 255 255
-0.159948 0.127977 0.389 255 255 255
0.235715 -0.173025 0.657 255 255 255
-0.105816 0.0532999 0.68 255 255 255
0.0477331 0.196623 0.539 255 255 255
0.1635 0.0810889 0.731 255 255 255
-0.141223 -0.0083227 0.323 255 255 255
0.10535 0.154442 0.632 0 0 0
0.272093 0.0608246 0.776 255 255 255
0.172326 -0.00827841 0.872 255 255 255
-0.044356 -0.0859762 0.706 255 255 255
-0.0719915 -0.236996 0.718 255 255 255
0.191942 0.126334 0.68 255 255 255
0.283451 -0.006655 0.701 255 255 255
0.0679599 0.178686 0.593 255 255 255
-0.130641 -0.0738077 0.282 255 255 255
0.0868119 0.186635 0.559 255 255 255
-0.153715 0.16187 0.588 255 255 255
0.306736 0.152024 0.771 255 255 255
0.0978668 -0.206674 0.842 255 255 255
0.269776 -0.133953 0.634 255 255 255
-0.0246773 0.194945 0.57 255 255 255
-0.174627 0.0761161 0.341 255 255 255
0.285946 -0.0479352 0.672 255 255 255
0.18311 -0.257235 0.676 255 255 255
0.13383 -0.213034 0.78 255 255 255
0.145928 0.206755 0.552 255 255 255
-0.0962903 0.186925 0.571 255 255 255
0.18934 -0.209112 0.699 255 255 255
0.247465 0.0193 0.782 255 255 255
-0.21019 -0.106793 0.692 255 255 255
-0.187203 -0.193472 0.623 255 255 255
0.280787 -0.182006 0.58 255 255 255
0.23066 0.146053 0.664 255 255 255
-0.140317 0.193079 0.554 255 255 255
-0.0734632 0.0539269 0.688 255 255 255
-0.129089 -0.0201593 0.319 255 255 255
0.042826 0.193428 0.555 255 255 255
0.0470132 0.190377 0.573 255 255 255
0.0607151 -0.0154548 0.74 255 255 255
-0.0307895 0.201713 0.563 255 255 255
-0.0306243 -0.0141543 0.735 255 255 255
-0.0559215 -0.140102 0.607 255 255 255
0.298726 -0.058423 0.643 255 255 255
-0.165008 0.114522 0.376 255 255 255
-0.169687 0.0642738 0.34 255 255 255
-0.083225 -0.0622863 0.619 255 255 255
-0.121226 -0.0485722 0.302 255 255 255
0.31312 0.0560867 0.701 255 255 255
0.158225 -0.201825 0.757 255 255 255
-0.114111 0.0563294 0.69 255 255 255
0.221952 -0.178293 0.677 255 255 255
-0.105087 -0.0574452 0.6 255 255 255
-0.145809 0.0859923 0.377 255 255 255
-0.108994 -0.0574452 0.6 255 255 255
0.291767 0.0862085 0.755 255 255 255
-0.121315 -0.0528198 0.301 255 255 255
0.126212 -0.230805 0.78 255 255 255
0.271334 0.0109337 0.733 255 255 255
0.223294 0.0133177 0.805 255 255 255
-0.224654 -0.0774923 0.702 255 255 255
-0.188623 0.058618 0.704 255 255 255
0.215444 0.165839 0.606 255 255 255
-0.111581 0.109265 0.409 255 255 255
0.242949 0.216519 0.554 255 255 255
0.00418634 -0.141446 0.584 0 0 0
0.0930108 0.208128 0.537 0 0 0
0.298922 0.0540167 0.719 255 255 255
-0.0673793 0.0986025 0.672 255 255 255
0.264979 -0.185971 0.602 255 255 255
0.268431 0.156301 0.619 255 255 255
0.186079 0.205928 0.562 255 255 255
0.320364 -0.0255409 0.632 255 255 255
0.286073 0.214596 0.568 255 255 255
-0.212834 -0.106984 0.686 255 255 255
0.100887 0.185792 0.588 255 255 255
0.047669 0.136029 0.605 255 255 255
0.0455276 -0.124135 0.616 255 255 255
-0.11895 0.0235808 0.352 255 255 255
0.282672 0.0558949 0.744 255 255 255
-0.222891 -0.115787 0.666 255 255 255
-0.0433904 0.0163446 0.709 255 255 255
0.155541 -0.210943 0.75 255 255 255
-0.134063 0.107745 0.661 255 255 255
-0.132187 0.000630041 0.332 255 255 255
0.0197421 -0.0545147 0.659 255 255 255
-0.00158765 -0.111196 0.611 255 255 255
-0.141383 0.0512071 0.361 255 255 255
0.258763 -0.107875 0.664 255 255 255
-0.0229353 -0.0407573 0.719 255 255 255
0.180125 0.128645 0.669 255 255 255
-0.0334689 -0.10979 0.719 255 255 255
-0.118994 0.101125 0.667 255 255 255
-0.0740823 0.205484 0.551 255 255 255
0.0821558 0.161599 0.62 255 255 255
0.233576 -0.115191 0.702 255 255 255
0.277937 -0.187963 0.578 255 255 255
-0.0742168 0.204958 0.552 255 255 255
-0.0509904 0.0896237 0.687 255 255 255
-0.207985 -0.217487 0.574 255 255 255
0.319032 0.0119747 0.659 255 255 255
-0.124998 -0.0434521 0.304 255 255 255
-0.165153 0.126918 0.382 255 255 255
-0.136206 -0.0694912 0.285 0 0 0
-0.00577552 0.139454 0.634 255 255 255
-0.167435 0.040121 0.328 255 255 255
0.0158931 -0.165089 0.561 255 255 255
0.204083 0.139532 0.669 0 0 0
-0.119939 0.0937845 0.397 255 255 255
-0.0541231 -0.145519 0.609 0 0 0
0.186681 0.124304 0.681 0 0 0
0.195796 -0.091738 0.774 255 255 255
-0.121242 0.0270177 0.352 255 255 255
-0.0125489 0.19761 0.567 255 255 255
0.253935 0.116103 0.828 255 255 255
0.24255 -0.147855 0.664 255 255 255
0.281835 0.0859698 0.775 255 255 255
0.292754 -0.00429238 0.688 255 255 255
-0.029541 -0.120955 0.709 255 255 255
-0.17444 0.108202 0.365 255 255 255
0.109758 0.211829 0.542 255 255 255
-0.234022 -0.183896 0.583 255 255 255
-0.189725 -0.196948 0.618 255 255 255
-0.162775 0.138278 0.615 255 255 255
-0.13814 0.0934002 0.39 255 255 255
0.283632 -0.0695284 0.659 255 255 255
-0.136972 -0.0780168 0.279 255 255 255
0.338044 0.111159 0.703 255 255 255
0.0695199 0.05153 0.574 255 255 255
-0.220203 -0.177053 0.605 255 255 255
-0.090131 0.0851518 0.687 255 255 255
0.167399 0.169123 0.618 0 0 0
0.223366 0.19486 0.578 255 255 255
0.141719 -0.225183 0.761 255 255 255
0.036288 0.121397 0.596 255 255 255
-0.129152 -0.21429 0.669 255 255 255
-0.150736 0.0883512 0.374 255 255 255
-0.119041 -0.0796946 0.285 255 255 255
0.162992 -0.189518 0.762 255 255 255
0.0562133 0.205499 0.528 255 255 255
0.314126 0.180454 0.78 255 255 255
-0.141566 0.150177 0.423 255 255 255
-0.178132 0.131563 0.374 255 255 255
0.101131 -0.213109 0.835 255 255 255
0.27818 -0.156842 0.603 255 255 255
0.0660763 0.0847413 0.553 255 255 255
0.201282 -0.169413 0.709 255 255 255
-0.0912638 0.0214951 0.655 255 255 255
0.0630319 0.0807015 0.55 255 255 255
0.324589 0.0251075 0.666 255 255 255
0.090314 0.175003 0.607 255 255 255
-0.165556 0.0491545 0.335 255 255 255
-0.037469 0.196687 0.567 255 255 255
0.186184 -0.16269 0.736 255 255 255
-0.102946 0.0170474 0.648 255 255 255
0.215339 -0.181249 0.684 255 255 255
-0.126013 0.0788405 0.384 255 255 255
-0.201337 -0.0658537 0.738 255 255 255
-0.140494 0.0291425 0.35 255 255 255
0.298227 0.0474965 0.709 255 255 255
0.208794 -0.158321 0.711 255 255 255
0.00857215 0.20884 0.56 255 255 255
-0.137652 -0.0631596 0.29 255 255 255
-0.12392 -0.0411134 0.305 255 255 255
-0.079943 0.142744 0.617 255 255 255
-0.124524 0.0694771 0.698 255 255 255
0.294728 -0.101916 0.615 255 255 255
-0.20102 0.0185346 0.804 255 255 255
-0.142938 0.049755 0.359 255 255 255
0.208846 -0.0409253 0.79 255 255 255
0.160804 -0.0499163 0.856 255 255 255
-0.117452 0.0870837 0.393 255 255 255
0.255547 -0.219034 0.596 255 255 255
-0.225446 -0.0926061 0.687 255 255 255
0.0320895 0.079414 0.573 255 255 255
-0.0491349 -0.0816952 0.662 255 255 255
-0.142856 -0.0372688 0.302 255 255 255
-0.164167 0.08964 0.362 255 255 255
-0.0831675 0.169141 0.59 255 255 255
0.288562 -0.0370546 0.673 255 255 255
-0.0218558 0.0624666 0.722 255 255 255
-0.059464 0.0624075 0.708 255 255 255
-0.0823217 -0.131942 0.584 255 255 255
-0.143863 0.181321 0.568 255 255 255
0.0517832 -0.190753 0.564 255 255 255
-0.0884053 -0.0786409 0.613 255 255 255
0.0660647 0.000201708 0.746 255 255 255
0.23676 -0.00481645 0.772 255 255 255
0.249864 -0.111859 0.675 255 255 255
-0.130286 0.103865 0.401 0 0 0
-0.123545 0.0361158 0.357 255 255 255
-0.196661 -0.0798303 0.734 255 255 255
0.0194744 -0.2032 0.534 255 255 255
0.265418 -0.144614 0.631 255 255 255
0.188543 0.162408 0.635 255 255 255
-0.116659 -0.250798 0.648 255 255 255
-0.0376191 0.105625 0.668 255 255 255
0.0848039 -0.173877 0.877 255 255 255
0.122073 -0.142185 0.858 255 255 255
-0.0769124 0.204958 0.552 255 255 255
-0.142609 0.0349376 0.351 255 255 255
0.280883 -0.20856 0.565 255 255 255
0.275353 0.0156622 0.731 255 255 255
-0.0753544 -0.0755756 0.629 0 0 0
-0.123029 -0.0953864 0.57 255 255 255
0.290174 -0.0970709 0.629 255 255 255
0.0529768 0.107198 0.577 255 255 255
0.24244 0.044424 0.799 255 255 255
-0.0387192 -0.0216994 0.708 255 255 255
-0.103477 0.0996961 0.672 255 255 255
0.0860768 0.170469 0.612 255 255 255
-0.133366 -0.0288561 0.312 255 255 255
-0.229489 -0.129375 0.642 255 255 255
-0.130241 -0.219332 0.658 255 255 255
0.0293167 0.021817 0.738 255 255 255
0.200265 0.15001 0.653 255 255 255
0.00127273 -0.186572 0.557 255 255 255
0.314163 0.031214 0.681 255 255 255
0.115155 0.17374 0.613 255 255 255
0.262209 0.111764 0.816 255 255 255
0.288979 -0.156076 0.589 255 255 255
0.169196 -0.188004 0.751 255 255 255
0.179456 0.0919842 0.714 255 255 255
-0.175851 0.145457 0.385 255 255 255
0.222451 -0.0496542 0.766 255 255 255
0.210475 0.181677 0.584 255 255 255
-0.141456 0.131793 0.627 255 255 255
0.307304 0.0640983 0.714 255 255 255
-0.00760212 0.0762332 0.708 255 255 255
0.287887 -0.124707 0.609 255 255 255
0.0757954 0.103477 0.572 255 255 255
0.00159948 0.0844849 0.7 255 255 255
-0.183645 0.108091 0.353 255 255 255
-0.215929 -0.195999 0.588 255 255 255
-0.153413 0.12738 0.395 255 255 255
0.16845 0.0132606 0.889 255 255 255
0.205336 0.141074 0.666 255 255 255
0.180859 0.206106 0.56 255 255 255
-0.120785 0.115998 0.659 255 255 255
-0.0674506 -0.112558 0.613 255 255 255
-0.139306 -0.19453 0.676 255 255 255
0.0520716 -0.148003 0.599 255 255 255
-0.0266182 -0.0832653 0.693 255 255 255
0.275576 -0.179427 0.587 255 255 255
0.0840744 -0.0900233 0.676 255 255 255
0.228072 0.0238863 0.808 255 255 255
-0.189688 0.126871 0.359 255 255 255
-0.127929 0.00336151 0.335 255 255 255
0.149772 -0.096942 0.841 255 255 255
-0.031845 0.112048 0.661 255 255 255
0.0379304 0.0183128 0.742 255 255 255
-0.115608 0.190954 0.561 255 255 255
-0.156231 0.0690364 0.356 255 255 255
0.177799 0.0116678 0.878 255 255 255
0.159141 -0.211677 0.744 255 255 255
-0.159778 0.00672766 0.314 255 255 255
-0.158615 0.159118 0.592 255 255 255
0.275983 -0.130433 0.627 255 255 255
-0.107395 0.0891019 0.683 255 255 255
-0.1367 -0.057893 0.292 255 255 255
-0.114854 0.154433 0.6 255 255 255
0.169871 -0.19796 0.738 255 255 255
0.181841 -0.0712232 0.813 255 255 255
-0.121745 -0.0718471 0.287 255 255 255
0.0830987 0.0977209 0.571 255 255 255
-0.109566 0.16558 0.444 255 255 255
0.0736402 0.185133 0.577 255 255 255
-0.137859 0.0304546 0.352 255 255 255
0.00221072 -0.170863 0.565 0 0 0
0.208463 -0.0707528 0.765 255 255 255
-0.141704 0.0271202 0.346 255 255 255
0.256882 -0.0475783 0.716 255 255 255
-0.141912 -0.0781896 0.278 255 255 255
-0.126574 -0.0613508 0.6 255 255 255
0.0217532 0.197146 0.571 255 255 255
0.299401 -0.0452384 0.649 255 255 255
0.127213 -0.122209 0.855 255 255 255
0.290092 -0.0177018 0.687 255 255 255
0.29735 0.149865 0.786 255 255 255
-0.194981 -0.108731 0.69 255 255 255
0.0623693 0.109076 0.577 255 255 255
-0.122437 -0.219182 0.674 255 255 255
0.212181 -0.242962 0.644 255 255 255
0.263075 -0.121093 0.648 255 255 255
-0.0619019 0.00463731 0.684 0 0 0
-0.186302 -0.198594 0.62 255 255 255
-0.125367 -0.202398 0.684 255 255 255
0.217332 -0.232532 0.65 255 255 255
0.206786 0.0364493 0.856 255 255 255
-0.00643174 0.164898 0.599 255 255 255
-0.0422363 0.0186521 0.709 255 255 255
0.320216 0.128539 0.744 255 255 255
0.0679881 0.0557109 0.569 255 255 255
-0.225781 0.0446942 0.781 0 0 0
-0.147078 0.166102 0.425 0 0 0
0.206719 0.199933 0.571 255 255 255
0.303252 -0.0894678 0.612 255 255 255
-0.230198 -0.0539262 0.723 255 255 255
-0.113598 0.0982366 0.402 255 255 255
-0.124738 0.135366 0.62 255 255 255
-0.201169 -0.192455 0.607 255 255 255
-0.0996412 0.0225266 0.654 255 255 255
-0.119523 0.0252992 0.352 255 255 255
0.0810121 -0.0836697 0.678 255 255 255
-0.134979 0.113163 0.655 255 255 255
0.273028 -0.151692 0.618 255 255 255
0.218088 0.00285528 0.81 255 255 255
0.157853 -0.12506 0.819 255 255 255
0.231812 -0.223996 0.629 255 255 255
-0.00484824 0.122498 0.648 255 255 255
-0.0319074 0.0145914 0.737 255 255 255
-0.0259316 -0.124861 0.705 255 255 255
-0.0650685 -0.197678 0.76 255 255 255
-0.200419 -0.122286 0.678 255 255 255
-0.130206 0.0305411 0.353 255 255 255
-0.163535 0.131098 0.387 255 255 255
0.316643 0.124195 0.747 255 255 255
-0.170136 0.0402829 0.325 255 255 255
-0.0990774 0.0695002 0.687 255 255 255
0.0980156 0.185792 0.588 255 255 255
0.228589 0.107995 0.849 0 0 0
0.282341 -0.073482 0.656 255 255 255
-0.0496764 0.00360666 0.7 255 255 255
0.22913 0.14171 0.669 255 255 255
0.118387 -0.0976773 0.872 255 255 255
0.0128075 -0.133575 0.587 255 255 255
0.245854 0.196478 0.58 255 255 255
0.229103 0.0264833 0.807 255 255 255
-0.0526906 0.198611 0.562 255 255 255
0.147732 0.0165901 0.913 255 255 255
-0.157556 0.0934273 0.37 255 255 255
0.152929 0.103702 0.699 255 255 255
0.00562957 -0.0706483 0.64 255 255 255
0.0367213 0.201861 0.532 255 255 255
-0.120739 0.107272 0.404 255 255 255
0.00125674 -0.212869 0.55 255 255 255
0.0225635 0.198883 0.568 255 255 255
0.243992 -0.129818 0.677 255 255 255
-0.170765 0.0993793 0.361 255 255 255
0.202617 0.134193 0.675 255 255 255
-0.0572408 0.0827504 0.695 255 255 255
-0.143391 -0.17817 0.685 255 255 255
0.320957 0.186141 0.772 255 255 255
0.0168563 0.174448 0.595 0 0 0
0.283202 -0.0715645 0.658 255 255 255
-0.140048 -0.0815145 0.277 255 255 255
0.0272343 0.0483033 0.569 0 0 0
-0.178778 0.0907038 0.348 255 255 255
-0.163483 0.0445259 0.333 255 255 255
0.157594 -0.251131 0.715 255 255 255
-0.154633 -0.0224506 0.301 255 255 255
-0.109055 0.117068 0.653 255 255 255
0.216586 0.188927 0.58 0 0 0
-0.107989 -0.0796723 0.584 255 255 255
0.193558 -0.0187977 0.835 255 255 255
-0.118831 0.0130061 0.345 255 255 255
-0.134779 -0.241253 0.634 255 255 255
0.0288138 -0.126212 0.602 255 255 255
0.0397585 -0.0827098 0.653 255 255 255
-0.123681 0.0501296 0.366 255 255 255
-0.147037 0.0137994 0.697 255 255 255
0.280699 -0.0179595 0.697 255 255 255
0.0666001 0.023871 0.607 255 255 255
-0.135436 0.158996 0.432 255 255 255
0.277139 -0.215151 0.563 255 255 255
0.186389 0.178519 0.583 255 255 255
0.325054 0.0731723 0.69 255 255 255
0.342893 0.102663 0.692 255 255 255
0.283162 -0.172865 0.581 255 255 255
-0.161815 0.114504 0.38 255 255 255
-0.095589 -0.124943 0.578 255 255 255
-0.164905 0.106325 0.373 255 255 255
-0.0911165 0.0615846 0.686 255 255 255
0.10069 0.17686 0.61 0 0 0
-0.117873 0.0767385 0.386 255 255 255
-0.135835 -0.0381353 0.305 255 255 255
0.280238 -0.187923 0.575 255 255 255
-0.149724 -0.0316518 0.3 255 255 255
-0.175561 0.143455 0.383 255 255 255
-0.140281 -0.0742666 0.282 255 255 255
0.311734 0.0100089 0.671 255 255 255
-0.108655 0.0960311 0.677 255 255 255
-0.175495 -0.175696 0.655 255 255 255
0.135946 -0.281347 0.73 255 255 255
0.208588 -0.21658 0.666 255 255 255
0.0626727 0.00142139 0.749 255 255 255
-0.0157528 -0.0904499 0.663 255 255 255
-0.161692 0.0536774 0.343 255 255 255
-0.129908 -0.128207 0.58 255 255 255
0.316027 -0.0175871 0.642 255 255 255
-0.118505 0.173195 0.445 255 255 255
0.00841296 0.157293 0.615 255 255 255
0.21406 0.163919 0.625 255 255 255
0.19219 -0.0840997 0.785 255 255 255
-0.11013 0.209569 0.543 255 255 255
-0.16182 0.134706 0.392 255 255 255
-0.129441 -0.200696 0.682 255 255 255
-0.138085 0.0236047 0.344 255 255 255
-0.194939 -0.206771 0.597 255 255 255
0.0495385 0.147524 0.616 255 255 255
-0.0973629 0.0214295 0.653 255 255 255
-0.171909 0.139553 0.386 255 255 255
0.207904 0.154949 0.647 255 255 255
-0.0152301 -0.180286 0.641 255 255 255
-0.127163 0.10049 0.67 255 255 255
0.326447 0.00436613 0.644 255 255 255
-0.158748 0.00623647 0.315 255 255 255
-0.142899 -0.231354 0.638 255 255 255
0.0706099 0.184212 0.583 255 255 255
0.175395 -0.160997 0.762 255 255 255
0.0544723 0.190375 0.554 0 0 0
-0.0426692 0.110063 0.662 255 255 255
0.170417 0.168117 0.618 0 0 0
0.122645 0.160358 0.631 255 255 255
-0.137212 -0.189598 0.682 255 255 255
0.243974 -0.145255 0.662 255 255 255
-0.217684 -0.197855 0.585 255 255 255
0.297171 0.17918 0.618 255 255 255
-0.160337 0.128119 0.629 255 255 255
-0.202955 -0.215412 0.581 255 255 255
0.312347 0.0623193 0.707 255 255 255
-0.123218 -0.059928 0.295 255 255 255
-0.0523677 0.11114 0.662 255 255 255
-0.154289 -0.147079 0.651 255 255 255
-0.226286 -0.0855208 0.693 255 255 255
0.277158 -0.0402946 0.691 255 255 255
0.103888 -0.227619 0.814 255 255 255
0.0277461 0.144913 0.622 255 255 255
0.156319 -0.155539 0.791 255 255 255
0.249847 -0.0802317 0.706 255 255 255
0.0893644 0.161859 0.621 255 255 255
0.26277 -0.0369363 0.713 255 255 255
-0.138297 0.0182312 0.693 255 255 255
0.00149895 0.118673 0.656 255 255 255
-0.160614 0.0254742 0.325 255 255 255
0.282129 0.0106652 0.715 255 255 255
-0.152861 -0.039361 0.292 255 255 255
0.185561 0.200946 0.566 255 255 255
0.248926 0.074583 0.816 255 255 255
0.300178 -0.0649296 0.635 255 255 255
-0.049496 -0.222851 0.749 255 255 255
-0.166594 -0.177574 0.662 255 255 255
0.316556 0.0333323 0.679 255 255 255
-0.146488 -0.0126896 0.314 255 255 255
-0.183302 -0.197775 0.627 255 255 255
0.275857 -0.0203731 0.702 255 255 255
0.339189 0.110015 0.703 255 255 255
-0.188631 0.122678 0.357 255 255 255
-0.084785 -0.25433 0.68 255 255 255
0.250451 -0.166465 0.64 255 255 255
-0.0665813 -0.00750662 0.675 255 255 255
-0.0114209 0.208628 0.557 255 255 255
-0.110967 -0.113938 0.57 255 255 255
-0.239819 -0.00722462 0.761 255 255 255
0.204077 -0.23965 0.655 255 255 255
0.1329 -0.216126 0.782 255 255 255
0.325914 0.132964 0.735 255 255 255
0.187894 0.0554011 0.892 255 255 255
-0.119511 0.0477471 0.366 255 255 255
0.16784 -0.12131 0.803 255 255 255
-0.0452307 0.104538 0.668 255 255 255
-0.0864093 -0.101411 0.606 255 255 255
-0.157685 0.0784473 0.362 255 255 255
-0.14586 0.0544287 0.359 255 255 255
-0.104722 -0.0772159 0.587 0 0 0
0.115109 -0.184374 0.828 255 255 255
-0.0798978 0.151794 0.609 255 255 255
0.238783 -0.133909 0.681 255 255 255
0.326023 0.0575564 0.678 255 255 255
0.0941956 0.19491 0.549 255 255 255
0.0234996 0.0195729 0.744 255 255 255
-0.0125915 -0.0306893 0.73 255 255 255
-0.172905 -0.154469 0.674 255 255 255
0.174681 0.212145 0.552 255 255 255
0.223351 -0.181358 0.668 255 255 255
-0.129043 0.0441575 0.361 255 255 255
-0.080218 0.135874 0.627 255 255 255
-0.15774 0.00110334 0.313 255 255 255
0.0429801 -0.180406 0.569 255 255 255
-0.223432 -0.07365 0.709 255 255 255
-0.102029 -0.080218 0.588 255 255 255
0.253403 0.184816 0.591 255 255 255
-0.0751481 0.0188002 0.673 255 255 255
-0.000549378 0.201867 0.566 255 255 255
0.277394 -0.01125 0.703 255 255 255
-0.155155 0.021973 0.328 255 255 255
0.214325 -0.214722 0.657 255 255 255
-0.117745 0.017363 0.66 255 255 255
0.0831629 -0.0519124 0.696 255 255 255
0.129811 0.192437 0.56 255 255 255
-0.0574208 0.162785 0.602 255 255 255
-0.129154 -0.0459623 0.301 255 255 255
-0.112363 0.153364 0.438 255 255 255
-0.0204142 0.209685 0.555 255 255 255
-0.105497 -0.0770843 0.586 0 0 0
-0.0747446 -0.247002 0.7 255 255 255
0.0964073 -0.266628 0.796 255 255 255
-0.114459 -0.199717 0.706 255 255 255
-0.24202 0.00652385 0.776 255 255 255
-0.17391 0.0999972 0.359 255 255 255
0.106585 -0.16015 0.857 255 255 255
-0.0247745 -0.186659 0.645 255 255 255
0.271875 -0.0801414 0.667 255 255 255
-0.111458 0.113144 0.411 255 255 255
-0.214312 -0.0682331 0.725 255 255 255
0.281638 -0.153643 0.602 255 255 255
-0.242276 -0.0788446 0.684 255 255 255
-0.160168 0.0375937 0.334 255 255 255
0.0845171 -0.134302 0.889 255 255 255
0.0291504 0.0931334 0.589 255 255 255
0.192652 0.213043 0.552 255 255 255
0.323044 0.178927 0.768 255 255 255
-0.135971 0.00171059 0.332 255 255 255
-0.158073 0.0810835 0.681 255 255 255
-0.160773 0.038565 0.333 255 255 255
0.1117 -0.220724 0.813 255 255 255
0.090945 -0.0858763 0.678 255 255 255
-0.113224 0.0997926 0.403 255 255 255
0.0416104 0.193467 0.563 255 255 255
0.272003 -0.000975642 0.719 255 255 255
0.298246 -0.0967544 0.614 255 255 255
-0.117462 -0.118576 0.57 255 255 255
-0.095589 -0.119299 0.578 255 255 255
0.322928 0.076511 0.7 255 255 255
0.25252 -0.188101 0.622 255 255 255
0.252874 0.00762611 0.76 255 255 255
-0.155826 0.106404 0.382 255 255 255
-0.142626 -0.00202765 0.325 255 255 255
0.185786 -0.20138 0.716 255 255 255
-0.153716 -0.0124472 0.308 255 255 255
0.0899627 -0.0276929 0.714 255 255 255
0.131124 -0.154543 0.827 255 255 255
0.100488 0.0263923 0.597 0 0 0
0.219257 -0.0673707 0.755 255 255 255
0.0208276 -0.0213675 0.78 255 255 255
0.0714532 0.0313023 0.598 0 0 0
-0.031624 0.170861 0.596 255 255 255
0.261505 -0.154392 0.629 255 255 255
-0.114233 0.0881193 0.684 255 255 255
0.166368 -0.0952713 0.815 255 255 255
-0.193605 -0.179349 0.634 255 255 255
-0.24269 0.0405233 0.799 255 255 255
0.173069 -0.103016 0.803 255 255 255
-0.13917 0.145701 0.422 255 255 255
0.0154114 -0.191071 0.544 255 255 255
0.174562 -0.219101 0.713 255 255 255
0.257775 0.200398 0.575 255 255 255
-0.185729 0.130773 0.365 255 255 255
-0.107064 0.171641 0.579 255 255 255
0.0978714 -0.181825 0.854 255 255 255
0.0267078 -0.176011 0.558 255 255 255
-0.133093 -0.0871252 0.272 255 255 255
0.15661 -0.157114 0.786 255 255 255
0.305699 -0.00523106 0.665 255 255 255
0.248288 0.186748 0.588 255 255 255
-0.160688 -0.159799 0.678 0 0 0
0.196482 -0.0706723 0.792 255 255 255
-0.0406602 0.0589418 0.722 255 255 255
-0.140226 0.130533 0.411 255 255 255
-0.11882 0.0660955 0.379 255 255 255
0.221077 -0.182172 0.671 255 255 255
0.213686 -0.247189 0.636 255 255 255
0.290129 -0.110459 0.618 255 255 255
0.256873 -0.0712692 0.697 255 255 255
0.283642 0.216221 0.565 255 255 255
-0.190369 0.120694 0.644 255 255 255
-0.118692 0.0907409 0.395 255 255 255
0.0233914 0.161034 0.614 255 255 255
-0.15527 0.0175949 0.326 255 255 255
-0.0285471 0.0709702 0.713 255 255 255
0.0117133 0.141875 0.631 255 255 255
0.0541704 0.177782 0.59 255 255 255
-0.228189 -0.182264 0.59 255 255 255
-0.147813 -0.0936758 0.607 255 255 255
-0.0112314 -0.0372472 0.719 255 255 255
0.259348 0.0704288 0.799 255 255 255
0.249115 0.0843923 0.821 255 255 255
-0.224512 -0.169456 0.606 255 255 255
-0.160359 -0.176976 0.672 255 255 255
-0.170059 0.138503 0.616 255 255 255
0.219734 -0.212678 0.654 255 255 255
-0.253606 0.0102193 0.769 255 255 255
0.310577 -0.00730644 0.657 255 255 255
-0.216407 0.00670881 0.798 255 255 255
0.312949 0.11401 0.744 255 255 255
-0.0624626 -0.00312667 0.678 255 255 255
0.221591 0.200863 0.571 255 255 255
0.0505946 0.0677086 0.561 255 255 255
0.0895305 -0.197112 0.854 255 255 255
-0.250777 -0.0412859 0.708 255 255 255
0.271733 -0.0895058 0.664 255 255 255
-0.135761 0.0650492 0.373 0 0 0
0.180736 0.162927 0.633 255 255 255
0.267981 -0.150359 0.625 255 255 255
-0.113405 0.204508 0.546 255 255 255
-0.17763 -0.207315 0.625 255 255 255
-0.0217607 0.150258 0.619 255 255 255
0.154728 0.119167 0.677 255 255 255
-0.139683 -0.0968908 0.266 255 255 255
-0.143354 -0.0540916 0.292 255 255 255
0.274339 0.148814 0.801 0 0 0
-0.0912493 0.0840339 0.687 255 255 255
0.244732 -0.131826 0.676 255 255 255
-0.012971 -0.00958668 0.752 255 255 255
0.077423 0.0206321 0.599 255 255 255
0.0178548 0.173771 0.596 255 255 255
0.0359227 -0.14962 0.59 255 255 255
-0.107319 -0.201414 0.712 255 255 255
0.0467745 0.0774737 0.559 255 255 255
0.152966 -0.16756 0.787 255 255 255
-0.241994 0.0393213 0.801 255 255 255
-0.0628753 0.179488 0.58 255 255 255
-0.160605 0.0758327 0.358 255 255 255
-0.157129 0.012026 0.319 255 255 255
-0.0524608 0.208691 0.55 255 255 255
0.039283 -0.191666 0.556 255 255 255
-0.0143948 0.198533 0.567 255 255 255
0.00704663 0.10139 0.676 255 255 255
0.126768 0.166219 0.626 255 255 255
-0.183315 -0.181411 0.645 255 255 255
-0.165409 0.0295225 0.323 255 255 255
-0.136746 0.145358 0.423 255 255 255
0.0304891 -0.0920859 0.637 255 255 255
0.283982 -0.183244 0.575 255 255 255
0.0760903 -0.159432 0.892 255 255 255
-0.191307 -0.125411 0.677 255 255 255
-0.207097 -0.186528 0.607 255 255 255
-0.0149681 0.0298961 0.73 255 255 255
-0.1817 -0.200196 0.625 255 255 255
-0.132743 0.0557932 0.368 255 255 255
0.263675 -0.0641862 0.694 255 255 255
-0.0207378 -0.0339716 0.724 255 255 255
-0.0706129 -0.259193 0.693 255 255 255
-0.134863 0.0817979 0.687 255 255 255
-0.152173 -0.0486639 0.288 255 255 255
0.282638 -0.208738 0.563 255 255 255
-0.182958 -0.169301 0.655 255 255 255
0.145175 0.199205 0.556 255 255 255
0.206654 0.193248 0.576 255 255 255
0.240459 0.104983 0.847 255 255 255
0.153612 -0.152828 0.797 255 255 255
0.0727468 0.184742 0.57 255 255 255
-0.157692 0.00782366 0.317 255 255 255
-0.125811 -0.0633774 0.291 255 255 255
-0.188279 -0.00363855 0.789 255 255 255
-0.129191 -0.0382954 0.622 0 0 0
0.136719 -0.207218 0.782 255 255 255
0.113082 -0.151616 0.864 255 255 255
-0.135667 -0.0345007 0.308 255 255 255
-0.0240106 -0.153198 0.683 255 255 255
0.0502051 -0.146297 0.6 255 255 255
-0.141736 0.118516 0.402 255 255 255
0.0302114 0.179046 0.591 255 255 255
0.125816 0.126603 0.664 255 255 255
0.153746 -0.268259 0.708 255 255 255
0.271682 -0.0170425 0.706 255 255 255
-0.181129 0.0372267 0.734 255 255 255
0.191098 0.1671 0.607 255 255 255
0.180235 -0.250993 0.686 255 255 255
0.235735 0.214716 0.554 255 255 255
-0.221922 -0.0148668 0.772 255 255 255
-0.210662 -0.114732 0.679 255 255 255
-0.136009 0.0207452 0.343 255 255 255
-0.182819 0.0935608 0.346 255 255 255
0.0060166 0.0903455 0.684 255 255 255
-0.202923 -0.103176 0.698 255 255 255
0.00341854 0.155796 0.617 255 255 255
0.157631 -0.130437 0.811 255 255 255
-0.0643909 -0.106113 0.622 255 255 255
0.149786 -0.053749 0.873 255 255 255
0.232588 0.115542 0.824 0 0 0
-0.171661 0.0539541 0.331 255 255 255
-0.0348801 -0.0481099 0.724 255 255 255
0.0423003 -0.188489 0.56 255 255 255
0.095611 0.0506135 0.585 255 255 255
-0.149532 0.177013 0.572 255 255 255
-0.102597 0.204216 0.55 255 255 255
-0.159531 -0.184594 0.664 255 255 255
-0.149219 -0.0218989 0.307 255 255 255
-0.117379 -0.247041 0.652 255 255 255
-0.183599 0.118966 0.646 255 255 255
0.258574 -0.0316153 0.724 255 255 255
0.185854 -0.176807 0.73 255 255 255
-0.177283 0.084623 0.344 255 255 255
0.0843625 0.0924229 0.567 255 255 255
0.0611518 0.0285727 0.602 255 255 255
-0.161789 0.0183126 0.32 255 255 255
0.30977 0.0280942 0.686 255 255 255
0.230563 0.143012 0.67 255 255 255
-0.240859 -0.0850231 0.68 255 255 255
-0.166645 0.0449047 0.723 255 255 255
0.153551 0.172039 0.607 255 255 255
0.292433 0.163484 0.79 0 0 0
0.0569997 0.0130697 0.61 255 255 255
-0.0645014 0.169606 0.595 255 255 255
-0.21895 -0.0721474 0.717 255 255 255
-0.13181 0.18788 0.56 255 255 255
0.258267 -0.189678 0.614 255 255 255
-0.245524 -0.0671849 0.69 255 255 255
0.262426 0.0236729 0.759 255 255 255
-0.198825 -0.0240594 0.785 0 0 0
-0.0797063 -0.0768823 0.623 255 255 255
-0.123193 0.0926693 0.395 255 255 255
0.328056 0.00538891 0.641 255 255 255
-0.244467 -0.142717 0.614 255 255 255
-0.120734 -0.0500466 0.302 255 255 255
0.0459466 -0.191222 0.56 255 255 255
0.314881 0.11701 0.74 255 255 255
-0.237055 -0.0878777 0.685 255 255 255
-0.146077 0.14363 0.608 255 255 255
0.0895533 0.0442501 0.589 255 255 255
0.338837 0.175994 0.745 255 255 255
-0.0968898 0.0258374 0.657 255 255 255
0.0669091 0.157309 0.619 255 255 255
-0.156911 0.0502055 0.346 255 255 255
-0.131658 0.0597091 0.37 0 0 0
0.234261 0.156725 0.65 255 255 255
-0.0575343 0.0996961 0.672 255 255 255
-0.11687 0.194882 0.554 255 255 255
-0.0512873 -0.0043111 0.691 255 255 255
-0.173726 0.110285 0.366 255 255 255
0.237062 -0.0377831 0.753 255 255 255
-0.113688 -0.14118 0.599 0 0 0
-0.226787 -0.0184185 0.763 255 255 255
0.189004 -0.158448 0.733 255 255 255
0.240646 -0.132606 0.68 255 255 255
-0.192142 -0.168009 0.65 255 255 255
-0.118247 -0.0182529 0.322 255 255 255
0.310943 -0.0413569 0.638 255 255 255
-0.114608 0.0734904 0.693 255 255 255
0.183225 0.18389 0.579 255 255 255
-0.143029 -0.189589 0.678 255 255 255
0.263234 -0.119535 0.651 255 255 255
0.0855863 0.0677482 0.569 255 255 255
0.12752 0.153272 0.64 255 255 255
0.267603 -0.221383 0.572 255 255 255
0.313859 0.16561 0.77 255 255 255
-0.116496 -0.246357 0.653 255 255 255
-0.175103 0.140594 0.382 255 255 255
0.152649 -0.160891 0.792 255 255 255
-0.140728 0.114766 0.652 255 255 255
0.122537 0.131884 0.658 255 255 255
-0.0718176 0.0902134 0.683 255 255 255
-0.157302 0.152945 0.598 255 255 255
-0.167322 -0.221731 0.617 255 255 255
0.0760651 0.0292578 0.596 0 0 0
-0.0545907 -0.217624 0.752 255 255 255
0.222304 -0.224794 0.646 255 255 255
-0.0339022 0.165724 0.602 0 0 0
-0.201391 -0.149276 0.656 255 255 255
-0.132491 -0.0653085 0.287 255 255 255
-0.0826936 0.0986025 0.672 255 255 255
0.202728 -0.173292 0.706 255 255 255
-0.133421 -0.0636613 0.288 255 255 255
0.222013 -0.184594 0.664 255 255 255
-0.143514 -0.0795834 0.275 255 255 255
-0.117805 0.0518816 0.37 255 255 255
0.183069 0.203907 0.564 255 255 255
0.0486541 0.174826 0.593 255 255 255
-0.110167 0.129142 0.629 255 255 255
0.0263187 0.179703 0.59 255 255 255
0.305872 0.0786021 0.73 255 255 255
0.302467 -0.123906 0.591 255 255 255
0.0784513 0.101438 0.571 255 255 255
-0.205711 0.0133507 0.807 255 255 255
-0.0545035 -0.000934934 0.689 255 255 255
0.0142171 -0.159473 0.567 255 255 255
0.0285756 -0.176326 0.559 255 255 255
0.0109707 0.177122 0.591 255 255 255
0.0361758 0.0744954 0.564 255 255 255
-0.0630901 -0.131651 0.6 255 255 255
0.216135 -0.213328 0.656 255 255 255
0.272919 -0.0567482 0.686 255 255 255
-0.155754 0.0406013 0.341 255 255 255
-0.126498 -0.0736089 0.283 255 255 255
0.23581 0.0464682 0.812 255 255 255
0.0522496 0.177782 0.59 255 255 255
-0.106011 -0.202288 0.711 255 255 255
-0.0658402 -0.0702067 0.636 0 0 0
-0.147356 0.0955849 0.381 255 255 255
0.235558 -0.197283 0.642 255 255 255
0.128864 -0.277057 0.744 255 255 255
-0.159245 -0.00092214 0.309 255 255 255
-0.127967 -0.0380103 0.304 255 255 255
-0.131797 0.166614 0.441 255 255 255
-0.144126 0.00167967 0.326 255 255 255
0.139007 0.171861 0.617 255 255 255
0.0436634 0.161077 0.618 255 255 255
0.0901774 -0.0715724 0.689 255 255 255
0.0322575 0.0423361 0.576 255 255 255
0.0922045 0.170747 0.613 255 255 255
0.235624 -0.0621665 0.737 255 255 255
-0.217581 -0.0835598 0.705 255 255 255
0.0834649 -0.0794901 0.68 0 0 0
-0.131746 0.00336151 0.335 255 255 255
0.143341 0.0152698 0.923 255 255 255
-0.0634419 0.198816 0.56 255 255 255
0.0637214 -0.00222925 0.747 255 255 255
-0.165939 0.0185979 0.316 255 255 255
-0.138594 -0.00989958 0.323 255 255 255
-0.13253 0.0974148 0.396 255 255 255
0.26872 -0.148625 0.622 255 255 255
0.122699 -0.205963 0.807 255 255 255
-0.229126 -0.169731 0.6 255 255 255
-0.156628 0.13188 0.395 255 255 255
-0.125378 -0.0636315 0.29 255 255 255
-0.0986447 0.0625181 0.684 255 255 255
0.280808 0.203785 0.582 255 255 255
-0.120253 -0.099519 0.272 255 255 255
-0.157047 0.0292645 0.332 255 255 255
-0.118993 -0.0757855 0.286 255 255 255
-0.000676531 0.0852571 0.697 255 255 255
-0.159206 0.0141024 0.319 255 255 255
0.276426 -0.169285 0.595 255 255 255
-0.000559084 0.191373 0.576 255 255 255
0.10837 -0.204585 0.828 255 255 255
0.295379 0.157254 0.791 255 255 255
0.307714 0.0112332 0.679 255 255 255
-0.137283 0.0960373 0.393 255 255 255
0.0677851 -0.0557076 0.701 255 255 255
-0.144808 0.0859886 0.676 255 255 255
0.0305856 -0.114481 0.618 255 255 255
-0.15906 -0.221596 0.628 255 255 255
-0.106137 -0.230491 0.675 255 255 255
-0.239442 -0.0922235 0.676 255 255 255
-0.110992 -0.0656808 0.595 255 255 255
0.166911 -0.0223141 0.866 255 255 255
0.256896 0.0998132 0.816 255 255 255
-0.157176 0.00576021 0.317 255 255 255
-0.220474 -0.120478 0.662 255 255 255
-0.17308 0.119037 0.371 255 255 255
0.150575 -0.0300385 0.886 255 255 255
0.253324 -0.160717 0.642 255 255 255
0.210339 0.184525 0.581 255 255 255
0.260281 0.0911704 0.81 255 255 255
0.182672 -0.0810023 0.805 255 255 255
0.118433 0.128867 0.659 255 255 255
0.079309 -0.0420784 0.702 255 255 255
0.156634 0.12357 0.671 255 255 255
0.267981 -0.149342 0.625 255 255 255
-0.224165 -0.20484 0.57 255 255 255
-0.139551 0.0604194 0.367 255 255 255
-0.118808 0.080716 0.387 255 255 255
0.133572 -0.238503 0.764 255 255 255
-0.0450541 -0.0817112 0.699 255 255 255
0.223622 -0.11716 0.714 255 255 255
-0.0961391 0.162281 0.593 255 255 255
0.223292 -0.133469 0.702 255 255 255
-0.0959147 0.19629 0.558 255 255 255
-0.217144 -0.136695 0.652 255 255 255
-0.149204 -0.0204666 0.308 255 255 255
-0.136246 0.00443853 0.334 255 255 255
0.0736786 -0.154659 0.898 255 255 255
0.303701 -0.0181624 0.663 255 255 255
0.0760284 0.0894592 0.56 255 255 255
-0.227085 -0.0159561 0.764 255 255 255
-0.18631 0.0935272 0.667 255 255 255
0.229275 0.0250453 0.803 255 255 255
0.19673 -0.0681806 0.793 255 255 255
0.251672 -0.148821 0.654 255 255 255
-0.14912 0.164539 0.421 0 0 0
-0.125337 -0.0624303 0.291 255 255 255
0.184863 0.115549 0.695 255 255 255
-0.190039 0.0598485 0.705 255 255 255
0.270881 0.200156 0.577 255 255 255
-0.24258 -0.0495601 0.711 255 255 255
-0.224698 -0.205407 0.569 255 255 255
0.0128708 0.00267903 0.76 255 255 255
0.114129 -0.131734 0.872 255 255 255
-0.143325 0.171987 0.577 255 255 255
0.0225913 -0.130115 0.593 255 255 255
-0.176478 0.147963 0.385 255 255 255
0.0530751 -0.18656 0.568 255 255 255
-0.0951652 0.0913249 0.683 255 255 255
0.274084 0.0366704 0.747 255 255 255
-0.0247092 0.0205881 0.737 255 255 255
0.209361 -0.156722 0.709 255 255 255
0.235353 -0.168956 0.662 255 255 255
-0.168892 0.0812042 0.351 255 255 255
0.236008 0.00275658 0.782 255 255 255
0.304726 -0.00418008 0.67 255 255 255
-0.0642118 -0.228564 0.736 255 255 255
0.023682 -0.184563 0.551 255 255 255
-0.127555 0.0773887 0.383 255 255 255
-0.107236 -0.23159 0.675 255 255 255
-0.134175 0.0550444 0.367 255 255 255
-0.130241 -0.220403 0.658 255 255 255
-0.126172 -0.073645 0.589 255 255 255
0.182531 -0.0978614 0.793 255 255 255
-0.0114345 0.0287868 0.732 255 255 255
-0.122388 0.0264449 0.352 255 255 255
0.119001 0.199014 0.548 255 255 255
-0.0877711 0.187525 0.57 255 255 255
0.00455193 -0.0752631 0.635 255 255 255
-0.129236 -0.0928019 0.577 255 255 255
0.316795 -0.0397499 0.629 255 255 255
-0.127687 0.090921 0.393 255 255 255
-0.0748753 0.136458 0.625 255 255 255
0.141254 -0.205824 0.772 255 255 255
0.306808 0.00348816 0.677 255 255 255
-0.0440024 0.0434862 0.719 255 255 255
-0.151313 0.0344972 0.341 255 255 255
0.124045 -0.119001 0.862 255 255 255
0.247904 -0.0651466 0.717 255 255 255
-0.130566 0.000630041 0.332 255 255 255
0.205996 -0.191822 0.69 255 255 255
-0.165225 0.120986 0.64 255 255 255
-0.245641 -0.110207 0.646 255 255 255
0.0910302 -0.140421 0.882 255 255 255
0.333849 0.157173 0.742 255 255 255
0.0364965 0.0816374 0.569 255 255 255
0.118158 -0.149514 0.86 255 255 255
-0.00463875 -0.104763 0.62 0 0 0
0.026051 -0.148098 0.584 255 255 255
-0.126045 -0.0538692 0.296 255 255 255
-0.0982834 -0.191324 0.731 255 255 255
-0.151462 0.152945 0.598 255 255 255
-0.182797 -0.208002 0.615 255 255 255
-0.00607614 0.109809 0.667 255 255 255
0.042826 -0.194934 0.555 255 255 255
0.229765 -0.22809 0.629 255 255 255
0.302572 -0.075095 0.625 255 255 255
-0.177178 0.128732 0.627 255 255 255
0.292686 0.152928 0.63 255 255 255
-0.158168 0.0146216 0.319 255 255 255
0.345308 0.161384 0.723 255 255 255
-0.0863871 -0.0442259 0.62 255 255 255
0.10729 0.182806 0.597 255 255 255
-0.173615 0.145583 0.387 255 255 255
-0.138197 0.0535564 0.365 255 255 255
-0.151282 0.0285235 0.336 255 255 255
-0.134802 -0.235876 0.639 255 255 255
0.137994 -0.257852 0.741 255 255 255
-0.221029 -0.169582 0.61 255 255 255
0.184574 -0.158405 0.744 255 255 255
0.165472 0.127175 0.667 0 0 0
-0.045372 0.201355 0.562 255 255 255
0.0633757 0.0838414 0.553 255 255 255
-0.121178 0.200271 0.549 255 255 255
0.264162 0.19246 0.585 255 255 255
-0.176616 -0.194404 0.636 255 255 255
-0.249366 -0.0975868 0.653 255 255 255
-0.118349 -0.0447339 0.306 255 255 255
0.226857 -0.216762 0.644 255 255 255
0.267424 0.155294 0.619 255 255 255
0.257781 -0.119386 0.656 255 255 255
-0.158313 0.110133 0.382 255 255 255
-0.138138 -0.0279472 0.64 255 255 255
0.282373 -0.0290077 0.69 255 255 255
-0.156782 0.120381 0.389 255 255 255
0.0456039 0.12134 0.591 255 255 255
-0.127361 -0.0878898 0.273 255 255 255
-0.0848187 -0.233695 0.708 255 255 255
0.0510419 0.142117 0.61 255 255 255
0.0230402 -0.150859 0.58 255 255 255
-0.118213 -0.182332 0.701 255 255 255
0.192486 0.170861 0.596 255 255 255
-0.116641 0.159066 0.438 255 255 255
-0.22976 -0.00356477 0.773 255 255 255
-0.226293 -0.0795498 0.7 255 255 255
0.0252249 0.110351 0.61 255 255 255
-0.11641 -0.0547886 0.603 255 255 255
-0.0885191 -0.124646 0.581 255 255 255
0.185267 0.0966318 0.714 255 255 255
0.21868 0.173771 0.596 255 255 255
-0.176257 0.0458263 0.719 255 255 255
-0.240859 -0.0805967 0.68 255 255 255
0.306602 -0.0651319 0.627 255 255 255
0.182383 -0.086791 0.798 255 255 255
-0.114989 0.192657 0.558 255 255 255
-0.170445 0.111583 0.652 255 255 255
0.153552 -0.194513 0.777 255 255 255
0.284017 0.0917191 0.781 255 255 255
0.0814213 0.173027 0.607 255 255 255
0.108581 0.193079 0.554 255 255 255
0.146357 -0.0483416 0.878 0 0 0
0.271415 0.0819692 0.785 255 255 255
-0.0978165 0.06605 0.686 255 255 255
0.194002 -0.138846 0.743 255 255 255
-0.23363 -0.0182736 0.757 255 255 255
0.0695248 -0.14198 0.901 255 255 255
0.225256 -0.133279 0.701 255 255 255
-0.155702 -0.00246214 0.313 255 255 255
0.217566 -0.0834514 0.745 255 255 255
-0.0654825 -0.00421128 0.675 0 0 0
-0.0731464 -0.196117 0.754 255 255 255
0.261293 0.0650645 0.797 255 255 255
0.216453 0.130417 0.684 255 255 255
-0.0152269 -0.0479569 0.688 255 255 255
-0.256945 -0.0118261 0.739 0 0 0
-0.156514 -0.23564 0.614 255 255 255
-0.13528 0.103296 0.667 255 255 255
-0.172502 -0.170547 0.664 255 255 255
-0.156002 -0.0236817 0.298 0 0 0
0.0933712 0.183162 0.595 255 255 255
-0.125833 0.123261 0.641 255 255 255
-0.153205 -0.021685 0.304 255 255 255
0.0690456 0.197352 0.541 255 255 255
0.23442 -0.106958 0.708 255 255 255
-0.152032 0.156414 0.414 0 0 0
-0.138218 -0.185398 0.687 255 255 255
-0.214508 -0.00493499 0.791 255 255 255
0.183718 0.200025 0.566 255 255 255
-0.224832 0.0593391 0.699 255 255 255
0.186862 0.0129325 0.867 255 255 255
0.101465 0.057234 0.575 255 255 255
0.349362 0.114219 0.687 255 255 255
0.190414 0.205743 0.564 255 255 255
0.221297 -0.126455 0.714 255 255 255
0.28286 0.120077 0.792 255 255 255
0.0780391 0.0981318 0.568 255 255 255
-0.00443674 0.173861 0.593 255 255 255
-0.120905 -0.0347247 0.31 255 255 255
0.319544 0.0960047 0.718 255 255 255
-0.0526847 -0.0142017 0.68 255 255 255
0.285628 -0.163062 0.59 255 255 255
-0.158494 0.0565621 0.347 255 255 255
-0.0405236 0.12403 0.645 255 255 255
-0.138646 -0.122648 0.585 0 0 0
-0.20791 -0.146469 0.653 255 255 255
-0.0474275 -0.071053 0.684 0 0 0
-0.168015 0.0731481 0.348 255 255 255
-0.0604608 -0.141141 0.603 255 255 255
0.292535 0.0268416 0.712 255 255 255
0.279759 -0.0929075 0.65 255 255 255
-0.111379 0.0549665 0.687 255 255 255
0.305503 0.00349846 0.679 255 255 255
-0.142927 0.0653749 0.368 255 255 255
-0.121634 0.086419 0.39 255 255 255
-0.165899 -0.186355 0.655 255 255 255
-0.227846 -0.146525 0.626 255 255 255
0.0880357 0.0722733 0.561 255 255 255
-0.146794 -0.218486 0.646 255 255 255
-0.144872 -0.0692187 0.282 255 255 255
-0.133399 -0.188726 0.691 255 255 255
-0.14362 0.168742 0.582 255 255 255
-0.197966 -0.0817712 0.73 255 255 255
0.175769 0.127557 0.669 255 255 255
-0.0696497 0.191735 0.566 255 255 255
-0.0183604 0.132649 0.641 255 255 255
-0.130777 0.0838649 0.387 255 255 255
0.211706 -0.120808 0.729 255 255 255
-0.158393 0.0383656 0.336 255 255 255
0.0820934 0.183255 0.577 255 255 255
0.279408 -0.0279253 0.691 255 255 255
-0.153075 0.160168 0.415 255 255 255
0.246073 -0.210345 0.616 255 255 255
-0.145587 0.113356 0.65 255 255 255
0.284373 -0.203432 0.561 255 255 255
-0.0442932 -0.00325118 0.705 255 255 255
-0.0195322 0.0472578 0.723 255 255 255
-0.22334 0.031815 0.809 255 255 255
0.273098 -0.0728696 0.67 255 255 255
0.285624 -0.108158 0.628 255 255 255
0.103553 -0.169515 0.855 255 255 255
0.267388 0.169473 0.612 255 255 255
-0.185048 -0.196441 0.626 255 255 255
-0.238697 -0.118294 0.65 255 255 255
-0.137897 -0.088569 0.271 255 255 255
-0.114928 0.173633 0.448 0 0 0
-0.0435128 -0.0622874 0.711 255 255 255
0.0507053 0.160072 0.618 255 255 255
0.0153548 -0.192132 0.542 255 255 255
-0.125622 0.0467651 0.363 255 255 255
-0.141992 0.15981 0.591 255 255 255
-0.213183 0.0834166 0.673 255 255 255
0.24075 -0.14916 0.665 255 255 255
-0.123707 -0.00260373 0.331 255 255 255
0.207463 0.214451 0.558 255 255 255
-0.148725 0.0364801 0.344 255 255 255
-0.180419 0.113118 0.358 255 255 255
0.136044 0.199569 0.552 255 255 255
-0.136994 -0.0459623 0.301 255 255 255
-0.182084 0.0969207 0.35 255 255 255
0.0831675 0.195091 0.547 255 255 255
-0.161042 0.013065 0.719 255 255 255
-0.0789386 -0.0912028 0.617 255 255 255
-0.211831 -0.20347 0.582 255 255 255
0.100817 0.19293 0.551 255 255 255
0.283509 0.189507 0.606 255 255 255
-0.149454 -0.0508895 0.29 255 255 255
0.27843 -0.144765 0.61 255 255 255
-0.0214538 -0.0071107 0.749 255 255 255
-0.0429346 0.164581 0.605 255 255 255
-0.155156 -0.116222 0.601 255 255 255
0.172666 -0.24106 0.696 255 255 255
-0.130609 0.148464 0.43 0 0 0
0.129541 -0.119007 0.852 255 255 255
-0.171711 0.103474 0.363 255 255 255
-0.153285 -0.215781 0.638 255 255 255
0.231782 -0.23617 0.618 255 255 255
-0.20173 -0.126139 0.675 255 255 255
-0.15931 0.105624 0.377 255 255 255
-0.0315603 -0.160903 0.678 255 255 255
0.15998 0.102297 0.705 0 0 0
-0.137392 0.150887 0.425 255 255 255
0.00713467 0.174532 0.592 255 255 255
0.249451 0.19023 0.584 255 255 255
-0.160577 0.0266136 0.326 255 255 255
0.192102 0.195529 0.569 255 255 255
-0.140692 -0.08478 0.273 255 255 255
0.178199 -0.219026 0.709 255 255 255
-0.0567554 0.0734069 0.703 255 255 255
0.267851 -0.0464486 0.699 255 255 255
0.204669 -0.00380457 0.825 255 255 255
-0.131216 0.134791 0.622 255 255 255
-0.0951073 0.104381 0.667 255 255 255
-0.148435 0.0617815 0.361 255 255 255
0.260603 0.0952423 0.811 255 255 255
-0.0185068 0.214839 0.552 255 255 255
-0.12097 -0.081438 0.283 255 255 255
-0.142663 -0.0683231 0.284 255 255 255
0.0713666 -0.039312 0.714 255 255 255
0.0173404 -0.185679 0.549 255 255 255
0.0201601 0.0100332 0.755 255 255 255
0.109277 0.205529 0.544 0 0 0
-0.113132 0.162309 0.441 255 255 255
-0.11275 0.126673 0.632 255 255 255
0.033945 -0.199556 0.543 255 255 255
-0.149521 0.107256 0.658 255 255 255
-0.174077 0.113882 0.368 255 255 255
-0.13798 0.0874171 0.386 255 255 255
-0.192024 -0.0877109 0.73 255 255 255
-0.0822742 0.180438 0.577 255 255 255
0.0956806 -0.276188 0.79 255 255 255
-0.156205 -0.0143582 0.306 255 255 255
-0.106744 -0.0230752 0.621 255 255 255
-0.216247 -0.0916856 0.697 255 255 255
0.324841 0.0329396 0.671 255 255 255
0.165308 -0.193856 0.75 255 255 255
-0.0989693 0.12437 0.636 255 255 255
-0.131376 0.169869 0.442 255 255 255
-0.0234481 -0.162634 0.667 255 255 255
-0.00602372 0.206474 0.561 255 255 255
0.249755 -0.0724962 0.709 255 255 255
0.137499 0.128571 0.663 255 255 255
-0.0655085 0.138049 0.623 255 255 255
-0.170168 0.121837 0.639 255 255 255
-0.096709 0.18964 0.568 255 255 255
-0.100707 -0.0368636 0.615 255 255 255
0.0115648 0.147173 0.623 255 255 255
0.160658 0.171189 0.604 255 255 255
0.258968 -0.00101635 0.749 255 255 255
-0.124084 -0.20914 0.677 255 255 255
-0.238948 -0.200887 0.559 255 255 255
-0.0412334 0.194261 0.568 255 255 255
-0.158932 0.0937753 0.369 255 255 255
-0.111697 0.157285 0.441 255 255 255
0.287922 0.216445 0.568 255 255 255
-0.228804 -0.198347 0.57 255 255 255
0.216826 0.141498 0.668 255 255 255
-0.138426 0.170792 0.437 0 0 0
0.0598827 -0.0637837 0.702 255 255 255
-0.064805 -0.0996641 0.626 255 255 255
0.028408 0.195379 0.574 255 255 255
0.0184002 0.213815 0.554 255 255 255
0.195587 -0.191458 0.701 255 255 255
-0.120657 -0.0191555 0.625 255 255 255
-0.0569282 -0.187017 0.767 255 255 255
0.285943 0.137695 0.797 255 255 255
0.298001 0.131118 0.781 255 255 255
0.332015 0.138 0.73 255 255 255
0.150045 0.00764199 0.909 255 255 255
-0.113319 0.121256 0.647 255 255 255
-0.128599 -0.0269971 0.314 255 255 255
-0.0376198 -0.135954 0.709 0 0 0
0.211366 0.199933 0.571 255 255 255
0.292417 -0.125233 0.602 255 255 255
0.168706 0.209158 0.556 255 255 255
-0.0902622 0.0751994 0.688 255 255 255
0.171533 -0.256917 0.696 255 255 255
-0.184265 0.122218 0.641 255 255 255
0.286364 -0.073146 0.653 255 255 255
-0.104104 0.103606 0.669 255 255 255
-0.122705 0.151782 0.605 255 255 255
-0.115025 0.161225 0.44 255 255 255
