ply
format ascii 1.0
comment Created by Open3D
element vertex 1275
property double x
property double y
property double z
property uchar red
property uchar green
property uchar blue
end_header
0.234765 -0.234067 0.679 255 255 255
-0.00875461 -0.223325 0.708 255 255 255
-0.122759 0.145338 0.402 255 255 255
-0.145691 0.127833 0.372 255 255 255
-0.0329121 0.179472 0.568 255 255 255
-0.0343528 0.137153 0.61 255 255 255
-0.119013 0.0328978 0.336 255 255 255
0.0620688 0.167135 0.583 255 255 255
0.307689 -0.12656 0.623 255 255 255
-0.109017 0.0529636 0.357 255 255 255
0.202129 -0.238368 0.733 255 255 255
-0.131658 0.0558081 0.712 255 255 255
-0.139859 -0.176911 0.629 255 255 255
-0.11539 -0.0916717 0.261 0 0 0
0.269263 0.197761 0.547 0 0 0
-0.137641 0.0362431 0.322 255 255 255
-0.0981397 0.0878171 0.385 255 255 255
0.290457 -0.194788 0.602 255 255 255
0.14451 0.182797 0.564 255 255 255
-0.103305 -0.0495087 0.293 255 255 255
-0.118252 -0.0347185 0.297 255 255 255
0.0578102 -0.182767 0.543 255 255 255
-0.152878 0.0666795 0.33 255 255 255
-0.0539454 -0.0383596 0.607 255 255 255
0.238799 -0.0817525 0.787 255 255 255
-0.0248898 -0.0124789 0.648 255 255 255
-0.113218 0.153415 0.415 255 255 255
-0.182555 -0.0687037 0.694 255 255 255
-0.0997689 -0.214442 0.628 255 255 255
-0.151582 0.0111589 0.296 255 255 255
0.181986 0.166981 0.603 0 0 0
0.283803 -0.154732 0.652 255 255 255
0.095943 0.183814 0.57 0 0 0
0.246628 -0.140589 0.727 255 255 255
0.033223 0.144338 0.611 255 255 255
-0.190525 -0.118742 0.641 255 255 255
0.137934 0.0517236 0.556 255 255 255
-0.115851 -0.0276075 0.777 255 255 255
0.198889 -0.217839 0.757 255 255 255
0.0465623 0.126272 0.63 255 255 255
-0.168566 0.077639 0.322 255 255 255
0.287242 -0.0538516 0.722 255 255 255
-0.13688 -0.0502687 0.269 255 255 255
0.168769 -0.126235 0.854 255 255 255
-0.163867 0.0578258 0.314 255 255 255
-0.085159 0.0735414 0.683 255 255 255
-0.134296 -0.216234 0.591 255 255 255
-0.0882781 0.0848679 0.383 255 255 255
-0.181194 -0.161748 0.603 255 255 255
0.100976 -0.15486 0.567 255 255 255
-0.10858 0.106365 0.391 255 255 255
-0.16585 0.134091 0.358 0 0 0
-0.122155 0.0820672 0.365 255 255 255
-0.127183 0.0663532 0.351 255 255 255
-0.140151 -0.0298902 0.279 255 255 255
-0.123597 -0.0965811 0.256 255 255 255
0.372894 0.181546 0.738 255 255 255
-0.107475 0.0814811 0.376 255 255 255
0.0354767 -0.0506338 0.694 255 255 255
0.0593257 0.0336512 0.709 255 255 255
0.336567 0.0711807 0.727 255 255 255
0.266522 -0.0993978 0.72 255 255 255
0.22882 -0.0837262 0.806 255 255 255
0.324255 -0.0630953 0.648 255 255 255
0.287892 -0.00227103 0.761 255 255 255
-0.127333 0.0719013 0.353 255 255 255
0.198194 -0.0992455 0.826 255 255 255
0.122566 -0.0553075 0.682 255 255 255
-0.0581097 0.147352 0.599 255 255 255
0.319699 -0.0178564 0.693 255 255 255
0.342457 0.0456237 0.698 255 255 255
-0.0270585 -0.0344117 0.625 255 255 255
-0.173367 -0.159655 0.61 255 255 255
0.227891 0.162612 0.605 255 255 255
-0.108652 0.133564 0.408 255 255 255
-0.0551144 0.138911 0.609 255 255 255
-0.124768 -0.0280524 0.293 255 255 255
-0.115442 -0.0584113 0.283 255 255 255
-0.0955261 0.170402 0.436 255 255 255
0.0377152 0.162827 0.588 0 0 0
-0.14691 0.0938041 0.349 255 255 255
-0.122829 0.0342298 0.333 255 255 255
-0.125357 0.116972 0.382 255 255 255
-0.165375 0.0783624 0.325 255 255 255
-0.127993 0.0599502 0.347 255 255 255
-0.15651 0.064539 0.322 255 255 255
-0.164396 0.062308 0.316 255 255 255
0.271067 -0.177014 0.652 255 255 255
0.0864111 -0.00715816 0.754 255 255 255
-0.125642 0.00161269 0.313 255 255 255
0.250239 -0.187659 0.679 255 255 255
-0.167144 0.0985117 0.336 255 255 255
0.0762286 0.0293228 0.716 255 255 255
0.225751 0.191897 0.543 255 255 255
0.0697599 0.206577 0.533 255 255 255
-0.0917199 0.0939413 0.387 255 255 255
-0.0357457 -0.210177 0.695 255 255 255
-0.0628922 0.156394 0.589 255 255 255
-0.00439933 -0.138587 0.588 255 255 255
0.0630249 -0.0163214 0.725 255 255 255
-0.0531234 -0.0695739 0.587 255 255 255
0.303238 -0.162553 0.606 255 255 255
-0.044627 -0.092641 0.576 255 255 255
0.053049 -0.184183 0.558 255 255 255
-0.0204248 -0.120864 0.581 0 0 0
-0.117212 -0.0426872 0.292 0 0 0
0.27001 -0.224102 0.618 255 255 255
0.0109434 0.207419 0.542 255 255 255
-0.134175 0.101031 0.367 255 255 255
0.254439 -0.204044 0.664 255 255 255
-0.0824882 0.125545 0.41 255 255 255
-0.121843 -0.0319756 0.294 255 255 255
-0.127604 -0.0664058 0.267 255 255 255
-0.0615399 -0.172443 0.68 255 255 255
0.30575 -0.112995 0.638 255 255 255
0.140471 -0.00784025 0.705 255 255 255
-0.113032 0.130294 0.4 255 255 255
-0.123359 -0.0859115 0.259 255 255 255
-0.0634055 0.141467 0.603 255 255 255
0.0340595 0.161734 0.591 0 0 0
-0.180711 -0.205436 0.559 255 255 255
-0.125151 -0.0614585 0.274 255 255 255
-0.147893 0.073578 0.337 255 255 255
-0.114137 -0.0888589 0.264 255 255 255
0.108317 0.0215214 0.728 255 255 255
0.335179 0.0602832 0.724 255 255 255
-0.123281 -0.0300975 0.776 255 255 255
-0.00673239 -0.0671726 0.627 255 255 255
0.257823 -0.077711 0.76 255 255 255
0.146346 0.0341116 0.564 255 255 255
0.292387 -0.184248 0.606 255 255 255
-0.104727 -0.0143132 0.316 255 255 255
-0.0348713 0.069693 0.678 255 255 255
-0.111508 -0.0282086 0.305 255 255 255
0.284224 0.152867 0.634 255 255 255
0.066876 -0.187457 0.524 255 255 255
0.272199 -0.121674 0.687 255 255 255
0.181304 -0.244114 0.766 255 255 255
0.112927 0.027576 0.581 255 255 255
0.0424468 -0.105892 0.679 255 255 255
-0.0018371 -0.229913 0.707 255 255 255
-0.0957536 -0.0727608 0.278 255 255 255
0.236399 -0.244407 0.668 255 255 255
-0.124891 0.104454 0.375 255 255 255
-0.0329431 0.193631 0.553 255 255 255
-0.0553688 -0.0497167 0.601 255 255 255
0.350123 0.187786 0.716 255 255 255
-0.102384 0.0854798 0.672 255 255 255
0.204128 0.168922 0.596 255 255 255
-0.154486 -0.145272 0.643 255 255 255
0.0322725 -0.117942 0.698 255 255 255
-0.0914706 -0.0839151 0.276 255 255 255
-0.0534147 0.186057 0.56 255 255 255
-0.126766 -0.0879731 0.254 255 255 255
-0.128837 -0.0154376 0.298 255 255 255
-0.098862 0.109565 0.398 255 255 255
0.0620005 0.208797 0.541 255 255 255
-0.0446154 -0.126506 0.564 255 255 255
-0.0600568 0.191276 0.554 255 255 255
0.312673 0.105535 0.799 255 255 255
-0.179794 -0.150956 0.615 255 255 255
0.251229 -0.0465341 0.798 255 255 255
-0.105287 0.00490748 0.329 255 255 255
-0.178655 -0.202684 0.564 255 255 255
0.0813607 -0.0847643 0.614 255 255 255
0.154327 -0.0287975 0.685 255 255 255
-0.102912 0.0472861 0.358 255 255 255
0.11229 0.119319 0.559 255 255 255
-0.149677 0.01023 0.297 255 255 255
0.306069 0.0146904 0.742 255 255 255
0.146774 -0.031954 0.681 255 255 255
0.12321 0.0438156 0.559 255 255 255
-0.184101 -0.0107961 0.751 255 255 255
0.0452178 -0.123764 0.64 255 255 255
0.0555539 0.189558 0.565 255 255 255
-0.135692 -0.0510834 0.271 255 255 255
0.128556 -0.0638599 0.667 0 0 0
-0.09693 -0.0287991 0.306 255 255 255
-0.155702 0.0459265 0.313 255 255 255
-0.128078 0.0242662 0.323 255 255 255
-0.0260787 -0.206334 0.709 255 255 255
0.113872 0.027576 0.581 255 255 255
0.0531262 0.00857134 0.735 255 255 255
0.305187 -0.162016 0.604 255 255 255
0.247792 -0.228991 0.655 255 255 255
0.0988116 -0.197588 0.526 255 255 255
0.188187 0.164309 0.604 255 255 255
-0.000673619 0.0623028 0.694 255 255 255
-0.125568 0.109336 0.645 255 255 255
0.071693 -0.132257 0.569 255 255 255
0.225681 0.161174 0.607 255 255 255
0.241155 -0.105748 0.766 255 255 255
0.23521 -0.140341 0.751 255 255 255
-0.0878827 -0.0272453 0.311 255 255 255
0.207522 0.194146 0.537 255 255 255
0.337563 0.0390309 0.702 255 255 255
0.096531 0.0426724 0.568 255 255 255
-0.0168458 -0.212103 0.709 255 255 255
-0.137748 -0.189987 0.615 255 255 255
-0.00941734 0.0450849 0.673 255 255 255
0.108544 0.147517 0.588 255 255 255
0.255858 0.168797 0.599 255 255 255
0.0974573 -0.00470415 0.754 255 255 255
0.10909 0.126339 0.566 255 255 255
0.308364 -0.0616031 0.678 255 255 255
-0.130209 -0.16803 0.642 255 255 255
-0.104935 -0.0646296 0.282 255 255 255
0.0615035 0.0201411 0.721 255 255 255
0.274597 0.127938 0.671 255 255 255
-0.0603606 -0.0449012 0.602 255 255 255
0.201492 0.116716 0.657 255 255 255
0.207913 -0.255586 0.708 255 255 255
-0.136029 -0.0370214 0.278 255 255 255
-0.115713 -0.0952855 0.257 0 0 0
0.270554 0.15009 0.631 255 255 255
-0.149409 -0.00133275 0.289 255 255 255
0.361284 0.190534 0.722 255 255 255
-0.135824 0.0554805 0.337 255 255 255
-0.0491694 0.148803 0.597 255 255 255
0.149238 0.0129741 0.714 255 255 255
-0.130019 -0.107565 0.697 255 255 255
-0.0905811 0.0232344 0.708 255 255 255
0.0889261 -0.0456566 0.655 255 255 255
-0.1244 0.114558 0.639 255 255 255
-0.0823122 0.156161 0.43 255 255 255
-0.0901477 0.0322808 0.347 255 255 255
0.0517359 0.0696762 0.7 255 255 255
-0.142897 0.00981227 0.299 255 255 255
0.152314 0.174013 0.587 255 255 255
0.00430104 0.150527 0.6 255 255 255
-0.173957 0.134708 0.352 255 255 255
0.268139 -0.0797072 0.744 255 255 255
0.318926 0.00251688 0.714 255 255 255
0.262451 -0.190132 0.657 255 255 255
-0.136296 -0.0546744 0.267 255 255 255
0.153879 -0.188637 0.841 255 255 255
-0.132063 -0.0590237 0.269 255 255 255
0.0500928 0.0624956 0.709 255 255 255
0.0706924 0.0898649 0.664 255 255 255
0.207568 0.138575 0.63 255 255 255
0.224784 -0.208951 0.714 255 255 255
0.0508252 0.124616 0.632 255 255 255
-0.103015 -0.157106 0.662 255 255 255
0.0698114 -0.159189 0.547 255 255 255
-0.129461 -0.0205629 0.295 255 255 255
-0.114834 0.122238 0.395 255 255 255
-0.0970511 -0.207149 0.637 255 255 255
0.260808 -0.217098 0.645 255 255 255
-0.0710815 0.0837884 0.676 255 255 255
-0.150901 0.147508 0.379 255 255 255
-0.0654742 -0.222979 0.653 255 255 255
-0.0739327 -0.180719 0.682 255 255 255
-0.137007 -0.0327312 0.28 255 255 255
-0.042012 -0.0643863 0.592 255 255 255
0.035833 -0.157466 0.659 255 255 255
0.205727 0.132858 0.637 255 255 255
-0.0951688 0.12688 0.41 255 255 255
-0.0425403 -0.238258 0.66 255 255 255
-0.155853 0.132323 0.366 255 255 255
0.108494 0.10825 0.549 255 255 255
-0.138203 -0.0562082 0.264 255 255 255
0.325962 -0.0363388 0.66 255 255 255
-0.11574 -0.0362902 0.298 255 255 255
-0.126083 0.143813 0.396 255 255 255
0.178835 0.18042 0.571 255 255 255
0.018394 0.14105 0.614 255 255 255
0.00768905 0.117493 0.638 255 255 255
-0.14039 0.14258 0.384 255 255 255
0.230927 -0.233565 0.684 255 255 255
0.302853 0.000200896 0.743 255 255 255
0.235393 -0.171564 0.718 255 255 255
-0.108518 0.0153091 0.334 255 255 255
-0.100598 -0.0854079 0.268 255 255 255
-0.0076682 0.199906 0.548 255 255 255
-0.00780248 0.122365 0.631 255 255 255
0.211763 -0.123075 0.806 255 255 255
-0.11957 0.153193 0.409 255 255 255
-0.156102 0.026532 0.301 255 255 255
-0.0848189 0.0271202 0.346 255 255 255
-0.0941625 -0.160704 0.668 255 255 255
-0.109767 0.0307923 0.343 255 255 255
-0.107434 0.174125 0.581 255 255 255
0.295516 0.0765763 0.809 255 255 255
0.0543318 -0.0659412 0.625 255 255 255
-0.0713915 0.191137 0.551 255 255 255
0.192777 -0.212106 0.772 255 255 255
-0.0311995 0.158042 0.588 255 255 255
0.148121 0.156704 0.605 255 255 255
-0.1574 0.124881 0.36 255 255 255
-0.168901 -0.0346285 0.738 255 255 255
-0.120615 0.0171168 0.327 255 255 255
0.130076 0.161974 0.599 255 255 255
0.110844 0.0256408 0.58 255 255 255
-0.0965124 0.111139 0.399 255 255 255
0.301969 -0.0640921 0.681 255 255 255
0.286852 0.161626 0.624 255 255 255
-0.100345 -0.0637118 0.282 255 255 255
-0.133795 -0.0788795 0.254 255 255 255
0.262021 -0.211781 0.648 255 255 255
-0.0135123 0.0226988 0.659 255 255 255
-0.129814 -0.190025 0.625 255 255 255
0.203444 -0.176973 0.789 255 255 255
-0.136449 0.0269955 0.318 255 255 255
0.117467 0.122703 0.562 255 255 255
0.266285 -0.208513 0.638 255 255 255
0.263104 0.164678 0.609 255 255 255
0.259756 -0.101331 0.734 255 255 255
-0.104961 -0.0867162 0.268 255 255 255
-0.0983458 -0.0954338 0.262 255 255 255
0.312663 -0.0545776 0.673 255 255 255
-0.10773 -0.0569017 0.287 255 255 255
-0.0842187 -0.201857 0.65 255 255 255
-0.110728 -0.00148955 0.323 255 255 255
-0.184862 0.02052 0.78 255 255 255
-0.103145 0.00437209 0.329 255 255 255
-0.17718 -0.00472911 0.758 255 255 255
0.137753 0.177266 0.582 255 255 255
-0.0609586 0.191276 0.554 255 255 255
0.323452 0.107826 0.778 255 255 255
-0.149677 0.0116799 0.297 255 255 255
0.0346068 0.16457 0.584 255 255 255
0.283242 -0.178837 0.625 255 255 255
0.073176 -0.0429745 0.698 255 255 255
0.036266 0.143579 0.612 255 255 255
-0.041669 -0.13809 0.574 255 255 255
-0.0220474 0.172961 0.574 255 255 255
0.0177024 0.0599334 0.706 255 255 255
0.0939817 -0.165434 0.553 255 255 255
0.334253 0.0507173 0.722 255 255 255
-0.135076 0.0216833 0.316 255 255 255
-0.186725 -0.100323 0.657 255 255 255
0.200974 -0.274409 0.712 255 255 255
0.343884 0.0302827 0.685 255 255 255
0.019092 -0.237169 0.715 255 255 255
-0.131655 -0.00724186 0.3 255 255 255
-0.112614 -0.059542 0.284 255 255 255
-0.16713 0.134878 0.357 255 255 255
0.23183 -0.226631 0.69 255 255 255
0.205048 -0.220119 0.748 255 255 255
0.0558916 0.0714405 0.695 255 255 255
-0.161939 0.0980246 0.34 255 255 255
0.217884 -0.260659 0.685 255 255 255
-0.130548 -0.102061 0.706 255 255 255
-0.101412 -0.0606793 0.285 255 255 255
0.251362 -0.131124 0.727 255 255 255
-0.132264 0.128832 0.384 255 255 255
0.0148149 -0.00534119 0.679 255 255 255
0.287531 0.165697 0.588 255 255 255
-0.10883 0.00760749 0.33 255 255 255
-0.0461258 -0.196318 0.698 255 255 255
0.24634 -0.118451 0.744 255 255 255
0.252249 0.133454 0.65 255 255 255
0.261901 -0.0422643 0.791 255 255 255
-0.0959894 -0.0832769 0.271 255 255 255
-0.117596 -0.0742889 0.272 255 255 255
0.279331 -0.092738 0.705 255 255 255
0.292913 -0.0980129 0.678 255 255 255
-0.119572 0.114916 0.641 255 255 255
0.127759 0.042906 0.559 255 255 255
-0.109914 -0.0620956 0.283 255 255 255
0.0653612 -0.108739 0.587 255 255 255
-0.161912 -0.0406884 0.739 255 255 255
-0.153148 -0.0896737 0.699 255 255 255
-0.0597623 -0.196006 0.685 255 255 255
-0.136257 0.0146822 0.808 255 255 255
0.130112 0.0845949 0.535 255 255 255
-0.0623782 0.00854484 0.643 255 255 255
0.069299 -0.155587 0.55 255 255 255
-0.151208 -0.198028 0.597 255 255 255
-0.150398 7.84118e-05 0.29 255 255 255
-0.00511759 -0.248035 0.684 255 255 255
-0.11883 -0.0460111 0.289 255 255 255
-0.174423 -0.116357 0.651 255 255 255
-0.145248 0.0383803 0.318 255 255 255
-0.114264 -0.0675742 0.279 255 255 255
-0.00612169 0.0406436 0.672 255 255 255
0.283226 -0.228737 0.591 255 255 255
0.252057 -0.222596 0.655 255 255 255
0.206738 -0.269035 0.704 255 255 255
-0.0547606 0.1084 0.652 255 255 255
0.0603859 0.168877 0.576 255 255 255
-0.118624 -0.0530718 0.284 255 255 255
0.352436 0.117482 0.728 255 255 255
-0.124586 0.0539416 0.718 255 255 255
0.247054 -0.248476 0.642 255 255 255
0.129269 0.193469 0.528 255 255 255
0.286193 0.0539276 0.805 255 255 255
-0.135417 -0.165685 0.637 255 255 255
0.175865 -0.126728 0.848 255 255 255
0.32506 0.0583163 0.744 255 255 255
-0.0418111 -0.0508635 0.603 255 255 255
0.130337 0.172102 0.587 255 255 255
-0.120245 0.0494051 0.72 255 255 255
-0.0915121 0.049755 0.359 255 255 255
0.265396 -0.183204 0.659 255 255 255
0.209009 -0.165012 0.781 255 255 255
-0.0973228 -0.0566313 0.288 255 255 255
0.330546 -0.0484814 0.65 255 255 255
-0.0588007 -0.1311 0.568 255 255 255
-0.0922282 -0.0227633 0.312 255 255 255
0.239266 0.172102 0.587 255 255 255
-0.0411608 -0.11057 0.567 255 255 255
-0.115895 0.0753266 0.364 255 255 255
-0.167191 0.0971282 0.335 255 255 255
-0.13042 0.0235936 0.321 255 255 255
0.176405 -0.232967 0.783 255 255 255
0.0216992 -0.0199378 0.687 255 255 255
-0.057978 -0.0924411 0.569 255 255 255
-0.110903 -0.0637118 0.282 255 255 255
0.00334097 0.147355 0.603 0 0 0
0.313723 0.0826104 0.779 255 255 255
0.290367 -0.0251564 0.742 255 255 255
0.0164752 0.136719 0.617 255 255 255
-0.0669758 0.0786355 0.679 255 255 255
0.117678 0.05879 0.546 255 255 255
-0.0985655 -0.0724991 0.277 255 255 255
0.222058 -0.172346 0.752 255 255 255
0.33098 0.010337 0.693 255 255 255
-0.12224 0.132828 0.394 255 255 255
0.163208 -0.166538 0.854 255 255 255
-0.117285 -0.0556481 0.283 255 255 255
-0.0126472 0.0437936 0.67 255 255 255
0.177706 -0.263071 0.756 255 255 255
-0.185637 -0.207355 0.552 255 255 255
0.198194 -0.134194 0.826 255 255 255
-0.113716 0.0462294 0.35 255 255 255
0.0501215 0.15515 0.599 255 255 255
0.0261347 0.122559 0.632 255 255 255
-0.0935957 -0.0453515 0.297 255 255 255
-0.158191 0.0787318 0.331 255 255 255
-0.00458638 -0.0965969 0.613 255 255 255
0.2691 -0.213075 0.63 255 255 255
0.106514 0.181002 0.567 255 255 255
-0.102672 -0.21206 0.627 255 255 255
0.260166 0.185146 0.56 255 255 255
-0.157439 0.0683136 0.325 255 255 255
0.237569 -0.172932 0.714 255 255 255
0.311746 -0.132941 0.615 255 255 255
0.321915 -0.0909294 0.629 255 255 255
0.326813 0.0500227 0.729 255 255 255
0.303636 -0.169448 0.599 255 255 255
-0.129138 -0.055903 0.273 255 255 255
-0.00360024 -0.0949104 0.615 255 255 255
-0.0886739 0.135714 0.608 255 255 255
0.091099 0.0468777 0.563 255 255 255
0.0845359 0.196491 0.556 255 255 255
-0.0865106 0.00334144 0.333 255 255 255
0.0294473 0.158956 0.595 255 255 255
0.0144899 0.132918 0.618 255 255 255
0.0276201 -0.223968 0.725 255 255 255
0.115309 0.0813701 0.531 255 255 255
0.161787 0.184064 0.554 255 255 255
-0.0990229 0.091186 0.386 255 255 255
0.319857 -0.088138 0.631 255 255 255
0.0123275 0.184041 0.565 255 255 255
0.323292 0.0713702 0.754 255 255 255
-0.117596 0.0238618 0.332 255 255 255
-0.00400417 0.0525003 0.684 255 255 255
0.27843 -0.107565 0.697 255 255 255
0.0817441 0.130293 0.588 255 255 255
0.28708 0.164765 0.595 255 255 255
-0.146289 0.0178328 0.303 255 255 255
0.203292 -0.26514 0.712 255 255 255
-0.129456 0.0491898 0.339 0 0 0
0.0274339 0.14128 0.615 255 255 255
0.247724 -0.171819 0.7 255 255 255
0.18827 -0.200338 0.79 255 255 255
-0.0758707 -0.212762 0.651 255 255 255
0.116348 0.193709 0.524 255 255 255
-0.138551 -0.0698917 0.73 255 255 255
0.244432 -0.157681 0.724 255 255 255
0.0296754 0.136375 0.62 255 255 255
0.152184 0.192699 0.533 255 255 255
-0.137821 0.0090165 0.305 255 255 255
0.251544 -0.0452922 0.799 255 255 255
-0.0574465 0.203262 0.538 255 255 255
-0.143256 0.0237385 0.803 255 255 255
0.0414024 -0.127073 0.68 255 255 255
0.183859 -0.251999 0.756 255 255 255
-0.104114 0.00168483 0.327 255 255 255
-0.117568 0.0289838 0.335 255 255 255
-0.116288 0.110945 0.387 255 255 255
-0.00145772 0.189129 0.561 255 255 255
0.0970319 -0.164226 0.555 255 255 255
0.00146239 0.115778 0.64 255 255 255
0.040777 -0.195567 0.62 255 255 255
0.0831722 -0.153584 0.559 255 255 255
0.175696 0.160643 0.605 255 255 255
-0.0129694 0.163227 0.586 255 255 255
0.341071 0.0803124 0.724 255 255 255
-0.00159804 0.137277 0.615 255 255 255
-0.0497213 -0.0653497 0.592 255 255 255
0.0560652 -0.0994303 0.6 255 255 255
0.233574 0.124697 0.654 0 0 0
0.173341 -0.249504 0.775 255 255 255
0.221901 0.184861 0.551 255 255 255
0.137614 0.0966412 0.544 255 255 255
-0.0172719 -0.100909 0.603 255 255 255
0.251803 0.197717 0.542 255 255 255
-0.0997569 0.0347386 0.349 255 255 255
-0.0316771 -0.0863034 0.597 255 255 255
-0.157511 0.0941515 0.34 255 255 255
0.283841 -0.148435 0.657 255 255 255
0.265026 -0.0291692 0.785 255 255 255
-0.162959 0.120729 0.353 255 255 255
-0.0633262 -0.235939 0.642 255 255 255
-0.099208 -0.0455261 0.295 255 255 255
-0.116567 -0.0793689 0.719 255 255 255
0.278612 -0.216711 0.617 255 255 255
-0.0855122 0.0653041 0.371 255 255 255
-0.0310934 -0.1076 0.586 255 255 255
0.302846 -0.0737397 0.678 255 255 255
-0.163418 0.0498041 0.709 255 255 255
0.273407 -0.18351 0.645 255 255 255
0.131708 -0.0544965 0.672 255 255 255
0.0930658 0.176016 0.581 0 0 0
-0.156873 -0.0720468 0.716 255 255 255
0.133274 0.186529 0.548 255 255 255
-0.0836544 0.186203 0.555 255 255 255
0.264178 -0.105256 0.72 255 255 255
0.146892 -0.0857662 0.652 255 255 255
-0.141975 0.103517 0.648 255 255 255
0.0851336 0.197587 0.554 255 255 255
0.238907 -0.091063 0.779 255 255 255
-0.0864288 -0.0501561 0.294 255 255 255
-0.104407 0.092026 0.664 255 255 255
-0.0177016 -0.0561515 0.618 255 255 255
0.207112 -0.226784 0.738 255 255 255
-0.0976272 -0.186192 0.662 255 255 255
-0.159584 -0.105736 0.678 255 255 255
-0.142607 -0.125226 0.676 255 255 255
0.245659 -0.236453 0.655 255 255 255
0.303991 -0.0374555 0.701 255 255 255
0.281679 -0.224409 0.6 255 255 255
-0.0914706 -0.0807711 0.276 255 255 255
0.206405 -0.199438 0.762 255 255 255
0.0742129 0.111345 0.589 255 255 255
0.337428 0.0308132 0.697 255 255 255
0.28145 -0.0219693 0.757 255 255 255
0.279164 -0.106278 0.696 255 255 255
-0.125606 0.111119 0.379 255 255 255
-0.13744 -0.170555 0.632 255 255 255
0.00953469 0.0671091 0.697 255 255 255
0.221946 -0.159338 0.76 255 255 255
-0.058048 -0.203933 0.678 255 255 255
0.136325 0.174074 0.584 0 0 0
0.265418 -0.201666 0.646 255 255 255
-0.108639 0.142594 0.413 255 255 255
0.0816113 0.136456 0.594 255 255 255
0.228661 0.18542 0.55 255 255 255
-0.140348 0.0376976 0.321 255 255 255
-0.0987214 -0.0678164 0.28 255 255 255
-0.0458564 0.179472 0.568 255 255 255
0.191007 -0.281374 0.727 255 255 255
-0.0844382 -0.0145396 0.321 255 255 255
0.100016 -0.109194 0.6 255 255 255
0.0718941 0.134175 0.61 255 255 255
0.206556 0.185849 0.546 255 255 255
0.0802149 -0.127544 0.577 255 255 255
0.278541 -0.062764 0.73 255 255 255
-0.111569 0.0208065 0.335 255 255 255
-0.0962324 0.046573 0.357 255 255 255
0.045635 0.0132648 0.73 255 255 255
0.286112 -0.222539 0.595 255 255 255
0.0909371 0.192209 0.562 255 255 255
-0.0117789 -0.059743 0.624 255 255 255
0.159403 0.0435967 0.568 255 255 255
-0.043056 -0.228101 0.668 255 255 255
-0.10211 0.160493 0.583 255 255 255
0.249785 -0.219831 0.666 255 255 255
-0.108852 0.0929703 0.383 255 255 255
0.158582 -0.0543344 0.67 255 255 255
-0.130197 0.0341452 0.327 255 255 255
-0.1458 0.00682368 0.296 255 255 255
-0.0579624 -0.205835 0.677 255 255 255
0.299962 -0.089757 0.674 255 255 255
-0.0528519 -0.0730198 0.584 255 255 255
-0.12141 -0.00697879 0.31 0 0 0
-0.100081 0.00114916 0.326 255 255 255
0.262889 -0.179452 0.669 255 255 255
0.298889 0.0484449 0.78 255 255 255
-0.051223 -0.118378 0.556 255 255 255
-0.00145512 0.189703 0.56 255 255 255
0.0743992 -0.162155 0.548 255 255 255
0.0475903 -0.143341 0.604 255 255 255
-0.0635423 0.103569 0.655 255 255 255
0.0610187 -0.161263 0.548 255 255 255
-0.0471266 -0.196888 0.696 255 255 255
0.0828746 0.0962313 0.557 255 255 255
0.244592 -0.148815 0.721 255 255 255
-0.0531577 -0.0796563 0.577 255 255 255
-0.00192804 -0.194203 0.742 255 255 255
0.202568 -0.203048 0.771 255 255 255
0.288472 -0.162328 0.632 255 255 255
0.0163569 0.202731 0.546 255 255 255
0.0861804 0.197852 0.517 255 255 255
-0.110672 -0.0886663 0.266 255 255 255
-0.122463 -0.0876791 0.258 255 255 255
0.274251 -0.17277 0.652 255 255 255
-0.1704 -0.088006 0.686 255 255 255
0.0421968 -0.0997762 0.675 255 255 255
-0.0228988 -0.232112 0.683 255 255 255
-0.086768 0.111975 0.402 255 255 255
-0.133728 0.00507891 0.307 255 255 255
0.0742072 0.0259355 0.719 255 255 255
-0.0841542 0.147832 0.597 255 255 255
0.127103 0.00966111 0.727 255 255 255
-0.122445 -0.0702276 0.27 255 255 255
0.0674779 0.136276 0.615 255 255 255
-0.118924 -0.0711904 0.272 255 255 255
0.0724341 -0.167697 0.54 255 255 255
-0.112794 -0.183226 0.644 255 255 255
-0.12375 0.0432487 0.34 255 255 255
-0.0404133 -0.00595248 0.627 255 255 255
-0.131093 -0.0410792 0.281 255 255 255
-0.031391 -0.136221 0.574 255 255 255
-0.12001 -0.0516853 0.284 255 255 255
0.228668 0.17726 0.561 255 255 255
0.0729111 -0.0968228 0.602 255 255 255
-0.0134784 0.142875 0.609 255 255 255
0.0122145 -0.0629982 0.658 255 255 255
0.226217 0.192425 0.542 255 255 255
-0.143692 -0.149198 0.651 255 255 255
-0.04509 0.176394 0.57 255 255 255
-0.0974208 0.137467 0.607 255 255 255
-0.12946 -0.0913812 0.252 255 255 255
0.287998 0.166371 0.587 255 255 255
-0.10435 0.057398 0.363 255 255 255
0.0895638 0.195447 0.548 255 255 255
-0.0866676 0.196988 0.54 255 255 255
-0.117643 -0.0428547 0.756 255 255 255
-0.0283005 -0.0285357 0.63 255 255 255
0.275225 -0.163569 0.662 255 255 255
0.0788776 -0.177794 0.536 255 255 255
0.26595 -0.129116 0.697 255 255 255
-0.150426 0.081738 0.339 255 255 255
0.209929 -0.126695 0.804 255 255 255
0.0713134 -0.116137 0.581 255 255 255
0.0971234 -0.0109398 0.761 255 255 255
0.264053 -0.13442 0.701 255 255 255
0.291745 -0.0680612 0.699 255 255 255
-0.114126 -0.0920229 0.262 0 0 0
0.106086 0.171516 0.585 255 255 255
0.145344 -0.0222706 0.69 255 255 255
0.21736 -0.238441 0.705 255 255 255
-0.125345 -0.000928109 0.311 255 255 255
0.299396 -0.197855 0.585 255 255 255
-0.131556 -0.0307473 0.287 255 255 255
-0.108475 0.125738 0.4 255 255 255
0.348138 0.0660695 0.698 255 255 255
0.105574 0.0377148 0.577 255 255 255
0.0695674 -0.18696 0.525 255 255 255
-0.127555 -0.180381 0.634 255 255 255
-0.12439 -0.0335436 0.291 255 255 255
0.274868 -0.153323 0.669 255 255 255
-0.013138 -0.231999 0.696 255 255 255
-0.128325 -0.0499606 0.277 255 255 255
0.257943 0.0649102 0.864 255 255 255
0.0631988 0.171689 0.576 255 255 255
-0.127272 -0.171431 0.643 255 255 255
0.252085 -0.17713 0.681 255 255 255
-0.120838 0.0276437 0.332 255 255 255
0.290473 -0.207395 0.596 255 255 255
0.210265 -0.236484 0.72 255 255 255
0.115476 0.103723 0.544 255 255 255
0.286034 -0.101698 0.688 255 255 255
-0.0964575 0.0753624 0.376 255 255 255
0.353134 0.0720494 0.69 255 255 255
-0.152208 0.0565038 0.324 255 255 255
-0.0732055 0.177605 0.565 255 255 255
0.0879293 0.0179179 0.726 255 255 255
-0.137645 -0.0104105 0.293 255 255 255
0.0603694 -0.0483959 0.635 255 255 255
-0.0961368 0.144428 0.599 255 255 255
-0.0985977 0.0165059 0.716 255 255 255
0.191517 0.171931 0.593 255 255 255
0.00234376 -0.122659 0.599 255 255 255
0.132574 0.184633 0.564 255 255 255
-0.0348033 -0.0279922 0.618 255 255 255
-0.151488 0.0618163 0.327 255 255 255
-0.161813 0.0616674 0.318 255 255 255
-0.116008 -0.050714 0.289 255 255 255
-0.122074 -0.0372037 0.29 0 0 0
0.101573 -0.125079 0.592 255 255 255
-0.0501655 0.170455 0.575 255 255 255
0.0715985 -0.0770209 0.616 255 255 255
0.0876921 -0.127921 0.583 255 255 255
-0.0336182 0.082566 0.675 255 255 255
0.261753 -0.154987 0.686 255 255 255
0.0448865 0.0944708 0.666 255 255 255
-0.0772792 -0.23386 0.628 255 255 255
0.214397 -0.109321 0.811 255 255 255
0.191728 0.157741 0.609 255 255 255
-0.118788 -0.0886986 0.261 255 255 255
-0.164931 -0.146759 0.627 255 255 255
0.0220467 -0.0316158 0.698 255 255 255
-0.16879 -0.204271 0.571 255 255 255
0.0148149 -0.0495394 0.679 255 255 255
0.367789 0.166455 0.735 255 255 255
0.0851835 -0.0795389 0.62 255 255 255
-0.0233426 0.0434014 0.664 255 255 255
-0.137343 -0.0382406 0.277 255 255 255
0.268667 0.0720729 0.849 255 255 255
0.330103 -0.0554558 0.645 255 255 255
-0.118136 0.022241 0.332 255 255 255
-0.0509027 0.030114 0.657 255 255 255
0.304088 -0.0838978 0.671 255 255 255
0.219401 0.201751 0.534 255 255 255
-0.138885 0.113899 0.37 255 255 255
-0.135764 -0.0192705 0.29 255 255 255
-0.0861822 0.0809164 0.382 255 255 255
-0.110982 0.0519424 0.354 255 255 255
-0.0809857 -0.226451 0.633 255 255 255
-0.110572 -0.0687277 0.28 255 255 255
-0.132296 -0.178783 0.632 255 255 255
0.258561 -0.106108 0.734 255 255 255
0.0514638 0.0280003 0.712 255 255 255
0.127499 0.0880774 0.535 255 255 255
0.122193 -0.0173563 0.719 255 255 255
-0.118493 -0.03676 0.294 255 255 255
-0.0223269 -0.0857735 0.607 255 255 255
0.127366 -0.0538798 0.678 255 255 255
-0.0540284 -0.0600725 0.597 255 255 255
0.080188 0.0584318 0.551 255 255 255
-0.0704637 -0.00617083 0.65 255 255 255
0.179744 -0.242882 0.77 255 255 255
-0.11576 -0.0719756 0.275 255 255 255
-0.0223623 0.0935272 0.667 255 255 255
0.300207 0.0886434 0.811 255 255 255
0.276316 0.191276 0.554 255 255 255
0.0625325 -0.176706 0.538 255 255 255
0.270516 -0.0574654 0.754 255 255 255
-0.114903 -0.0952364 0.258 0 0 0
0.245123 0.144496 0.629 255 255 255
-0.0917223 0.119195 0.636 255 255 255
0.199648 -0.253114 0.724 255 255 255
-0.0038344 -0.0254045 0.655 255 255 255
-0.129659 -0.0506785 0.276 255 255 255
0.225314 0.118502 0.661 0 0 0
-0.0477693 0.166275 0.58 255 255 255
-0.012118 0.157887 0.591 255 255 255
-0.115535 0.134056 0.614 255 255 255
-0.0681595 0.0485397 0.691 255 255 255
-0.142399 0.0276779 0.314 255 255 255
0.316778 -0.018011 0.699 255 255 255
-0.153645 0.127803 0.365 255 255 255
0.29007 -0.161044 0.631 255 255 255
-0.0499107 0.140199 0.606 255 255 255
-0.0988579 0.115096 0.642 255 255 255
0.225066 -0.0490416 0.841 255 255 255
-0.185639 -0.133707 0.628 255 255 255
-0.0787651 0.118957 0.408 255 255 255
-0.00193584 -0.187714 0.745 255 255 255
0.273782 -0.213406 0.622 255 255 255
-0.149295 -0.192805 0.605 255 255 255
0.28797 0.0648077 0.81 255 255 255
-0.110483 -0.205281 0.625 255 255 255
0.109324 0.198617 0.519 255 255 255
-0.13703 0.0780201 0.347 255 255 255
-0.0925272 -0.036406 0.303 255 255 255
-0.0957819 0.190586 0.552 255 255 255
0.252078 -0.187383 0.678 255 255 255
-0.0952605 -0.141758 0.632 255 255 255
0.0378174 0.16952 0.575 255 255 255
0.00803856 -0.0117594 0.667 255 255 255
-0.0543334 0.085607 0.673 255 255 255
0.151854 0.032276 0.564 255 255 255
0.229908 0.181932 0.553 255 255 255
0.0516768 -0.174215 0.573 255 255 255
-0.14634 -0.151786 0.644 255 255 255
-0.05984 0.191484 0.552 255 255 255
-0.0998976 0.0884963 0.67 255 255 255
0.0333609 -0.127982 0.697 255 255 255
0.0576538 -0.0741338 0.617 255 255 255
-0.0873473 -0.00151261 0.328 255 255 255
-0.0687834 -0.0339162 0.616 255 255 255
-0.0348837 -0.133417 0.57 255 255 255
0.24758 0.11886 0.663 255 255 255
0.0173765 0.0746181 0.693 255 255 255
0.0572321 -0.0968228 0.602 255 255 255
-0.112817 0.00751527 0.326 255 255 255
-0.0875593 0.0672962 0.372 255 255 255
0.228094 0.20262 0.534 255 255 255
-0.186861 -0.0503604 0.706 255 255 255
-0.103002 -0.0932302 0.263 255 255 255
0.241979 -0.251852 0.648 255 255 255
0.217213 0.174532 0.592 255 255 255
-0.156205 0.0339442 0.306 255 255 255
-0.183108 -0.00349098 0.757 255 255 255
-0.164263 0.0815053 0.327 255 255 255
0.279619 0.158069 0.626 255 255 255
-0.0163231 0.0717361 0.687 255 255 255
0.0142672 0.180714 0.569 255 255 255
-0.132743 0.103702 0.368 255 255 255
0.33558 0.0726623 0.73 255 255 255
-0.108539 0.136054 0.614 255 255 255
0.102088 0.156051 0.595 0 0 0
0.181766 0.134084 0.633 255 255 255
0.193513 -0.171561 0.812 255 255 255
-0.143845 -0.0013512 0.293 0 0 0
-0.114665 -0.0463287 0.294 255 255 255
0.0919415 -0.160286 0.557 255 255 255
-0.146531 0.0311552 0.313 255 255 255
0.258959 -0.196073 0.659 255 255 255
-0.123583 -0.223507 0.595 255 255 255
0.0793302 -0.0435248 0.655 255 255 255
0.245438 -0.247921 0.646 255 255 255
0.218288 0.15404 0.614 255 255 255
-0.0549419 0.188686 0.557 255 255 255
-0.139975 -0.0758588 0.719 255 255 255
0.336577 0.0453802 0.712 255 255 255
0.157278 -0.170307 0.852 255 255 255
-0.136633 -0.0280161 0.283 255 255 255
0.113902 0.160193 0.596 255 255 255
-0.123917 -0.0251754 0.78 255 255 255
0.260969 -0.128303 0.705 255 255 255
-0.139773 -0.0498949 0.267 255 255 255
0.0137701 -0.00314511 0.682 255 255 255
-0.032134 -0.239699 0.667 255 255 255
-0.081335 -0.125666 0.577 255 255 255
-0.0881747 0.0604194 0.367 255 255 255
0.234761 0.138041 0.637 255 255 255
-0.0491349 0.0368069 0.662 255 255 255
0.0226119 0.112126 0.649 255 255 255
0.106513 -0.182666 0.548 255 255 255
0.065322 0.197697 0.562 255 255 255
0.344276 0.0222171 0.677 255 255 255
0.217038 -0.105362 0.811 255 255 255
-0.0978851 -0.00149416 0.324 255 255 255
-0.151885 -0.213521 0.581 255 255 255
-0.0503966 0.0786355 0.679 255 255 255
0.25697 0.177605 0.565 255 255 255
0.155649 -0.149104 0.874 255 255 255
0.254924 -0.158376 0.701 255 255 255
0.014073 -0.257286 0.697 255 255 255
-0.127617 -0.0117132 0.302 255 255 255
-0.0825471 0.118666 0.407 255 255 255
-0.112004 -0.0267196 0.305 255 255 255
0.00978144 -0.0674183 0.639 255 255 255
-0.158755 0.0501611 0.314 255 255 255
-0.122445 -0.0689095 0.27 255 255 255
-0.124923 -0.074102 0.265 255 255 255
-0.141606 -0.0448483 0.268 255 255 255
0.185912 0.165999 0.603 0 0 0
-0.144511 0.0618667 0.333 255 255 255
-0.098088 -0.20404 0.637 255 255 255
-0.0283484 0.138911 0.609 255 255 255
-0.142879 -0.224093 0.579 255 255 255
-0.109077 0.0621238 0.363 255 255 255
0.163657 0.172982 0.59 255 255 255
0.229472 0.109212 0.67 255 255 255
-0.0500608 0.0334736 0.66 255 255 255
-0.0698958 0.175775 0.568 255 255 255
0.286859 -0.049288 0.724 255 255 255
-0.00277664 -0.0244129 0.657 255 255 255
-0.11444 0.0548228 0.354 255 255 255
0.167569 -0.17632 0.841 255 255 255
-0.124253 -0.113351 0.684 255 255 255
0.133197 -0.0513683 0.674 255 255 255
-0.13263 -0.0969983 0.711 255 255 255
0.165564 0.192398 0.537 255 255 255
0.16182 0.186395 0.545 255 255 255
0.246155 -0.196545 0.683 255 255 255
-0.0824627 -0.0969445 0.585 255 255 255
-0.101459 0.103095 0.652 255 255 255
-0.0644526 0.203262 0.538 255 255 255
0.340333 0.0425185 0.703 255 255 255
0.0199197 -0.192822 0.746 255 255 255
0.0781096 -0.164238 0.549 255 255 255
-0.126402 -0.0078589 0.305 255 255 255
-0.119397 0.0227126 0.331 0 0 0
0.049729 -0.0445981 0.688 255 255 255
0.220546 0.0277276 0.889 0 0 0
0.207761 -0.209443 0.749 255 255 255
-0.115185 0.121287 0.394 255 255 255
0.0401035 0.16467 0.581 255 255 255
0.288329 -0.173752 0.625 255 255 255
0.218999 -0.264003 0.685 255 255 255
0.0996678 -0.200156 0.526 255 255 255
-0.152264 0.0695748 0.331 255 255 255
-0.140734 0.0283684 0.316 255 255 255
0.204238 -0.214522 0.754 255 255 255
0.307536 -0.0533992 0.686 255 255 255
-0.0934931 -0.182172 0.671 255 255 255
0.117486 0.0953976 0.537 255 255 255
-0.153365 0.0524871 0.322 255 255 255
0.285591 0.090283 0.826 255 255 255
-0.179689 -0.0332011 0.733 255 255 255
0.00375652 0.0354898 0.678 255 255 255
-0.142443 0.092892 0.352 255 255 255
0.254669 -0.205724 0.659 255 255 255
-0.149309 -0.00599396 0.287 255 255 255
0.2411 -0.0863234 0.782 255 255 255
0.0457749 -0.138885 0.606 255 255 255
-0.0135448 -0.0854841 0.612 255 255 255
0.18054 0.172511 0.595 255 255 255
0.054555 0.0450615 0.707 0 0 0
-0.153797 0.00407037 0.79 255 255 255
-0.179154 -0.170646 0.593 255 255 255
0.0109063 0.114406 0.644 255 255 255
0.0233417 -0.187405 0.739 255 255 255
-0.167115 -0.187387 0.588 255 255 255
0.269874 0.159581 0.62 255 255 255
-0.0852002 0.0218615 0.343 255 255 255
0.107265 -0.14666 0.571 255 255 255
0.108948 0.191005 0.538 0 0 0
-0.0445363 -0.125365 0.563 255 255 255
0.0407936 -0.0652375 0.67 255 255 255
-0.134642 -0.195391 0.61 255 255 255
0.172577 -0.207494 0.813 255 255 255
0.0319219 0.112484 0.645 255 255 255
0.0658648 0.168083 0.583 255 255 255
0.286469 0.0640382 0.817 255 255 255
-0.0845738 0.025919 0.345 255 255 255
-0.145526 0.116559 0.367 255 255 255
-0.0440299 0.00740517 0.635 255 255 255
-0.0280226 0.147111 0.602 255 255 255
0.0977188 0.164898 0.592 255 255 255
0.0045591 -0.0660668 0.636 255 255 255
0.146831 -0.00326501 0.708 255 255 255
0.0306878 -0.0346643 0.714 255 255 255
0.00352381 0.119195 0.636 255 255 255
-0.0522973 0.0847629 0.675 255 255 255
0.279256 -0.21166 0.614 255 255 255
0.311003 -0.103326 0.636 255 255 255
-0.0380105 0.141936 0.605 255 255 255
0.0690354 -0.126924 0.57 255 255 255
-0.130437 -0.172175 0.638 255 255 255
0.0825594 0.0779071 0.543 255 255 255
-0.129333 0.0412745 0.333 255 255 255
-0.113322 -0.017492 0.777 255 255 255
0.247188 -0.0443774 0.806 255 255 255
0.073662 0.0896721 0.625 255 255 255
-0.0907575 -0.0572212 0.291 255 255 255
0.248701 0.115063 0.666 255 255 255
0.157278 -0.17308 0.852 255 255 255
-0.0830774 0.0514908 0.363 255 255 255
-0.110607 -0.0844133 0.269 255 255 255
-0.163714 0.134627 0.361 255 255 255
-0.0764733 0.0623926 0.695 255 255 255
-0.10606 -0.0976671 0.26 255 255 255
0.207002 -0.00266495 0.893 255 255 255
0.0877071 0.146614 0.596 255 255 255
-0.132372 -0.0171442 0.294 0 0 0
0.0886402 0.0744246 0.537 255 255 255
0.0628811 -0.169768 0.541 255 255 255
-0.12946 -0.0909711 0.252 0 0 0
0.141956 -0.0123588 0.701 255 255 255
0.176299 -0.216858 0.794 255 255 255
-0.0463408 -0.0857808 0.574 255 255 255
0.054653 0.152033 0.606 255 255 255
-0.0654498 0.201886 0.539 255 255 255
0.201257 -0.272474 0.713 255 255 255
-0.140947 0.0922676 0.354 255 255 255
-0.136403 -0.211274 0.596 255 255 255
0.191069 0.129318 0.64 255 255 255
0.101442 0.0959306 0.54 255 255 255
0.0950152 0.125377 0.57 255 255 255
-0.145036 0.0438464 0.745 255 255 255
0.0344451 0.197414 0.551 255 255 255
-0.0341838 -0.0452742 0.607 255 255 255
0.0548498 -0.0469129 0.643 255 255 255
-0.134874 0.0520352 0.336 255 255 255
-0.0700016 0.0359609 0.687 255 255 255
0.112747 -0.0257954 0.726 255 255 255
0.275957 -0.146791 0.669 255 255 255
0.0719849 -0.159167 0.55 255 255 255
0.210961 -0.128346 0.798 255 255 255
-0.128131 0.104224 0.372 255 255 255
0.0666492 -0.163327 0.543 255 255 255
-0.133793 -0.0403328 0.279 255 255 255
-0.177223 -0.175471 0.593 255 255 255
0.281086 -0.187572 0.627 255 255 255
0.235487 0.194711 0.541 255 255 255
0.252762 0.0950761 0.738 0 0 0
-0.160627 0.0381747 0.304 255 255 255
-0.0515766 -0.231126 0.652 255 255 255
0.073891 0.0883314 0.602 255 255 255
-0.150925 0.072923 0.334 255 255 255
-0.144382 -0.0224627 0.774 255 255 255
-0.129031 0.118833 0.38 255 255 255
-0.117117 -0.0184618 0.308 255 255 255
0.356793 0.141722 0.737 255 255 255
-0.125023 0.0239611 0.326 255 255 255
0.351382 0.168185 0.759 255 255 255
-0.0648788 0.0609971 0.692 255 255 255
-0.0963827 0.0677191 0.371 255 255 255
0.332228 0.129104 0.769 255 255 255
0.0680336 0.145333 0.611 255 255 255
0.211326 0.115275 0.661 255 255 255
-0.112367 -0.0490319 0.293 255 255 255
0.00645641 -0.210026 0.734 255 255 255
-0.160046 0.0727679 0.326 255 255 255
-0.0652003 0.0227677 0.661 255 255 255
-0.0944833 0.0948154 0.388 255 255 255
-0.123107 -0.0421025 0.288 255 255 255
0.296764 -0.00345409 0.749 255 255 255
-0.0394186 0.2025 0.543 255 255 255
-0.0134784 0.144857 0.609 255 255 255
0.318795 0.0876812 0.779 255 255 255
0.240653 -0.170994 0.706 255 255 255
0.18724 0.182412 0.56 255 255 255
-0.103215 0.0182426 0.338 255 255 255
-0.184426 0.0284605 0.789 0 0 0
-0.0575798 0.124253 0.625 255 255 255
0.259903 -0.142522 0.696 255 255 255
-0.102134 0.163096 0.428 255 255 255
-0.113134 -0.0436059 0.295 255 255 255
0.094171 0.195415 0.524 255 255 255
-0.132728 0.00507891 0.307 255 255 255
-0.0827901 -0.0171092 0.664 255 255 255
0.104961 -0.00593902 0.755 255 255 255
0.0262179 0.144102 0.61 255 255 255
0.223786 -0.246527 0.686 255 255 255
0.19322 -0.113479 0.822 255 255 255
-0.0596232 0.193475 0.55 255 255 255
-0.140824 0.0833417 0.348 255 255 255
-0.104455 0.0644685 0.693 255 255 255
0.0498809 0.0472955 0.706 255 255 255
0.337995 0.0548797 0.715 255 255 255
-0.135562 -0.000407083 0.3 255 255 255
0.208035 0.179405 0.562 255 255 255
0.130932 -0.0324232 0.691 255 255 255
0.215937 -0.184583 0.752 255 255 255
-0.177957 0.123839 0.341 255 255 255
-0.075663 0.156184 0.432 255 255 255
-0.103736 0.0612781 0.365 255 255 255
-0.0909004 -0.186793 0.668 255 255 255
-0.0263225 -0.0690947 0.608 255 255 255
-0.127315 0.15658 0.404 255 255 255
0.0637183 0.194729 0.564 255 255 255
0.066527 -0.182873 0.528 255 255 255
0.0689049 -0.193642 0.52 255 255 255
0.0491174 -0.167964 0.587 255 255 255
-0.10325 0.158122 0.424 255 255 255
0.242606 -0.138286 0.74 255 255 255
0.174077 0.192237 0.539 255 255 255
-0.142295 -0.10288 0.696 255 255 255
0.131051 0.161974 0.599 255 255 255
0.189081 -0.185638 0.81 255 255 255
-0.149641 0.0744533 0.336 255 255 255
-0.141916 0.0413542 0.321 255 255 255
0.0583506 -0.045099 0.647 255 255 255
-0.14075 0.0415885 0.748 255 255 255
0.311239 -0.135722 0.614 255 255 255
0.0731546 -0.101677 0.596 255 255 255
0.200588 -0.232572 0.745 255 255 255
-0.105307 -0.0634772 0.283 255 255 255
0.0354256 -0.26032 0.693 255 255 255
-0.153162 -0.0754368 0.715 255 255 255
-0.0925194 0.179444 0.565 255 255 255
0.00860277 0.186722 0.562 255 255 255
-0.119013 0.032351 0.336 255 255 255
-0.0445495 -0.0962231 0.575 255 255 255
0.311586 0.133489 0.78 255 255 255
-0.075709 -0.125996 0.57 255 255 255
0.0598618 -0.133651 0.571 255 255 255
0.264279 -0.160506 0.681 255 255 255
-0.0928271 0.0956928 0.389 255 255 255
-0.0573631 -0.2157 0.67 255 255 255
-0.0251536 0.166561 0.581 255 255 255
-0.106904 0.11958 0.399 255 255 255
-0.0864808 0.146735 0.423 255 255 255
0.0159058 -0.111317 0.729 255 255 255
0.144137 0.0219031 0.581 255 255 255
-0.129634 0.154112 0.401 255 255 255
-0.0712398 -0.115492 0.564 255 255 255
0.0544767 -0.119383 0.583 255 255 255
0.068479 0.135275 0.615 255 255 255
-0.124722 0.0267769 0.328 255 255 255
-0.0146694 0.204268 0.543 255 255 255
0.00668179 0.114916 0.641 255 255 255
-0.0842187 -0.203973 0.65 255 255 255
0.22061 -0.182374 0.743 255 255 255
-0.0942727 -0.0773458 0.275 255 255 255
-0.115782 0.022308 0.333 255 255 255
-0.0818021 0.157927 0.431 255 255 255
-0.168644 -0.187065 0.59 255 255 255
-0.139705 0.0273399 0.316 255 255 255
0.26303 0.197761 0.547 0 0 0
0.216761 0.10169 0.678 255 255 255
-0.0594098 0.179444 0.565 255 255 255
0.191087 0.110468 0.658 255 255 255
-0.0203406 0.193631 0.553 255 255 255
0.0368174 -0.247432 0.698 255 255 255
-0.0417669 -0.250798 0.648 255 255 255
0.236586 0.1793 0.556 255 255 255
-0.105253 -0.0823949 0.271 255 255 255
0.139094 -0.0449203 0.676 255 255 255
0.24002 0.111227 0.669 255 255 255
-0.193296 -0.0669901 0.688 255 255 255
0.109143 -0.0212579 0.776 255 255 255
0.241621 0.0169474 0.856 255 255 255
-0.105181 -0.0693903 0.279 255 255 255
-0.15376 -0.177814 0.611 255 255 255
-0.17588 0.0128048 0.774 255 255 255
-0.130584 0.0285593 0.324 255 255 255
-0.0715218 -0.00934412 0.65 255 255 255
-0.029154 0.104733 0.649 255 255 255
-0.0198276 0.101438 0.655 255 255 255
0.0458226 0.00974085 0.733 255 255 255
-0.151829 0.0788275 0.336 255 255 255
-0.128683 -0.0272933 0.29 255 255 255
-0.127892 -0.0477678 0.28 255 255 255
-0.102473 0.118516 0.402 255 255 255
-0.150029 -0.131845 0.665 255 255 255
0.198903 0.172605 0.592 255 255 255
-0.0994028 0.106168 0.395 255 255 255
0.0445495 -0.118144 0.661 255 255 255
-0.116659 0.10879 0.648 255 255 255
-0.0964664 -0.202918 0.64 255 255 255
0.229369 -0.234248 0.686 255 255 255
-0.176967 0.112515 0.337 255 255 255
-0.136635 -0.0472882 0.272 255 255 255
0.114331 -0.00706323 0.744 255 255 255
0.00377868 0.0800928 0.682 255 255 255
0.0706098 -0.0659412 0.625 255 255 255
-0.0600092 -0.107766 0.562 255 255 255
-0.0537962 -0.104478 0.564 255 255 255
0.270041 -0.145027 0.676 255 255 255
0.0478417 -0.108798 0.62 255 255 255
-0.112655 -0.000435579 0.321 255 255 255
0.209385 -0.174643 0.773 255 255 255
-0.0271457 0.0641764 0.678 255 255 255
-0.0861445 0.0756534 0.682 255 255 255
-0.0049904 0.0273161 0.667 255 255 255
0.0772148 -0.142519 0.562 255 255 255
-0.174517 -0.0702355 0.698 255 255 255
0.0672976 -0.126217 0.571 255 255 255
-0.130411 0.044212 0.731 255 255 255
0.121186 -0.0045357 0.727 255 255 255
-0.0927455 -0.0941303 0.268 255 255 255
0.0839563 -0.00715816 0.754 255 255 255
-0.00821054 0.0239516 0.664 255 255 255
-0.104589 -0.0216782 0.311 255 255 255
-0.0245057 0.115417 0.638 255 255 255
0.232486 0.128825 0.648 255 255 255
0.228955 -0.115888 0.784 255 255 255
-0.076864 -0.0307318 0.633 255 255 255
0.154314 0.17039 0.591 255 255 255
-0.137961 0.0580351 0.697 255 255 255
0.0675997 -0.191354 0.523 255 255 255
-0.167824 -0.137913 0.638 255 255 255
0.114679 0.16186 0.595 255 255 255
-0.0959531 0.172381 0.569 255 255 255
-0.147038 -0.183085 0.612 255 255 255
-0.0932525 -0.0427374 0.299 255 255 255
-0.000538701 0.193428 0.555 255 255 255
-0.148802 -0.196093 0.603 255 255 255
-0.16211 -0.15418 0.624 255 255 255
0.148192 -0.000962073 0.709 255 255 255
-0.0946919 0.0246524 0.343 255 255 255
0.128403 0.199383 0.521 255 255 255
-0.105709 -0.0714036 0.278 255 255 255
-0.0942429 -0.0490319 0.293 255 255 255
0.000398247 0.14513 0.606 255 255 255
-0.0330859 -0.133651 0.571 255 255 255
0.27707 -0.0829944 0.72 255 255 255
-0.108014 -0.0867162 0.268 255 255 255
0.271007 0.129545 0.657 255 255 255
-0.180198 -0.0679638 0.698 255 255 255
0.0371404 0.145095 0.61 255 255 255
-0.062631 -0.0402023 0.605 255 255 255
-0.096606 -0.0784022 0.274 255 255 255
0.0469599 -0.187997 0.596 255 255 255
0.177331 -0.256244 0.765 255 255 255
-0.0086757 -0.0795389 0.62 255 255 255
-0.159963 0.118767 0.354 255 255 255
-0.0480887 -0.000860302 0.634 255 255 255
0.119547 0.0228486 0.581 255 255 255
0.213253 -0.0525792 0.854 255 255 255
0.261193 -0.048331 0.785 255 255 255
-0.129178 0.041942 0.334 255 255 255
0.205043 0.188015 0.542 255 255 255
0.0606253 -0.191828 0.529 255 255 255
-0.180973 -0.0636929 0.701 255 255 255
-0.00408027 -0.236869 0.697 255 255 255
-0.0028189 0.00452206 0.667 255 255 255
0.0566355 -0.129197 0.576 255 255 255
0.120565 0.0615682 0.547 255 255 255
0.20986 0.18363 0.55 255 255 255
0.298603 -0.0667954 0.686 255 255 255
-0.121894 0.0834833 0.366 255 255 255
0.334077 -0.0118475 0.672 255 255 255
0.0697621 -0.120761 0.576 255 255 255
-0.152165 0.0200973 0.3 255 255 255
-0.126523 -0.179349 0.634 255 255 255
0.108551 -0.156057 0.568 255 255 255
0.275501 -0.0600922 0.741 255 255 255
0.328824 -0.0381953 0.655 255 255 255
-0.143826 0.0787952 0.343 255 255 255
-0.101813 -0.21342 0.628 255 255 255
-0.0982233 -0.233877 0.612 255 255 255
-0.0987708 -0.0315791 0.304 255 255 255
0.267507 0.164948 0.61 255 255 255
-0.0354974 -0.123972 0.565 255 255 255
-0.129322 -0.0149527 0.298 255 255 255
0.337665 -0.00846483 0.664 255 255 255
-0.116866 0.0244756 0.333 255 255 255
-0.0101556 0.208515 0.538 255 255 255
-0.0332361 -0.185713 0.714 255 255 255
-0.137156 -0.0626041 0.262 255 255 255
0.0599951 -0.0359768 0.717 255 255 255
-0.0908474 0.0115388 0.335 255 255 255
-0.143112 0.0548675 0.7 255 255 255
0.336264 -0.00419256 0.672 255 255 255
0.272921 0.15526 0.627 255 255 255
0.0878628 0.0849762 0.543 255 255 255
-0.083432 0.0818297 0.678 255 255 255
-0.103489 -0.0810719 0.271 255 255 255
-0.031626 -0.0101618 0.635 255 255 255
0.265006 -0.092716 0.732 255 255 255
-0.0789448 -0.238845 0.625 255 255 255
-0.108241 -0.0273944 0.307 255 255 255
0.331935 0.0148908 0.695 255 255 255
-0.0744487 -0.23563 0.63 255 255 255
0.157588 -0.139766 0.869 255 255 255
-0.0403105 -0.0355712 0.61 255 255 255
0.155157 0.0388379 0.566 255 255 255
-0.0344893 0.104894 0.65 255 255 255
-0.16577 0.0860122 0.33 255 255 255
0.266656 0.0526062 0.847 255 255 255
0.266819 -0.15672 0.679 255 255 255
-0.0817345 0.124869 0.623 255 255 255
-0.129126 0.0577525 0.344 255 255 255
0.0747931 -0.172329 0.538 255 255 255
-0.172222 -0.203762 0.567 255 255 255
0.261446 -0.0634488 0.767 255 255 255
0.171384 0.201202 0.528 255 255 255
-0.0499447 -0.201342 0.688 255 255 255
-0.0466248 -0.233967 0.657 255 255 255
-0.129398 0.0418901 0.732 255 255 255
0.0496375 0.174845 0.571 255 255 255
0.19978 -0.148504 0.816 255 255 255
-0.0899612 -0.0683231 0.284 255 255 255
0.279305 -0.0593623 0.732 255 255 255
-0.0868095 -0.0067667 0.324 255 255 255
0.0575173 -0.0904135 0.605 255 255 255
-0.139697 -0.0312523 0.279 0 0 0
0.0415841 -0.17956 0.617 255 255 255
-0.14911 0.0500219 0.323 255 255 255
-0.0824048 -0.223384 0.636 255 255 255
0.106489 0.174425 0.582 255 255 255
0.227254 -0.244338 0.683 255 255 255
-0.158208 0.0547672 0.317 255 255 255
0.101374 -0.0607981 0.646 255 255 255
0.258844 -0.228453 0.63 255 255 255
0.0388217 0.00498986 0.736 255 255 255
0.0650716 0.154948 0.602 255 255 255
-0.0928997 0.0363645 0.717 255 255 255
-0.133884 -0.0220259 0.289 255 255 255
0.238234 -0.0107595 0.844 255 255 255
0.34454 0.140513 0.763 255 255 255
-0.166662 0.132183 0.356 255 255 255
-0.12149 -0.0365099 0.292 255 255 255
-0.138894 -0.129242 0.674 255 255 255
0.0325629 -0.173978 0.637 255 255 255
-0.13044 0.131387 0.386 255 255 255
-0.093834 0.12688 0.41 255 255 255
-0.0586439 -0.229708 0.648 255 255 255
-0.0323207 0.155964 0.591 255 255 255
-0.102519 0.152207 0.421 255 255 255
0.290258 -0.131328 0.657 255 255 255
-0.120492 0.00844475 0.321 255 255 255
-0.153709 0.0288699 0.305 255 255 255
-0.125161 -0.0806287 0.261 255 255 255
-0.109917 0.0379276 0.347 255 255 255
-0.146586 -0.00462484 0.289 255 255 255
-0.132382 0.0676855 0.68 255 255 255
-0.120127 -0.0833864 0.263 255 255 255
0.0698405 -0.129479 0.569 255 255 255
-0.128249 0.0396488 0.333 255 255 255
-0.128211 0.108436 0.374 255 255 255
-0.129252 0.134653 0.39 255 255 255
-0.170563 0.117651 0.344 255 255 255
