ply
format ascii 1.0
comment Created by Open3D
element vertex 1292
property double x
property double y
property double z
property uchar red
property uchar green
property uchar blue
end_header
-0.196797 -0.168704 1.167 0 0 0
-0.167241 -0.492592 1.396 255 255 255
-0.461176 -0.340481 1.378 255 255 255
-0.391116 0.0173235 0.875 255 255 255
0.127598 0.190834 0.71 255 255 255
0.508216 -0.468618 1.463 255 255 255
-0.235325 0.168652 0.828 255 255 255
0.294409 0.151316 0.737 255 255 255
0.0529742 0.112772 0.786 255 255 255
0.671511 0.531202 1.406 255 255 255
0.319292 0.0331914 0.844 255 255 255
0.351706 -0.146795 1.089 255 255 255
-1.11638 -1.03191 2.911 255 255 255
-0.463299 -0.3019 1.308 255 255 255
0.0439143 0.142809 0.762 255 255 255
0.395363 0.0613794 0.854 255 255 255
-0.447084 0.31574 0.955 255 255 255
0.175188 0.0823869 0.789 255 255 255
0.502017 -0.118643 1.044 255 255 255
-0.197347 -0.452995 1.4 255 255 255
0.166634 -0.200926 1.145 255 255 255
-0.455937 -0.304813 1.33 255 255 255
0.107176 0.00281651 0.799 255 255 255
-0.219406 0.26563 0.901 255 255 255
0.109869 -0.131036 1.048 255 255 255
-0.0733049 0.116215 0.81 255 255 255
-0.230506 -0.212971 1.225 255 255 255
0.410573 -0.117279 1.032 255 255 255
-0.560956 -0.28569 1.283 255 255 255
-0.275919 0.244995 0.845 255 255 255
0.751567 0.38329 1.579 255 255 255
0.351225 0.111475 0.795 255 255 255
-0.199777 -0.0367299 0.947 255 255 255
0.0765731 0.0395841 0.834 255 255 255
0.0927934 0.136763 0.756 255 255 255
-0.250891 0.141362 0.826 255 255 255
-0.46372 0.35118 0.967 255 255 255
-0.308547 0.359317 0.931 255 255 255
-0.222059 -0.0275705 0.95 0 0 0
-0.283285 -0.14008 0.969 0 0 0
-0.132824 -0.0282276 0.921 255 255 255
0.472262 -0.0470444 0.969 255 255 255
0.676148 -0.59536 1.62 255 255 255
-0.346058 -0.0840005 0.977 255 255 255
0.290367 0.141476 0.742 255 255 255
-0.297625 0.0684881 0.856 255 255 255
-0.439311 0.272226 0.955 255 255 255
-0.13892 -0.0457336 0.942 255 255 255
0.752099 -0.584702 1.591 255 255 255
-0.362881 -0.162938 1.034 255 255 255
0.236442 -0.0777384 1.02 255 255 255
-0.177585 0.0809304 0.855 255 255 255
0.274074 -0.404576 1.422 255 255 255
0.193861 -0.447191 1.463 255 255 255
0.08877 -0.0615816 0.95 0 0 0
-0.0994343 0.101526 0.83 255 255 255
-0.483322 -0.315888 1.322 255 255 255
-0.325127 -0.421483 1.473 0 0 0
-0.00920075 -0.0802634 1.01 255 255 255
-0.308405 -0.0680508 0.954 255 255 255
0.0486036 0.204641 0.739 255 255 255
-0.294591 0.33623 0.93 255 255 255
-0.477218 0.0512736 0.95 255 255 255
-0.198527 -0.11887 1.046 255 255 255
0.46429 -0.484705 1.498 255 255 255
0.868629 0.231543 1.753 255 255 255
0.0734902 0.137487 0.76 255 255 255
0.498109 -0.0496249 0.989 255 255 255
-0.24294 -0.058305 0.947 255 255 255
-0.232837 -0.180681 1.196 255 255 255
0.289133 -0.236947 1.205 255 255 255
-0.0513707 0.124726 0.797 255 255 255
-0.436381 0.327142 0.952 255 255 255
-0.043256 -0.265692 1.176 255 255 255
0.409806 -0.222052 1.158 255 255 255
-0.0975539 -0.0898606 0.989 255 255 255
-0.263229 0.262549 0.862 255 255 255
-0.212233 -0.418994 1.393 255 255 255
-0.135275 0.195303 0.81 255 255 255
-0.0103549 -0.400521 1.384 255 255 255
0.383355 -0.0885188 0.992 255 255 255
-0.31234 0.231688 0.862 255 255 255
0.0110258 0.10646 0.806 255 255 255
-0.416242 -0.531748 1.473 255 255 255
0.224031 -0.252215 1.203 255 255 255
0.0840353 0.206093 0.723 255 255 255
0.0679865 0.0948951 0.797 255 255 255
-0.289617 -0.192563 1.222 255 255 255
0.0435109 0.153783 0.755 255 255 255
0.297197 -0.116901 1.059 255 255 255
0.411217 0.173973 0.861 255 255 255
0.608489 -0.370979 1.319 255 255 255
-0.199319 0.0713937 0.841 255 255 255
-0.503458 0.390438 0.999 255 255 255
0.500186 -0.241632 1.18 255 255 255
-0.239375 0.0479268 0.862 255 255 255
0.532493 -0.374916 1.333 255 255 255
-0.524923 0.394347 1.009 255 255 255
-0.163358 -0.264617 1.215 255 255 255
0.381709 -0.0427583 0.944 255 255 255
0.807571 0.327232 1.646 255 255 255
-0.167934 0.203686 0.828 255 255 255
0.225384 -0.167676 1.122 255 255 255
0.229914 0.218502 0.681 255 255 255
-1.26879 -0.923405 2.593 255 255 255
0.19205 0.0739574 0.795 255 255 255
0.518031 -0.596279 1.637 255 255 255
0.126347 0.169179 0.49 255 255 255
0.159392 0.174171 0.461 255 255 255
-0.336911 -0.0622299 0.96 255 255 255
0.617894 -0.378401 1.33 255 255 255
0.208016 -0.0931589 1.044 255 255 255
0.170829 -0.148278 1.1 255 255 255
-0.500372 0.310927 0.974 255 255 255
-0.452397 0.27764 0.963 255 255 255
0.44772 -0.0433471 0.957 255 255 255
0.28602 0.179629 0.716 255 255 255
-0.260618 0.173832 0.827 255 255 255
-0.345664 -0.111466 0.967 255 255 255
-0.145371 0.125838 0.83 255 255 255
-0.121697 -0.125518 1.059 255 255 255
0.0389528 0.145289 0.762 255 255 255
0.0730194 0.0239123 0.856 255 255 255
0.170386 -0.0956756 1.053 255 255 255
0.178178 0.0490256 0.833 255 255 255
-0.286934 0.195935 0.841 255 255 255
0.138 0.183901 0.71 255 255 255
0.00920082 -0.195469 1.046 255 255 255
0.411091 -0.227576 1.167 255 255 255
-0.280089 0.106977 0.841 255 255 255
-0.171718 -0.0777635 0.999 0 0 0
0.518303 -0.113764 1.046 255 255 255
0.0637869 -0.229529 1.139 255 255 255
-0.33866 -0.19653 1.152 255 255 255
-0.194992 0.212362 0.852 255 255 255
-0.443975 0.329727 0.955 255 255 255
0.14648 -0.464238 1.442 255 255 255
-0.445705 -0.272462 1.27 255 255 255
-0.496605 -0.209146 1.203 255 255 255
0.0621628 -0.191171 1.11 255 255 255
0.138422 -0.482962 1.456 255 255 255
-0.29241 0.0946596 0.841 255 255 255
0.134355 0.0802272 0.806 255 255 255
0.230195 -0.320289 1.247 255 255 255
-0.467876 -0.22997 1.22 255 255 255
0.239166 0.177754 0.695 255 255 255
0.0260611 0.18644 0.748 255 255 255
0.240946 -0.211205 1.171 255 255 255
0.161781 0.127499 0.745 255 255 255
-0.250781 -0.514203 1.393 255 255 255
0.0498065 0.241922 0.739 255 255 255
-0.428851 -0.275505 1.294 255 255 255
-0.103211 -0.0302751 0.938 255 255 255
0.393743 -0.247887 1.201 255 255 255
0.258181 -0.067737 0.995 255 255 255
-0.438486 0.256466 0.96 255 255 255
-0.482528 0.224411 0.97 255 255 255
-0.000961897 -0.0513379 0.991 255 255 255
-0.207686 -0.128035 1.024 255 255 255
-0.380339 0.320875 0.925 255 255 255
0.103015 0.0935981 0.797 255 255 255
0.133189 0.187103 0.709 255 255 255
0.0627343 0.08357 0.813 255 255 255
0.275522 -0.3317 1.308 255 255 255
0.21473 0.0822825 0.788 255 255 255
0.115047 0.199202 0.711 255 255 255
-0.457988 -0.29696 1.305 255 255 255
0.0493681 -0.569325 1.563 255 255 255
-1.25753 -0.867364 2.793 255 255 255
0.368371 0.0508045 0.84 255 255 255
0.210739 0.0913668 0.778 255 255 255
0.503474 -0.592165 1.633 255 255 255
0.0798036 -0.463403 1.425 255 255 255
-0.306343 0.221976 0.857 255 255 255
-0.0399631 0.157 0.777 255 255 255
-0.214464 0.173003 0.836 255 255 255
0.244118 0.190775 0.693 255 255 255
-0.00335141 0.121519 0.793 255 255 255
-0.036448 0.235938 0.783 255 255 255
-0.204506 0.213609 0.857 255 255 255
-0.382452 0.0716771 0.878 255 255 255
0.714991 -0.545556 1.539 255 255 255
0.0790155 0.265473 0.731 255 255 255
0.348975 0.0693563 0.817 255 255 255
0.0698012 0.28344 0.747 255 255 255
-0.412958 0.353988 0.941 255 255 255
-0.346474 -0.251795 1.27 255 255 255
-0.0477355 0.161414 0.78 255 255 255
-0.108541 0.272119 0.77 255 255 255
-0.00423469 -0.0682136 1.002 255 255 255
-0.634422 -0.426957 1.435 255 255 255
0.181484 -0.425403 1.422 255 255 255
-0.250781 -0.452997 1.393 255 255 255
0.282238 0.248945 0.698 255 255 255
0.0237564 0.113776 0.793 255 255 255
-0.0347678 -0.109174 0.989 255 255 255
0.308589 0.176716 0.728 255 255 255
-0.344613 0.0745792 0.862 255 255 255
-0.223079 0.275341 0.904 0 0 0
0.364364 -0.122041 1.044 255 255 255
-0.111997 0.0991815 0.833 255 255 255
-0.523882 0.388649 1.007 255 255 255
0.612315 -0.465614 1.439 255 255 255
0.453664 -0.426815 1.419 255 255 255
-0.258441 0.114093 0.833 255 255 255
0.427474 0.14968 0.883 255 255 255
0.554323 -0.24928 1.189 255 255 255
0.621369 -0.320046 1.254 255 255 255
-0.214529 0.059498 0.847 255 255 255
-0.33603 0.109139 0.858 255 255 255
0.160839 -0.122848 1.081 255 255 255
0.518144 -0.224323 1.16 255 255 255
-0.0323743 0.227808 0.777 255 255 255
-0.241479 0.137329 0.826 255 255 255
0.166321 -0.227966 1.169 255 255 255
-0.035544 0.0924085 0.821 255 255 255
-0.0337484 -0.0138005 0.96 255 255 255
0.115546 -0.2085 1.156 255 255 255
0.0932522 -0.143656 1.053 255 255 255
-1.0175 -1.16536 3.011 255 255 255
0.303981 0.0698207 0.807 255 255 255
-0.0713668 -0.258965 1.198 255 255 255
-0.166067 0.110818 0.839 255 255 255
-0.466868 0.291382 0.967 255 255 255
0.0023124 -0.124887 1.012 255 255 255
0.270783 -0.196007 1.16 255 255 255
0.771577 -0.632461 1.655 255 255 255
-0.489691 -0.0777204 0.978 255 255 255
0.361286 -0.091496 1.007 255 255 255
-0.0444615 0.106061 0.813 255 255 255
0.0235628 0.216291 0.746 255 255 255
-0.303908 -0.028105 0.917 255 255 255
0.0701984 -0.0874397 1.017 255 255 255
-0.415087 0.0643981 0.896 255 255 255
0.450771 -0.511665 1.535 255 255 255
-0.139388 -0.237123 1.196 255 255 255
-0.287331 0.307805 0.931 255 255 255
0.291832 0.120131 0.752 255 255 255
0.0941096 -0.0897955 1.025 255 255 255
-0.214792 0.0828151 0.832 255 255 255
0.728472 -0.640541 1.655 255 255 255
0.401395 -0.352429 1.33 255 255 255
-0.0176203 -0.240162 1.128 255 255 255
0.149238 0.167508 0.714 255 255 255
0.4445 0.170359 0.909 255 255 255
-0.3394 -0.450918 1.452 255 255 255
-0.117188 0.0791669 0.851 255 255 255
-0.449893 -0.0935719 0.961 255 255 255
-0.116294 -0.47526 1.412 255 255 255
-0.439326 -0.0335766 0.945 255 255 255
0.492157 -0.180983 1.114 255 255 255
0.115093 -0.611922 1.629 255 255 255
-0.256791 -0.0250383 0.914 255 255 255
0.219253 -0.303427 1.22 255 255 255
0.271137 -0.172549 1.13 255 255 255
-0.643313 -0.278636 1.289 255 255 255
-0.154479 0.0332505 0.882 255 255 255
0.0523209 0.288847 0.758 255 255 255
0.119129 0.0955886 0.792 255 255 255
-0.196424 -0.367558 1.362 255 255 255
0.564313 -0.420354 1.39 255 255 255
0.394414 -0.586676 1.655 255 255 255
0.417442 -0.105125 1.012 255 255 255
0.0421404 0.120022 0.775 255 255 255
-0.147664 0.275817 0.851 255 255 255
0.175053 0.183743 0.692 255 255 255
-0.129527 -0.21866 1.16 255 255 255
0.0205873 0.135713 0.771 255 255 255
-0.514586 -0.478881 1.48 255 255 255
0.198643 0.0657993 0.806 255 255 255
0.176831 0.141951 0.732 255 255 255
0.288159 -0.565591 1.633 0 0 0
-0.257021 -0.0588349 0.931 255 255 255
0.467795 -0.665157 1.748 255 255 255
-0.222918 0.0841691 0.832 255 255 255
-0.0102137 0.0768412 0.826 255 255 255
-0.352489 -0.0332213 0.935 255 255 255
0.437159 -0.143425 1.064 255 255 255
0.0730841 0.094776 0.796 255 255 255
-0.356673 0.361995 0.934 255 255 255
-1.1342 -1.06458 2.884 255 255 255
0.0552096 0.158232 0.747 255 255 255
-0.324263 0.361633 0.937 255 255 255
-0.364856 -0.115206 0.972 255 255 255
-0.57993 -0.169872 1.162 255 255 255
-0.287535 0.0670167 0.855 255 255 255
0.278001 -0.142724 1.085 255 255 255
-0.317069 0.27917 0.879 255 255 255
-0.515673 -0.16125 1.079 255 255 255
0.236936 0.0102623 0.88 255 255 255
0.256746 0.0730292 0.799 255 255 255
-0.284162 -0.148423 0.972 255 255 255
-0.0256416 -0.136146 1.01 255 255 255
0.343164 0.308094 0.819 255 255 255
-0.303188 0.278366 0.872 255 255 255
-0.371126 0.142496 0.892 255 255 255
-1.1114 -1.04617 2.898 255 255 255
-0.279655 -0.37059 1.39 255 255 255
-0.487549 -0.408893 1.429 255 255 255
-0.0714325 -0.0349623 0.984 255 255 255
-0.434837 -0.356248 1.387 255 255 255
-0.0918541 -0.0201121 0.963 255 255 255
0.487008 -0.63157 1.696 255 255 255
-0.181973 0.294153 0.856 255 255 255
0.212546 -0.451471 1.477 255 255 255
-0.692153 -0.351624 1.369 255 255 255
-0.177607 -0.0237055 0.92 255 255 255
-0.511979 -0.0427068 0.978 255 255 255
-0.0793756 -0.326799 1.297 255 255 255
-0.0657894 -0.19389 1.075 255 255 255
-0.00568621 0.227771 0.76 255 255 255
0.260153 -0.464001 1.502 255 255 255
-0.576273 -0.373902 1.369 255 255 255
-0.415306 -0.082281 0.957 255 255 255
-0.497703 0.372309 0.994 255 255 255
0.213071 -0.0127655 0.888 255 255 255
0.18639 0.212786 0.684 255 255 255
-0.360367 -0.463349 1.432 255 255 255
-0.0515299 0.0769595 0.842 255 255 255
-0.301715 -0.0328305 0.924 255 255 255
0.149629 -0.498189 1.473 255 255 255
-0.110113 -0.267828 1.239 255 255 255
-0.0581157 0.163309 0.783 255 255 255
-0.460096 0.281649 0.966 255 255 255
0.156537 0.17687 0.705 255 255 255
0.415063 -0.044576 0.95 255 255 255
0.158157 0.181829 0.702 255 255 255
0.480522 -0.422002 1.403 255 255 255
0.127064 -0.0609176 0.854 0 0 0
-0.265976 0.0771423 0.844 255 255 255
-0.219096 -0.0892327 1 255 255 255
-0.227415 -0.174128 1.178 255 255 255
0.351579 0.0101807 0.873 255 255 255
0.167812 0.16172 0.709 255 255 255
0.570108 -0.217146 1.162 255 255 255
-0.31454 0.106613 0.849 255 255 255
0.0648175 0.108203 0.79 255 255 255
-0.200449 0.123253 0.84 255 255 255
0.542827 -0.614238 1.664 255 255 255
-0.178277 0.0202636 0.879 255 255 255
0.105937 0.205275 0.712 255 255 255
-0.309542 0.314877 0.934 255 255 255
-0.00632823 -0.219601 1.081 255 255 255
0.342382 -0.047668 0.95 255 255 255
-0.117336 0.287892 0.762 255 255 255
-0.186488 -0.0531868 0.966 255 255 255
-0.604658 -0.438846 1.459 255 255 255
0.16191 -0.416727 1.393 255 255 255
0.174178 0.184009 0.693 255 255 255
0.0138022 0.0890806 0.815 255 255 255
-0.0559924 0.146585 0.789 255 255 255
0.280699 0.213427 0.697 255 255 255
-0.111175 -0.0314625 0.928 255 255 255
0.109453 0.0539903 0.826 255 255 255
0.0803126 0.161012 0.743 255 255 255
-0.472555 -0.385647 1.412 255 255 255
0.106059 -0.468991 1.435 255 255 255
0.0653538 -0.0132974 0.925 255 255 255
-0.479461 0.231585 0.967 255 255 255
-0.211742 0.178445 0.836 255 255 255
0.232492 -0.00850625 0.896 255 255 255
0.496999 -0.343684 1.297 255 255 255
0.0570489 -0.204917 1.116 255 255 255
-0.314514 0.0581481 0.868 255 255 255
0.214241 0.112603 0.759 255 255 255
-0.0816175 0.227024 0.801 255 255 255
-0.544035 -0.354628 1.372 255 255 255
0.276501 -0.0706901 0.991 255 255 255
0.116472 -0.177734 1.094 255 255 255
0.0383756 0.0556024 0.83 255 255 255
-0.415874 -0.362234 1.384 0 0 0
0.0278622 0.146914 0.764 255 255 255
0.135164 -0.188573 1.116 255 255 255
-0.113913 0.286161 0.764 255 255 255
-0.41998 -0.082281 0.957 255 255 255
0.172633 -0.0120611 0.839 255 255 255
-0.453202 -0.38712 1.409 255 255 255
-1.03987 -1.04996 2.857 255 255 255
-0.420617 0.286611 0.941 255 255 255
0.409777 -0.210624 1.137 255 255 255
-0.0561811 0.0136932 0.918 255 255 255
0.153277 0.156929 0.477 255 255 255
-0.283412 -0.00269778 0.904 255 255 255
0.0822656 -0.0143386 0.896 255 255 255
0.441728 -0.641997 1.724 255 255 255
-0.0950782 -0.312345 1.281 255 255 255
0.0554985 -0.0674647 0.991 255 255 255
0.191368 0.0694746 0.803 255 255 255
-0.406786 -0.219974 1.198 255 255 255
-0.0727619 0.124513 0.804 255 255 255
0.140635 0.157048 0.487 255 255 255
0.103 -0.461084 1.425 255 255 255
0.0140151 0.189414 0.755 255 255 255
-0.439125 -0.0226429 0.938 255 255 255
-0.458119 0.0862371 0.927 255 255 255
-0.255115 0.130046 0.831 255 255 255
-0.269419 0.280267 0.887 255 255 255
0.357565 0.132461 0.789 255 255 255
-0.351103 -0.00563999 0.904 255 255 255
-0.282298 0.0643091 0.856 255 255 255
-0.369275 -0.102024 0.967 255 255 255
0.0560839 -0.281947 1.213 255 255 255
0.11391 -0.285313 1.178 255 255 255
-0.211776 -0.537977 1.39 255 255 255
0.100925 0.00543054 0.801 255 255 255
-0.640999 -0.302361 1.31 255 255 255
0.0359455 0.163968 0.751 255 255 255
0.452335 -0.0755281 0.991 255 255 255
0.155448 -0.0661012 0.906 0 0 0
0.0899847 -0.0655586 0.963 255 255 255
-0.200462 -0.522143 1.39 255 255 255
0.0815311 -0.0113204 0.888 255 255 255
-0.105292 0.0495392 0.891 255 255 255
0.485764 -0.306493 1.257 255 255 255
0.188812 -0.112891 1.07 255 255 255
-0.0752459 -0.497188 1.463 255 255 255
-0.380103 -0.554561 1.445 255 255 255
-1.11659 -0.921906 2.793 255 255 255
-0.466738 0.35227 0.97 255 255 255
0.316899 -0.0145306 0.908 255 255 255
-0.0624503 -0.119431 0.994 255 255 255
0.0656851 0.113906 0.785 255 255 255
-0.237922 0.345611 0.888 255 255 255
-0.393824 -0.391928 1.435 255 255 255
-0.273477 -0.193226 1.239 0 0 0
0.347701 0.161851 0.77 255 255 255
0.033036 -0.432978 1.409 255 255 255
-0.0579301 0.265132 0.798 255 255 255
0.429379 -0.00574605 0.921 255 255 255
-0.485971 0.0622261 0.952 255 255 255
0.158174 0.0166702 0.842 255 255 255
-0.357569 -0.353308 1.449 255 255 255
-0.259261 -0.368637 1.366 255 255 255
-0.348036 -0.19653 1.152 255 255 255
-0.014063 -0.119117 1.005 255 255 255
-0.124451 0.29703 0.76 255 255 255
0.705136 0.504911 1.442 255 255 255
0.00055794 0.0596384 0.849 255 255 255
0.0407971 -0.0966558 1.027 255 255 255
0.731778 -0.465614 1.439 255 255 255
-0.119611 -0.283314 1.254 255 255 255
0.0251092 0.256099 0.756 255 255 255
0.40055 -0.00863916 0.91 255 255 255
0.109698 0.027831 0.808 255 255 255
0.0657694 -0.0713321 1 255 255 255
0.083085 -0.0107723 0.845 255 255 255
0.456158 -0.311325 1.26 255 255 255
-0.290313 -0.234117 1.242 255 255 255
0.187762 0.0634895 0.81 255 255 255
0.159113 0.036066 0.847 255 255 255
0.256224 -0.596519 1.616 255 255 255
-0.391573 -0.245599 1.249 255 255 255
-0.478612 -0.229404 1.217 255 255 255
-0.228944 -0.0610468 0.966 255 255 255
0.317107 0.240285 0.734 255 255 255
-0.24262 0.0689015 0.844 255 255 255
0.0375479 0.00615597 0.908 255 255 255
0.512788 -0.459418 1.449 255 255 255
-0.347106 -0.342889 1.435 255 255 255
-0.116623 -0.529606 1.416 255 255 255
0.0017343 0.232412 0.759 255 255 255
-0.0823003 0.155462 0.795 255 255 255
-0.0742544 0.160031 0.792 255 255 255
0.652742 -0.642779 1.682 255 255 255
-0.219341 0.0368751 0.866 255 255 255
0.0744652 0.283894 0.745 255 255 255
0.341053 -0.170717 1.118 255 255 255
0.631321 -0.462379 1.429 255 255 255
-0.107332 -0.0347057 0.934 255 255 255
0.117489 0.141285 0.741 255 255 255
-0.231613 -0.298433 1.275 255 255 255
0.027567 0.0718106 0.83 255 255 255
0.612585 -0.675882 1.739 255 255 255
-0.103211 -0.0379072 0.938 255 255 255
0.515532 -0.106035 1.037 255 255 255
0.308265 -0.398585 1.409 255 255 255
-0.638052 -0.236138 1.242 255 255 255
-0.238927 -0.524405 1.39 255 255 255
0.106768 0.117688 0.768 255 255 255
-0.201452 0.204948 0.85 255 255 255
-0.362659 0.0102856 0.882 255 255 255
0.223263 0.217393 0.681 255 255 255
-0.263538 -0.0814828 0.966 255 255 255
-0.298321 0.251557 0.858 255 255 255
0.288053 -0.366208 1.357 255 255 255
-0.319955 0.291815 0.887 255 255 255
0.395698 -0.245932 1.201 255 255 255
0.433587 -0.14744 1.068 255 255 255
-0.238726 0.340979 0.891 255 255 255
0.161062 0.0638815 0.815 255 255 255
-0.42515 0.125427 0.905 255 255 255
-0.215901 -0.373383 1.359 255 255 255
-0.241524 -0.0736228 0.966 255 255 255
0.510318 -0.304447 1.257 255 255 255
-0.332598 0.351708 0.939 255 255 255
-0.272051 -0.278662 1.27 255 255 255
-1.17023 -0.904043 2.78 255 255 255
0.039191 0.196076 0.743 255 255 255
-0.282084 -0.0190888 0.914 255 255 255
0.109796 0.230295 0.707 255 255 255
0.0648918 -0.215915 1.126 255 255 255
-0.105993 0.184618 0.798 255 255 255
-1.12481 -1.08805 2.884 255 255 255
0.202274 0.19972 0.685 255 255 255
0.299823 0.176924 0.724 255 255 255
0.152261 -0.250808 1.178 0 0 0
-0.228923 -0.282184 1.249 255 255 255
-0.113139 0.21957 0.812 255 255 255
0.0838028 0.225469 0.721 255 255 255
-0.505697 0.0521372 0.966 255 255 255
-0.33603 0.111932 0.858 255 255 255
-0.482398 0.11713 0.945 255 255 255
-0.11943 0.184009 0.801 255 255 255
0.220376 0.174476 0.7 255 255 255
0.036553 -0.537424 1.559 0 0 0
0.29129 0.0706051 0.801 255 255 255
-0.0289606 -0.205561 1.072 255 255 255
-0.444137 -0.287 1.308 255 255 255
0.164428 -0.114633 1.07 255 255 255
0.241698 0.113388 0.756 255 255 255
0.170709 -0.242108 1.173 255 255 255
0.402288 -0.258685 1.215 255 255 255
-0.00973147 0.275565 0.787 255 255 255
0.361685 -0.649445 1.744 255 255 255
-0.521207 -0.3981 1.432 255 255 255
0.168686 0.206493 0.689 255 255 255
-1.17473 -0.961628 2.857 255 255 255
0.188002 0.12923 0.748 255 255 255
-1.27593 -0.892131 2.54 255 255 255
-0.13464 -0.280603 1.242 255 255 255
-0.182954 0.247714 0.874 255 255 255
-0.3259 0.205995 0.872 255 255 255
0.119912 0.181385 0.468 255 255 255
-0.176813 0.0146577 0.886 255 255 255
-0.399367 0.0680815 0.887 255 255 255
0.709545 -0.602913 1.612 255 255 255
0.275471 0.0201714 0.875 255 255 255
-0.0814758 0.098348 0.826 255 255 255
-0.499494 -0.235961 1.21 255 255 255
-0.174751 0.0954475 0.848 255 255 255
-0.293758 0.267849 0.861 255 255 255
0.00282652 -0.321746 1.237 255 255 255
-0.425289 -0.0383114 0.948 255 255 255
0.367124 -0.164089 1.098 255 255 255
0.47283 -0.00282909 0.948 255 255 255
0.774335 0.438671 1.513 255 255 255
0.0578761 -0.570319 1.587 255 255 255
0.59244 -0.451809 1.425 255 255 255
-0.129822 0.273587 0.785 255 255 255
0.0632902 0.111634 0.787 255 255 255
-0.329349 -0.533866 1.409 255 255 255
0.130474 0.163235 0.726 255 255 255
-0.18193 -0.443915 1.422 255 255 255
-0.491617 0.0408777 0.96 255 255 255
-0.12611 -0.542273 1.419 255 255 255
-0.207517 -0.0964122 1.007 255 255 255
-0.336814 0.0758057 0.86 255 255 255
0.205814 -0.474954 1.498 255 255 255
0.319267 0.244327 0.739 255 255 255
0.314725 -0.181422 1.128 255 255 255
0.0423266 0.054121 0.828 255 255 255
0.264929 -0.26372 1.22 255 255 255
0.186529 0.175997 0.697 255 255 255
0.53033 -0.25464 1.196 255 255 255
-0.340515 -0.0427583 0.944 255 255 255
0.262264 0.140568 0.731 255 255 255
0.131802 0.179391 0.459 255 255 255
-0.113217 0.253411 0.832 255 255 255
0.21466 -0.0749293 1.027 255 255 255
0.0411731 -0.00726056 0.923 255 255 255
0.158143 0.128712 0.745 255 255 255
-0.399367 0.0651947 0.887 255 255 255
0.393257 -0.601225 1.673 255 255 255
-0.230688 0.0478712 0.861 255 255 255
-0.155544 -0.525537 1.393 255 255 255
-0.300005 0.022914 0.871 255 255 255
0.477147 -0.574891 1.607 255 255 255
-0.194077 -0.0100755 0.906 255 255 255
0.159946 0.212407 0.69 255 255 255
0.0090161 -0.159852 1.025 255 255 255
0.561472 -0.410445 1.372 255 255 255
0.019695 0.0617401 0.84 255 255 255
0.409358 0.0443779 0.875 255 255 255
-0.451297 -0.114258 0.964 255 255 255
0.430087 -0.202329 1.132 255 255 255
-0.429534 0.337144 0.954 255 255 255
-0.382997 -0.407141 1.456 255 255 255
-0.131163 -0.29656 1.267 255 255 255
-0.0385987 0.17173 0.775 255 255 255
0.34558 -0.394059 1.393 255 255 255
-0.457099 0.330922 0.963 255 255 255
-0.100914 -0.494825 1.422 255 255 255
0.14373 -0.184277 1.112 255 255 255
0.0511182 -0.163082 1.068 255 255 255
0.00779204 -0.222588 1.087 255 255 255
-0.457574 0.248122 0.964 255 255 255
0.659143 -0.543636 1.555 255 255 255
0.0957711 -0.540581 1.532 255 255 255
0.219966 -0.0312929 0.923 255 255 255
-0.295539 0.073541 0.85 255 255 255
0.0457254 0.271515 0.751 255 255 255
0.240684 -0.556001 1.583 0 0 0
-0.507166 -0.379432 1.406 255 255 255
0.416522 -0.515665 1.547 255 255 255
-0.500408 -0.310171 1.316 255 255 255
-0.393001 -0.472671 1.432 255 255 255
-0.146158 -0.0252027 0.92 255 255 255
0.112431 -0.061542 0.904 0 0 0
-0.421861 0.0630805 0.898 255 255 255
-0.244148 0.0412453 0.869 255 255 255
-0.0392772 -0.0987121 0.981 255 255 255
-0.316767 -0.215315 1.227 255 255 255
-0.635762 -0.297643 1.308 255 255 255
0.0428193 0.240813 0.743 255 255 255
0.253681 -0.170106 1.126 255 255 255
0.0407734 0.299595 0.773 255 255 255
-0.0200563 0.124916 0.79 255 255 255
0.631936 -0.519032 1.52 255 255 255
0.185652 0.152513 0.72 255 255 255
0.406553 0.0592175 0.863 255 255 255
0.00908706 0.212476 0.754 255 255 255
0.0322781 0.163968 0.751 255 255 255
-0.0477355 0.165222 0.78 255 255 255
-0.296131 -0.493801 1.393 255 255 255
0.499676 -0.533514 1.555 255 255 255
0.317671 -0.20028 1.152 255 255 255
0.0671889 0.154171 0.745 255 255 255
-0.26072 -0.0708574 0.95 255 255 255
-0.412638 -0.241273 1.227 255 255 255
0.131618 0.167549 0.483 255 255 255
-0.481031 -0.368328 1.39 255 255 255
0.131551 0.010804 0.813 255 255 255
0.168538 0.196414 0.693 255 255 255
-0.561354 -0.468889 1.502 0 0 0
0.291746 -0.0704761 0.988 255 255 255
0.204509 0.121839 0.755 255 255 255
0.491947 -0.324895 1.273 255 255 255
0.0223496 0.0669679 0.837 255 255 255
0.0231507 0.032685 0.867 255 255 255
-0.0413004 0.112597 0.803 255 255 255
-0.344202 -0.0253396 0.925 255 255 255
-0.109777 -0.0785821 0.969 255 255 255
-0.190556 0.224766 0.857 255 255 255
-0.109712 0.118404 0.816 255 255 255
-0.00196702 0.219481 0.757 255 255 255
-0.46065 0.124918 0.923 255 255 255
-0.343923 0.274897 0.893 255 255 255
-1.0789 -1.10827 2.925 255 255 255
0.0224982 0.204298 0.751 255 255 255
-0.112928 0.000251458 0.93 0 0 0
-0.157772 -0.0525261 0.954 255 255 255
0.184349 0.130447 0.748 255 255 255
-0.250145 0.214072 0.837 255 255 255
0.262589 -0.144756 1.087 255 255 255
-0.273691 0.307805 0.931 255 255 255
0.150099 0.0723574 0.806 255 255 255
-0.0146859 0.142009 0.778 255 255 255
-0.395778 0.13827 0.912 255 255 255
-0.430183 -0.0446699 0.952 0 0 0
0.354099 -0.433205 1.456 255 255 255
-0.172393 0.163657 0.83 255 255 255
0.521908 -0.578111 1.616 255 255 255
0.516456 -0.309766 1.262 255 255 255
0.0122928 -0.139154 1.02 255 255 255
-0.106873 0.016899 0.93 255 255 255
0.594018 -0.428983 1.396 255 255 255
0.0848586 0.243903 0.72 255 255 255
-0.455157 -0.351733 1.387 255 255 255
0.0429067 -0.0208913 0.928 255 255 255
-0.162347 -0.509669 1.393 255 255 255
-0.389608 0.137664 0.908 255 255 255
-0.117831 0.18745 0.799 255 255 255
-0.105504 -0.304006 1.281 255 255 255
0.133076 -0.165129 1.07 255 255 255
0.0150314 -0.443119 1.442 255 255 255
-0.216066 -0.29422 1.257 0 0 0
0.262805 0.0807946 0.786 255 255 255
-0.129039 0.0643127 0.875 255 255 255
-0.0365984 -0.0661178 0.995 255 255 255
-0.0427907 -0.170192 1.027 255 255 255
-0.146131 -0.335262 1.348 255 255 255
-0.172578 -0.0879558 1.004 0 0 0
-0.221533 0.0765025 0.837 255 255 255
-0.183366 0.295546 0.856 255 255 255
0.551509 -0.409105 1.375 255 255 255
0.248732 0.0888347 0.778 255 255 255
-0.278091 0.160566 0.835 255 255 255
0.0523068 -0.286837 1.217 255 255 255
-0.372709 0.0533447 0.882 255 255 255
-0.301907 -0.0311912 0.92 255 255 255
-0.630726 -0.294159 1.302 255 255 255
-0.320535 0.232155 0.869 255 255 255
0.200836 0.0946757 0.774 255 255 255
-0.0985867 -0.437944 1.456 0 0 0
0.303445 -0.0237313 0.921 255 255 255
-0.377865 -0.0824106 0.977 255 255 255
0.887169 0.266483 1.739 255 255 255
0.547201 -0.469712 1.459 255 255 255
0.0142193 0.259486 0.766 255 255 255
-0.681001 -0.362906 1.378 255 255 255
-0.123877 0.261316 0.84 255 255 255
0.0968004 0.196281 0.713 255 255 255
0.686671 -0.404344 1.359 255 255 255
0.643316 -0.468991 1.435 255 255 255
-0.012526 -0.138199 1.013 255 255 255
0.175159 0.143939 0.73 255 255 255
-0.462029 0.0643639 0.938 255 255 255
0.122557 0.221496 0.701 255 255 255
-0.221985 -0.212449 1.222 255 255 255
-0.380083 0.128554 0.896 255 255 255
-0.156582 0.150588 0.825 255 255 255
-0.123609 -0.115466 1.046 255 255 255
-0.153278 -0.210017 1.154 255 255 255
0.19644 0.191638 0.688 255 255 255
0.237387 0.0481278 0.841 255 255 255
-0.226091 0.217141 0.849 255 255 255
-0.41665 -0.514907 1.466 255 255 255
0.0056237 -0.123606 1.015 255 255 255
0.476544 -0.554596 1.579 255 255 255
-0.113353 0.260494 0.833 255 255 255
0.163772 -0.300343 1.192 255 255 255
0.0200799 0.192332 0.752 255 255 255
-0.311319 0.335146 0.944 255 255 255
-0.23879 0.119855 0.826 255 255 255
-1.11542 -1.08335 2.884 255 255 255
0.366238 0.0213238 0.864 255 255 255
-0.444743 -0.0399382 0.95 255 255 255
0.202319 0.122 0.756 255 255 255
0.163851 -0.0337851 0.836 255 255 255
0.399505 -0.659468 1.748 255 255 255
-0.252015 0.281967 0.897 255 255 255
-0.076653 -0.0612364 0.969 255 255 255
0.321462 0.000242265 0.896 255 255 255
-0.371146 -0.426097 1.456 255 255 255
-0.148959 0.161685 0.82 255 255 255
-0.139766 0.274222 0.798 255 255 255
0.268447 -0.269227 1.227 255 255 255
-0.0885157 0.0123322 0.928 255 255 255
-0.332338 0.219268 0.874 255 255 255
-0.203467 0.314934 0.83 0 0 0
0.557842 -0.197672 1.137 255 255 255
0.566576 -0.422616 1.39 255 255 255
0.276656 -0.172549 1.13 255 255 255
0.121113 0.0280377 0.814 255 255 255
-0.120087 -0.142886 1.06 255 255 255
-0.089724 -0.060478 0.957 255 255 255
-0.269444 -0.209356 1.239 255 255 255
0.080913 0.13625 0.76 255 255 255
-0.169077 0.196711 0.827 255 255 255
0.370323 -0.326799 1.297 255 255 255
0.0566695 0.07504 0.821 255 255 255
-0.137572 0.176413 0.808 255 255 255
0.321362 0.128264 0.764 255 255 255
0.274576 -0.247775 1.21 255 255 255
-0.537398 -0.200232 1.185 255 255 255
0.129656 0.176052 0.462 255 255 255
-0.0296526 0.173578 0.772 255 255 255
0.258993 0.0430592 0.849 255 255 255
-0.329288 0.110149 0.855 255 255 255
-0.617647 -0.27146 1.275 255 255 255
0.593779 -0.400653 1.354 255 255 255
0.135794 -0.110527 1.064 255 255 255
-0.0528213 -0.170192 1.027 255 255 255
0.261698 -0.108865 1.048 255 255 255
0.327969 -0.417616 1.435 255 255 255
-0.159858 0.0231507 0.88 255 255 255
0.209538 0.123638 0.751 255 255 255
0.416304 -0.392583 1.372 255 255 255
-0.245728 0.235379 0.85 255 255 255
-0.032166 0.220061 0.772 255 255 255
-0.490593 0.0532644 0.958 255 255 255
0.279164 0.213121 0.696 255 255 255
0.298247 0.00459592 0.892 255 255 255
0.259575 0.161212 0.717 255 255 255
-0.134988 0.0579121 0.886 255 255 255
0.0875593 -0.038719 0.921 255 255 255
-0.131324 0.287404 0.764 255 255 255
-0.272264 0.295393 0.916 255 255 255
-0.217446 0.192279 0.837 255 255 255
0.475822 -0.0121618 0.954 255 255 255
0.374068 -0.0444822 0.948 255 255 255
-0.399418 -0.0528564 0.96 255 255 255
0.560328 -0.495567 1.494 255 255 255
-0.10347 -0.323185 1.308 255 255 255
0.0877034 0.279702 0.734 255 255 255
0.285396 -0.197554 1.158 255 255 255
-0.0854165 -0.138744 1.017 255 255 255
-0.379838 0.0499019 0.872 255 255 255
-0.412738 0.368943 0.944 255 255 255
0.272437 0.0159723 0.879 255 255 255
-0.0244411 -0.288704 1.192 255 255 255
0.0210792 -0.178105 1.044 255 255 255
0.218531 0.13075 0.736 255 255 255
0.0568675 -0.028626 0.934 255 255 255
-0.207209 -0.267033 1.217 255 255 255
-0.0996372 0.278022 0.769 255 255 255
0.169069 0.216757 0.686 255 255 255
0.23406 0.0831406 0.784 255 255 255
-0.42238 0.0877275 0.896 255 255 255
0.380011 0.0364919 0.857 255 255 255
0.652659 0.530482 1.435 255 255 255
-0.457131 0.158304 0.925 255 255 255
0.119644 0.219007 0.704 255 255 255
0.506127 -0.643851 1.714 255 255 255
0.179334 0.0740504 0.796 255 255 255
0.513423 -0.197672 1.137 255 255 255
0.303996 -0.0703334 0.986 255 255 255
0.265674 -0.424926 1.452 255 255 255
0.288201 -0.178381 1.132 255 255 255
0.107514 -0.279807 1.171 255 255 255
-0.0721585 -0.0951676 0.994 255 255 255
0.299017 -0.0600289 0.975 255 255 255
-0.542611 -0.0879778 1.043 255 255 255
-0.258852 -0.085678 0.978 255 255 255
-0.257714 -0.00420578 0.912 255 255 255
0.261232 -0.181975 1.143 255 255 255
0.0488666 0.25774 0.743 255 255 255
-0.0208637 -0.463029 1.491 255 255 255
-0.209463 0.0930839 0.827 255 255 255
-0.125159 0.280363 0.772 255 255 255
-0.477806 0.119443 0.939 255 255 255
-0.00467738 0.29927 0.799 255 255 255
-0.0225613 -0.350856 1.308 255 255 255
-0.474649 -0.233365 1.217 255 255 255
0.319855 -0.0145306 0.908 255 255 255
0.325569 -0.0596595 0.969 255 255 255
-0.326505 0.0767563 0.855 255 255 255
0.0544566 -0.536259 1.563 255 255 255
0.447923 0.0240978 0.916 255 255 255
0.304378 0.158082 0.735 255 255 255
0.0344456 0.235399 0.745 255 255 255
0.49813 -0.339467 1.289 255 255 255
0.233706 0.139378 0.731 255 255 255
0.113255 0.158512 0.737 255 255 255
-0.520957 -0.0431871 0.989 255 255 255
-0.100246 0.137596 0.804 255 255 255
-0.44659 -0.101708 0.964 255 255 255
0.289017 -0.204436 1.165 255 255 255
0.141097 -0.461985 1.435 255 255 255
0.314717 0.240285 0.734 255 255 255
0.307127 -0.407749 1.425 255 255 255
-0.245077 0.283616 0.893 255 255 255
-0.187023 0.149696 0.835 255 255 255
0.250946 0.0776427 0.793 255 255 255
0.674646 0.530068 1.403 255 255 255
-0.0828597 0.296969 0.776 255 255 255
-0.110484 -0.0568239 0.948 255 255 255
0.257576 -0.278582 1.242 255 255 255
0.240466 0.194159 0.689 255 255 255
0.693811 -0.640042 1.682 255 255 255
0.647111 -0.558317 1.575 255 255 255
-0.241681 0.205654 0.836 255 255 255
0.392523 -0.0160788 0.912 255 255 255
-0.217261 -0.0612996 0.97 255 255 255
-0.23548 -0.0413968 0.948 0 0 0
0.359342 0.328441 0.851 255 255 255
-0.502544 0.000258759 0.957 255 255 255
-0.292079 0.148562 0.844 255 255 255
0.472248 -0.0777635 0.999 255 255 255
-0.384492 -0.311306 1.33 0 0 0
-0.441236 0.0106938 0.917 255 255 255
-0.169776 -0.321402 1.327 255 255 255
0.221395 -0.269435 1.21 255 255 255
-0.0467027 0.269101 0.806 255 255 255
0.161508 -0.0835216 1.051 255 255 255
0.108984 0.118628 0.766 255 255 255
0.2683 -0.10068 1.034 255 255 255
0.367523 -0.178527 1.11 255 255 255
0.256527 0.198669 0.693 255 255 255
-0.114808 0.279637 0.77 255 255 255
-0.0167637 -0.296006 1.198 255 255 255
-0.695186 -0.355403 1.375 255 255 255
0.550916 -0.399333 1.357 255 255 255
0.133085 -0.233555 1.178 255 255 255
0.345482 0.132559 0.782 255 255 255
-0.330915 0.0272597 0.874 255 255 255
0.174737 0.162874 0.709 255 255 255
0.204205 0.201655 0.684 255 255 255
-0.311332 -0.501785 1.39 255 255 255
0.646323 -0.453564 1.416 255 255 255
0.236822 0.0733034 0.802 255 255 255
-0.243142 0.0178581 0.902 255 255 255
0.220541 -0.193116 1.154 255 255 255
0.155932 0.157258 0.478 255 255 255
0.541439 -0.243965 1.182 255 255 255
-0.0554246 0.167976 0.781 255 255 255
-0.356944 -0.116788 0.972 255 255 255
0.101177 0.0185115 0.803 255 255 255
0.281536 -0.0131968 0.918 255 255 255
-0.233896 -0.489417 1.387 255 255 255
-0.231281 0.0999336 0.828 255 255 255
0.132631 0.0419942 0.828 255 255 255
-0.015699 -0.0913143 1.005 255 255 255
0.362334 0.17785 0.791 255 255 255
-0.198604 0.300339 0.874 255 255 255
-0.42626 -0.457199 1.442 255 255 255
-0.187358 0.305919 0.796 255 255 255
-0.473168 0.0694577 0.945 255 255 255
0.167502 0.169561 0.469 255 255 255
-0.446764 0.233275 0.961 255 255 255
0.268417 0.113238 0.755 255 255 255
-0.0137127 0.120532 0.795 255 255 255
-0.354892 0.137245 0.877 255 255 255
0.769576 0.430588 1.528 255 255 255
0.155831 -0.254209 1.176 255 255 255
0.10422 0.144902 0.741 255 255 255
-0.0551408 0.198726 0.777 255 255 255
-0.487824 -0.549655 1.509 255 255 255
-0.0655165 -0.272612 1.198 255 255 255
0.607585 -0.592723 1.62 255 255 255
-0.559782 -0.0933873 1.066 255 255 255
-0.317802 0.326275 0.945 255 255 255
0.394828 0.31846 0.897 255 255 255
-0.21471 0.287758 0.925 255 255 255
-0.211925 -0.434344 1.406 255 255 255
-0.420994 0.156799 0.925 255 255 255
0.11083 -0.108138 1.041 255 255 255
-0.72923 -0.382724 1.393 255 255 255
-1.07317 -1.06458 2.884 255 255 255
0.370414 -0.262731 1.234 255 255 255
0.363234 -0.565116 1.624 255 255 255
-0.0525359 0.247317 0.795 255 255 255
-0.329922 -0.404704 1.473 255 255 255
0.409028 -0.073095 0.98 255 255 255
0.217965 -0.107466 1.051 255 255 255
0.0268089 -0.0781528 1.004 255 255 255
0.0233761 -0.0694956 0.997 255 255 255
-0.171249 -0.166146 1.124 0 0 0
-1.21548 -0.985475 2.78 255 255 255
0.0284582 0.197132 0.747 255 255 255
0.0190564 0.159749 0.76 255 255 255
-0.433366 0.0552197 0.913 255 255 255
-0.487015 0.075849 0.948 255 255 255
-0.000974515 -0.0748851 1.004 255 255 255
-0.377016 0.087792 0.882 255 255 255
0.243814 0.0765448 0.795 255 255 255
-0.451732 0.19034 0.942 255 255 255
0.168512 -0.235978 1.171 255 255 255
-0.130001 0.155759 0.81 255 255 255
-0.0394454 0.252828 0.792 255 255 255
0.0806159 0.211091 0.724 255 255 255
0.123853 0.138039 0.743 255 255 255
0.184879 0.0775448 0.792 255 255 255
0.399958 0.189509 0.849 255 255 255
-0.246365 0.0332505 0.882 255 255 255
0.263454 0.140568 0.731 255 255 255
0.105513 0.185714 0.717 255 255 255
-0.103887 0.123109 0.812 255 255 255
0.217343 -0.0986322 1.048 255 255 255
-0.21013 0.170078 0.835 255 255 255
0.24825 0.150921 0.718 255 255 255
-0.298123 -0.0235252 0.913 0 0 0
-0.393465 0.236323 0.924 255 255 255
0.434247 0.0509892 0.891 255 255 255
0.213112 0.211673 0.684 255 255 255
-0.0195231 0.226714 0.769 255 255 255
-0.197027 -0.0115499 0.906 255 255 255
-0.354147 -0.16685 1.048 255 255 255
0.00727592 -0.121954 1.015 255 255 255
0.273282 -0.252338 1.213 255 255 255
0.485367 -0.277618 1.22 255 255 255
0.112351 -0.482962 1.456 255 255 255
0.102091 -0.200487 1.132 255 255 255
0.304254 0.0790327 0.794 255 255 255
-0.427016 0.15981 0.925 255 255 255
-0.121665 0.114339 0.825 255 255 255
-0.0425926 -0.527123 1.487 255 255 255
0.587617 -0.242042 1.182 255 255 255
-0.212802 -0.223096 1.215 255 255 255
-0.236203 0.251116 0.871 255 255 255
0.114817 -0.0260469 0.807 255 255 255
-0.43188 0.0507624 0.913 255 255 255
-0.349618 0.228818 0.889 255 255 255
0.604015 -0.571458 1.583 255 255 255
-0.25689 0.141704 0.828 255 255 255
0.0562745 0.269345 0.745 255 255 255
-0.169671 -0.124846 1.068 255 255 255
0.128812 0.208697 0.704 255 255 255
0.609802 -0.600137 1.633 255 255 255
0.0930627 0.254449 0.72 255 255 255
-0.212593 0.13323 0.834 255 255 255
0.387527 0.00170225 0.897 255 255 255
0.313906 0.121569 0.761 255 255 255
0.386204 -0.141427 1.062 255 255 255
-0.485474 -0.313736 1.322 255 255 255
0.630828 -0.423961 1.387 255 255 255
-0.513729 -0.105506 1 0 0 0
-0.281458 0.0891853 0.841 255 255 255
-0.504462 -0.280066 1.267 255 255 255
-0.272051 -0.280729 1.27 255 255 255
0.136383 0.159691 0.726 255 255 255
0.125018 0.259511 0.702 255 255 255
0.0402409 -0.0805018 1.013 255 255 255
-0.293453 0.144442 0.844 255 255 255
-0.0634684 -0.486279 1.466 255 255 255
0.260818 0.130927 0.737 255 255 255
-0.0382525 0.309026 0.794 255 255 255
-0.362105 -0.381932 1.487 255 255 255
0.17437 0.0741434 0.797 255 255 255
0.363909 0.115211 0.803 255 255 255
-0.418859 -0.0901619 0.958 255 255 255
0.518003 -0.149457 1.07 255 255 255
0.184719 0.178311 0.474 255 255 255
-0.225593 -0.222028 1.22 255 255 255
0.494232 -0.0330559 0.975 255 255 255
-0.231482 0.33677 0.88 255 255 255
-0.276852 0.0201483 0.874 255 255 255
-0.174975 -0.0363808 0.938 255 255 255
-0.092209 -0.187241 1.077 255 255 255
-0.399835 -0.0920081 0.961 255 255 255
-0.522538 0.355416 0.992 255 255 255
0.431478 -0.362715 1.336 255 255 255
0.0339466 0.147575 0.761 255 255 255
0.554005 -0.236986 1.176 255 255 255
0.723133 -0.455486 1.422 255 255 255
0.57603 -0.55152 1.563 255 255 255
0.107444 0.0132515 0.801 255 255 255
-0.119412 0.106671 0.828 255 255 255
0.0607527 0.0697808 0.822 255 255 255
0.297511 -0.0131105 0.912 255 255 255
-0.626022 -0.409782 1.416 255 255 255
-0.483929 0.0712209 0.948 255 255 255
-0.257574 0.067848 0.848 255 255 255
-0.0710424 0.173946 0.785 255 255 255
0.565202 -0.209653 1.152 255 255 255
-0.0922463 0.272119 0.77 255 255 255
0.141162 -0.0130424 0.815 255 255 255
0.290481 0.201532 0.707 255 255 255
0.446229 -0.0842664 0.999 255 255 255
0.492841 -0.594822 1.633 255 255 255
0.0192319 0.144994 0.767 255 255 255
0.41423 -0.161549 1.081 255 255 255
0.705909 0.470221 1.473 255 255 255
-0.21136 0.273332 0.917 255 255 255
-0.1726 0.292324 0.831 255 255 255
0.0844691 -0.0446655 0.92 255 255 255
-0.0923457 0.019733 0.921 255 255 255
0.247519 -0.109384 1.053 255 255 255
0.131915 0.164181 0.487 255 255 255
0.267726 0.248376 0.687 255 255 255
-0.0121922 -0.0430561 0.986 255 255 255
-0.530587 -0.170106 1.114 255 255 255
-0.157034 -0.0115372 0.905 255 255 255
0.446011 -0.397406 1.381 255 255 255
-0.449728 -0.109551 0.964 255 255 255
0.210812 0.113988 0.76 255 255 255
-0.0889071 0.230323 0.808 255 255 255
-0.0748303 0.0742191 0.842 255 255 255
0.377619 -0.055806 0.957 255 255 255
-0.381473 -0.11339 0.97 255 255 255
0.513913 -0.113546 1.044 255 255 255
0.257959 0.158151 0.719 255 255 255
0.315274 0.0756297 0.799 255 255 255
0.247717 -0.214021 1.176 255 255 255
0.17423 -0.228356 1.171 255 255 255
0.245016 0.154294 0.712 255 255 255
-0.610527 -0.209875 1.196 255 255 255
-0.523663 -0.163193 1.092 255 255 255
-0.00220867 0.0624751 0.85 255 255 255
0.139208 0.234757 0.693 255 255 255
0.0226259 -0.158348 1.037 255 255 255
0.414579 -0.443829 1.452 255 255 255
0.248483 0.134343 0.736 255 255 255
-0.122342 0.171401 0.803 255 255 255
0.303198 -0.312345 1.281 255 255 255
-0.33246 0.110278 0.856 255 255 255
-0.0808164 0.0293055 0.893 255 255 255
-0.250205 0.349205 0.901 255 255 255
-0.0748162 -0.192856 1.079 255 255 255
-0.5201 -0.283909 1.275 0 0 0
-0.255024 0.30334 0.913 255 255 255
0.365411 -0.141014 1.072 255 255 255
0.133558 -0.118736 1.06 255 255 255
-0.489333 -0.255666 1.229 255 255 255
0.043281 -0.0767476 1.007 255 255 255
0.240739 0.0733034 0.802 255 255 255
0.0658936 0.142059 0.758 255 255 255
-0.345157 -0.118126 0.97 255 255 255
-0.135449 0.274633 0.788 255 255 255
-0.166717 0.0146577 0.886 255 255 255
-0.23879 0.165557 0.826 0 0 0
-0.463972 -0.101391 0.961 255 255 255
0.135461 -0.2632 1.182 255 255 255
0.0490683 0.134657 0.765 255 255 255
-0.135442 0.16519 0.811 255 255 255
0.412548 0.0175809 0.888 255 255 255
-0.0119031 0.20605 0.762 255 255 255
0.701431 -0.663376 1.714 0 0 0
0.0104786 0.159763 0.766 255 255 255
0.236776 0.112158 0.756 255 255 255
0.109634 0.137198 0.745 255 255 255
-0.0744558 -0.0106872 0.961 0 0 0
0.0806459 0.0273693 0.834 255 255 255
-0.314107 0.194038 0.863 255 255 255
-0.468446 -0.551994 1.502 255 255 255
0.290597 -0.0870098 1.012 255 255 255
0.280573 0.0884921 0.775 255 255 255
0.0623678 -0.236741 1.147 255 255 255
0.455875 0.133059 0.917 255 255 255
-1.26036 -0.954736 2.509 255 255 255
-0.0274117 -0.0137574 0.957 255 255 255
-0.186913 -0.0894112 1.002 255 255 255
-0.20034 0.0118006 0.888 255 255 255
-0.0825343 -0.0530767 0.964 255 255 255
-1.19671 -1.04428 2.768 255 255 255
-0.24899 -0.111381 1.009 0 0 0
0.306009 -0.0964676 1.025 255 255 255
-0.448488 0.218516 0.958 255 255 255
0.148684 -0.217706 1.165 255 255 255
-0.404457 0.282353 0.932 255 255 255
0.00854472 -0.288704 1.192 255 255 255
0.0356105 0.210869 0.744 255 255 255
-0.493204 0.0623568 0.954 255 255 255
0.0203281 0.0298632 0.867 255 255 255
-0.436281 0.0285697 0.916 255 255 255
-0.302158 0.240106 0.857 255 255 255
0.543798 -0.355114 1.308 255 255 255
-0.585187 -0.373902 1.369 255 255 255
-0.466989 0.230866 0.964 255 255 255
0.244649 -0.496755 1.543 255 255 255
-0.586063 -0.190107 1.182 255 255 255
0.0690304 -0.0331858 0.934 255 255 255
0.194813 0.00732252 0.871 255 255 255
-0.522011 0.35022 0.991 255 255 255
-0.407503 0.0740218 0.889 255 255 255
-0.48496 -0.0197153 0.944 255 255 255
-0.275419 -0.48593 1.403 255 255 255
0.140739 0.166741 0.474 255 255 255
-0.0427072 -0.516409 1.491 255 255 255
0.278776 -0.446366 1.484 255 255 255
-0.217486 -0.0117794 0.924 255 255 255
-0.319841 -0.171073 1.053 0 0 0
0.558735 -0.580741 1.616 255 255 255
-0.477885 -0.160333 1.05 0 0 0
0.317918 0.0331914 0.844 255 255 255
-0.141233 -0.0409164 0.937 255 255 255
0.301944 0.158628 0.732 255 255 255
0.251734 0.035302 0.862 255 255 255
0.354843 -0.143425 1.077 255 255 255
0.0814453 0.130922 0.765 255 255 255
-1.2481 -0.971068 2.509 255 255 255
0.040022 -0.284009 1.205 255 255 255
-0.270851 -0.460815 1.403 255 255 255
-0.172488 0.179906 0.824 255 255 255
-0.199597 -0.508628 1.384 255 255 255
-0.354127 -0.422216 1.484 255 255 255
-0.0195231 0.191675 0.769 255 255 255
0.0240326 -0.106476 1.025 255 255 255
-0.224022 0.013365 0.896 255 255 255
0.20801 0.0449589 0.833 255 255 255
-0.638866 -0.302361 1.31 255 255 255
0.300959 0.213942 0.71 255 255 255
0.242345 -0.163147 1.116 255 255 255
0.115955 0.0386823 0.815 255 255 255
-0.425289 0.216235 0.948 255 255 255
0.316049 0.0662075 0.811 255 255 255
-0.427196 0.0998359 0.9 255 255 255
0.182487 0.105601 0.771 255 255 255
0.286313 -0.494282 1.551 255 255 255
0.348321 -0.642899 1.734 255 255 255
0.072641 -0.253074 1.162 255 255 255
-0.4431 0.158133 0.924 255 255 255
0.144742 0.172638 0.467 255 255 255
-0.281573 0.0498446 0.871 0 0 0
0.109777 -0.00238443 0.799 255 255 255
-0.22221 -0.366208 1.357 255 255 255
-0.144486 -0.0981356 1.025 255 255 255
0.189948 -0.303804 1.198 255 255 255
0.233243 0.169022 0.701 255 255 255
0.0972619 0.285674 0.734 255 255 255
0.397073 -0.0903149 0.994 255 255 255
0.154051 0.0897481 0.786 255 255 255
-0.45615 0.220765 0.961 255 255 255
-0.216666 0.178018 0.834 255 255 255
0.430704 -0.110936 1.02 255 255 255
0.598868 -0.520398 1.524 255 255 255
-0.0608614 -0.29597 1.222 255 255 255
-0.399481 0.174673 0.924 255 255 255
0.277005 -0.181338 1.139 255 255 255
0.46441 -0.137581 1.059 255 255 255
0.14979 0.00828838 0.826 255 255 255
-0.202702 0.265337 0.905 255 255 255
0.226397 0.170162 0.701 255 255 255
-0.304865 0.120429 0.849 255 255 255
-0.30869 0.00169276 0.892 255 255 255
-0.117421 0.253716 0.833 255 255 255
-0.346442 0.00169276 0.892 255 255 255
-0.394587 -0.130907 0.983 255 255 255
-0.273694 0.0414351 0.873 0 0 0
-1.24525 -0.986028 2.707 255 255 255
-0.11726 0.269742 0.804 255 255 255
-0.0317101 0.126521 0.792 255 255 255
0.206808 -0.121939 1.073 255 255 255
0.105897 -0.167962 1.077 255 255 255
-0.494756 0.188107 0.954 255 255 255
-0.0723094 0.238159 0.799 255 255 255
0.459487 -0.450918 1.452 255 255 255
-0.390293 0.113973 0.896 255 255 255
-0.341122 0.0243314 0.871 255 255 255
0.27766 -0.0253396 0.925 255 255 255
-0.0208734 -0.162074 1.018 255 255 255
0.108299 0.180633 0.72 255 255 255
0.146011 -0.0477864 0.843 255 255 255
0.150128 0.0304084 0.843 255 255 255
0.0160885 -0.0414841 0.95 255 255 255
0.342974 0.124125 0.785 255 255 255
0.17523 0.159862 0.711 255 255 255
0.015338 -0.08615 1.002 255 255 255
0.368129 -0.398269 1.384 255 255 255
0.304979 0.22328 0.714 255 255 255
-0.241009 0.0650881 0.848 255 255 255
0.289939 0.134592 0.744 255 255 255
0.413628 -0.00869613 0.916 255 255 255
-0.38135 -0.0101534 0.913 255 255 255
-0.318386 0.228799 0.867 255 255 255
0.203797 0.143537 0.722 255 255 255
0.136508 -0.0076993 0.811 255 255 255
0.134388 0.158946 0.728 255 255 255
-0.111534 -0.0345943 0.931 255 255 255
0.144383 -0.349048 1.278 0 0 0
-0.174581 0.150874 0.834 255 255 255
0.112205 0.116893 0.771 255 255 255
-0.496941 -0.189594 1.167 255 255 255
0.181232 0.105601 0.771 255 255 255
-0.635453 -0.254921 1.265 255 255 255
-0.0297937 0.10567 0.81 255 255 255
-0.169637 -0.428216 1.416 255 255 255
-0.518109 -0.200232 1.185 255 255 255
0.198819 0.0385019 0.84 0 0 0
-0.228869 -0.0799607 0.986 255 255 255
0.849056 0.324417 1.659 255 255 255
0.0300202 0.114341 0.788 255 255 255
0.493705 -0.125919 1.048 255 255 255
-1.04917 -1.03602 2.857 255 255 255
-0.40416 -0.219607 1.196 255 255 255
0.353409 -0.218828 1.171 255 255 255
-0.153663 0.290914 0.77 255 255 255
0.298167 0.0752511 0.795 255 255 255
-0.285163 -0.482393 1.406 255 255 255
-0.352116 0.21989 0.888 255 255 255
-0.197282 0.0647811 0.844 255 255 255
0.018524 0.0375328 0.849 255 255 255
-0.250601 0.252729 0.862 255 255 255
0.0245926 -0.0357215 0.921 255 255 255
0.175361 -0.165285 1.106 255 255 255
-0.30281 0.349086 0.932 255 255 255
0.255067 -0.0589218 0.983 255 255 255
0.0853371 0.0783742 0.814 255 255 255
-0.170099 0.150512 0.832 255 255 255
0.704872 -0.482962 1.456 255 255 255
0.455729 -0.106372 1.024 255 255 255
-0.508005 -0.0885188 0.992 255 255 255
-0.494021 -0.516396 1.498 255 255 255
0.494588 -0.546673 1.571 255 255 255
-0.256193 -0.0541149 0.928 255 255 255
0.209758 0.0385019 0.84 255 255 255
-0.37462 -0.52525 1.442 255 255 255
0.109155 0.019843 0.804 255 255 255
0.380327 -0.173339 1.1 255 255 255
0.130984 0.172503 0.475 255 255 255
0.383504 -0.0762846 0.98 255 255 255
-1.10691 -1.09823 2.911 255 255 255
0.138614 0.161821 0.48 255 255 255
-0.494004 -0.195595 1.192 255 255 255
-0.434511 -0.200966 1.178 255 255 255
-1.18984 -0.980356 2.871 255 255 255
-0.18894 0.0531652 0.856 255 255 255
-0.0280132 -0.0331576 0.978 255 255 255
0.00675548 0.155181 0.768 255 255 255
0.086867 0.183572 0.727 255 255 255
0.240348 -0.347128 1.302 255 255 255
-0.00208655 0.113904 0.803 255 255 255
-0.202925 -0.0553823 0.977 0 0 0
0.257161 0.173182 0.704 255 255 255
0.474203 -0.401028 1.378 255 255 255
0.0400263 0.11489 0.783 255 255 255
-0.189701 -0.0674647 0.991 0 0 0
-0.540617 -0.349396 1.369 255 255 255
0.277219 -0.510882 1.571 255 255 255
-0.585556 -0.306625 1.31 255 255 255
-0.00752458 0.0768412 0.826 255 255 255
-0.337068 -0.0884977 0.974 255 255 255
-0.647599 -0.384991 1.393 255 255 255
0.485988 -0.167358 1.096 255 255 255
-0.378711 -0.295966 1.31 255 255 255
-0.0338326 0.103288 0.812 255 255 255
-0.350786 -0.442155 1.47 255 255 255
-0.109708 -0.495041 1.416 255 255 255
0.587771 -0.464238 1.442 255 255 255
-0.12286 -0.429292 1.435 255 255 255
-0.136398 -0.468665 1.406 255 255 255
-0.0565781 -0.534145 1.473 255 255 255
