ply
format ascii 1.0
comment Created by Open3D
element vertex 1353
property double x
property double y
property double z
property uchar red
property uchar green
property uchar blue
end_header
-0.814297 -0.213637 3.215 22 23 19
-0.0924429 0.240949 0.986 93 90 87
0.615684 -0.0395522 1.535 99 104 92
0.608724 -0.926058 2.982 138 124 109
0.243967 0.251378 0.68 55 55 49
0.54304 -1.09105 3.165 136 129 123
-0.58518 -0.0731474 1.412 6 12 10
-0.688695 0.289062 1.466 5 11 13
0.0381445 0.279473 0.825 137 137 133
1.31619 -1.34807 3.652 33 41 40
0.835914 -0.461184 3.086 89 81 78
0.228336 0.156856 0.992 28 43 42
0.452079 -0.131839 1.659 144 145 141
-0.0882962 -0.692936 2.768 141 133 130
-0.841974 -0.643988 2.303 25 24 26
-0.685073 0.413359 1.484 3 6 9
0.526338 -0.0832996 1.559 149 142 136
-0.566176 0.000384488 1.422 7 15 14
0.183117 0.242022 0.743 63 63 57
-0.579922 0.0349473 1.416 1 7 7
-1.0003 0.674198 1.899 96 99 100
-1.02661 0.639528 2.024 93 99 97
-0.613427 -0.53023 2.719 14 35 66
-0.217316 0.214588 1.145 105 106 97
0.238605 -0.877945 2.967 136 129 123
-0.317345 0.117541 1.286 162 161 163
0.113263 0.162902 0.961 108 111 110
-0.402728 -0.0829145 2.857 121 113 112
0.430926 0.116808 1.053 184 188 183
-0.589775 -0.690645 2.672 21 29 28
0.623093 -0.14306 1.633 175 181 179
-0.69232 0.456828 1.484 0 9 12
-0.558052 0.355997 1.419 1 4 3
-0.9025 -0.188411 3.231 35 36 27
0.257261 0.19489 0.762 190 198 197
0.54304 -0.792321 3.165 117 110 102
-0.17145 -0.942936 2.66 161 153 150
-0.187317 0.396101 1.022 5 11 9
-0.327853 0.235355 1.278 73 66 75
-0.147995 0.0419501 1.345 102 101 105
0.50441 -0.649246 3.248 66 55 48
0.0689414 0.0321128 1.393 193 189 194
-0.903909 -0.245908 2.261 118 114 105
-0.608036 -0.720493 2.638 3 20 34
1.25524 -0.975817 3.391 23 19 22
-0.172036 0.0424803 1.362 102 101 105
-0.353909 -0.933465 2.54 162 159 154
-1.16157 0.385761 2.212 89 96 90
0.421762 0.105526 1.096 141 149 136
0.135326 0.269787 0.753 162 168 166
-0.0845837 -0.277921 2.953 116 111 107
-0.599908 0.366032 1.459 6 9 10
-0.942931 -0.482102 2.181 128 130 121
0.18954 -0.0566291 1.524 191 189 181
-0.209871 0.00975599 1.439 192 188 191
0.0642553 0.269365 0.799 165 168 169
0.128389 0.0973074 1.046 36 36 40
-0.27291 0.228992 1.201 68 64 65
0.160379 0.139979 1.022 9 13 8
-0.892823 -0.496452 2.121 129 129 123
0.838072 -0.175562 1.664 127 142 128
0.102815 0.228619 0.816 183 183 183
-0.148971 0.353703 1.108 16 19 20
-0.0329197 0.149746 1.032 168 159 164
0.0274478 0.229327 0.869 143 142 146
0.336543 0.0417629 1.339 144 145 136
0.305528 -0.0240829 1.366 153 154 141
1.23969 -1.29852 3.487 31 41 46
-0.24659 0.22269 1.178 92 92 86
-0.0297213 -0.679423 2.768 139 131 130
0.613578 -0.431083 2.982 108 105 100
0.334025 0.20889 0.697 36 43 37
-0.20795 -0.693747 2.684 144 139 135
-0.118856 -0.0301766 1.567 199 195 200
0.298123 0.14834 0.778 105 97 83
-0.410505 -0.501555 2.638 85 79 83
-0.47929 -0.769532 2.615 36 30 36
0.598564 0.0559194 1.22 142 145 144
0.0992447 0.121097 0.977 14 17 20
-0.622742 0.0984671 1.435 4 7 6
-0.0650622 0.0785677 1.265 102 102 104
-0.568667 0.144528 1.452 7 7 1
-0.190517 0.322757 1.152 6 9 10
-0.824759 -0.439679 2.236 126 122 115
-0.410697 0.298806 1.31 6 18 34
0.429641 0.0845936 1.126 143 150 142
1.11294 -0.651796 2.844 30 31 27
0.612877 -0.0866164 1.528 113 118 106
-0.63789 0.524519 1.498 0 5 5
0.249906 0.135946 0.851 89 80 63
1.14975 -0.833413 3.373 8 16 13
-0.490192 0.164095 1.524 4 10 8
0.0258235 0.245716 0.862 139 137 129
0.0779016 0.180542 0.931 177 176 180
1.07761 -0.537014 2.731 70 56 52
-0.573593 -0.512531 2.719 15 20 29
-0.933479 -0.428367 2.143 127 122 120
-0.000998781 0.144287 1.029 188 184 185
0.252035 0.247327 0.672 56 52 55
-0.669638 -0.92848 2.44 91 98 106
-0.820094 -0.831266 2.166 104 119 105
0.196302 0.190894 0.776 193 199 201
-0.0968508 -0.698648 2.755 143 135 132
-0.0748432 0.361821 0.966 77 80 79
-0.191929 -0.553298 2.768 128 120 119
-1.0544 0.106456 2.099 99 103 98
0.52179 0.10206 1.06 153 162 153
0.70532 -0.72853 3.248 76 67 60
-0.0224293 0.201497 0.944 191 190 192
-0.0198892 0.181791 0.97 195 193 200
1.07606 -0.806975 3.266 108 108 108
0.709851 -0.0333114 1.595 126 132 130
1.14156 -0.358643 2.374 138 142 135
0.0706888 0.194775 0.879 172 171 173
-0.145831 0.200194 1.059 123 114 117
-0.5486 -0.903674 2.561 50 64 66
-1.01321 -0.555115 2.057 126 133 127
-0.0357145 0.0476867 1.322 88 100 114
0.705006 -0.364414 2.805 44 30 24
1.60188 -1.1562 3.354 36 40 35
0.170846 0.134065 1.015 8 12 7
-0.0957859 -0.148004 2.857 112 101 96
0.448295 -0.128827 1.655 144 145 141
0.224172 0.0919423 1.173 187 182 180
0.277639 -0.0528556 1.559 152 150 142
0.142276 0.166258 1 145 145 145
0.300959 -1.02326 3.011 122 113 106
0.602803 -0.355905 2.884 103 103 99
0.181165 -1.04617 2.898 147 142 138
1.04845 -0.925482 3.198 136 136 132
-0.100774 0.30123 0.989 76 72 65
0.238132 0.053713 1.215 138 139 130
-0.0401741 -0.564543 2.871 143 134 129
0.319361 -0.559391 3.248 119 110 101
-0.0443759 0.158738 1.025 150 144 146
0.248732 0.147712 0.847 101 92 85
-0.213389 0.158059 1.154 127 122 120
0.128506 0.187705 0.893 100 111 111
-0.581151 -0.0019255 1.419 4 8 3
0.334677 0.199765 0.689 55 53 43
-0.219675 0.357643 1.066 7 13 13
-0.341854 -0.647163 2.672 151 141 141
-0.695764 -0.104833 3.248 17 18 14
-0.932906 -0.0339744 3.055 53 52 52
0.0611544 0.13799 1.032 185 179 183
-0.651065 -0.715444 2.604 18 18 12
1.18883 -0.488974 2.55 27 16 11
-0.607582 -0.0503117 1.416 6 6 6
0.933044 -1.01916 3.231 119 115 108
1.13424 -0.849468 2.707 31 26 24
-0.836931 -0.822794 2.269 16 19 22
1.25183 -0.961881 2.844 39 42 43
-0.423184 0.235421 1.416 11 26 50
-0.0798559 0.00040693 1.505 204 198 204
0.257983 0.244724 0.662 56 59 62
-0.155289 0.382412 1.053 4 7 6
-0.425219 0.28003 1.322 10 20 36
0.0245353 0.309427 0.819 155 161 161
-0.0773817 0.134693 1.116 120 116 119
0.422648 -0.0349164 1.551 180 181 177
-0.669777 0.13308 1.456 4 7 8
-0.0977296 -0.546649 2.78 143 134 125
0.000619057 0.188807 0.942 188 187 189
0.87521 -0.41093 2.78 148 149 140
-0.945338 -0.277575 2.22 120 116 107
0.311592 0.105645 1.079 188 188 188
0.04153 0.189632 0.931 201 200 204
0.614671 0.0371598 1.257 148 157 150
0.186943 0.25515 0.739 53 60 52
0.196457 0.183291 0.872 36 43 51
0.811854 -0.453945 3.071 90 83 77
-0.842979 -0.890567 2.402 13 13 15
0.345782 0.156673 0.734 130 122 108
0.263887 0.241346 0.65 60 66 64
0.240959 0.137558 0.879 97 93 84
-0.629261 -0.742105 2.55 33 20 24
-1.11904 -0.300451 2.151 114 121 115
0.610536 -0.174825 1.826 150 152 143
-0.273458 -0.937015 2.561 163 160 155
0.175859 -0.0232362 1.452 192 188 191
0.111463 0.22334 0.821 183 183 185
-0.602786 0.253277 1.466 6 6 2
0.223058 -0.917052 2.953 139 131 128
0.600357 0.0248761 1.369 188 194 192
-0.593907 -0.519237 2.731 46 53 59
0.743967 -0.0937097 1.607 88 90 81
0.0716996 0.00771825 1.498 196 192 195
0.424544 -0.344227 3.165 21 13 12
0.219934 0.234304 0.695 63 57 59
0.59319 -0.868997 2.953 142 129 116
-0.641631 0.34078 1.473 9 8 8
-0.0352007 0.198043 0.957 197 197 201
0.528761 -0.579263 3.301 63 61 42
0.48009 -0.873117 2.967 139 129 115
0.134859 0.241959 0.786 140 139 139
0.377789 0.115094 1.053 187 188 184
0.338664 -0.729031 3.181 118 112 99
0.279523 0.10498 0.836 84 60 46
0.245171 0.158004 0.808 121 104 86
-0.138316 -0.139386 2.871 111 99 99
0.305378 0.169142 0.726 113 113 93
0.0644319 0.232584 0.835 176 176 180
-1.02002 -0.436087 2.064 120 127 121
0.558708 -0.00205713 1.516 106 114 103
-1.11054 -0.217591 2.128 109 112 111
-0.962986 -0.682316 2.057 137 138 134
-0.647644 0.548896 1.498 0 6 6
0.518217 0.0664938 1.232 168 178 164
0.618357 -0.276963 2.509 80 55 35
-0.841249 -0.602154 2.166 133 133 127
0.159676 0.0757728 1.22 162 157 153
-0.688878 0.506148 1.487 2 7 12
-0.782328 -0.70821 2.42 68 85 88
0.0359127 0.131677 1.137 155 150 158
-0.572406 -0.815068 2.519 30 41 52
-0.614786 -0.0250702 1.422 1 7 5
-0.467459 0.14317 1.539 22 23 17
0.196193 -0.965592 2.911 144 137 131
0.557942 -0.560077 3.283 66 64 45
0.367763 0.119207 1.044 187 187 187
0.717417 -0.143843 1.612 155 163 164
-0.454153 -1.00358 2.593 166 167 158
-0.0922172 0.148213 1.057 186 182 183
0.19628 0.239834 0.729 64 61 58
1.35561 -1.22417 3.568 40 40 36
-0.0719055 0.254803 0.948 158 157 161
-0.815487 -0.0899352 3.283 25 24 24
0.551059 0.0649286 1.203 185 189 184
-0.60558 0.0163963 1.406 1 9 8
1.09235 -0.805833 3.283 53 52 54
-0.444785 0.160449 1.513 41 36 34
0.325339 0.173859 0.693 129 122 105
1.25432 -0.993996 2.982 39 42 43
1.32925 -0.83763 2.755 100 107 101
0.248474 0.0422631 1.227 150 151 142
0.198856 -0.361497 3.181 108 98 96
-0.595627 0.272362 1.466 5 5 7
-1.0467 0.62987 2.057 93 100 94
-0.885229 -0.687665 2.136 140 141 135
-0.817782 -0.657014 2.42 30 29 33
0.18383 0.257047 0.741 63 70 62
-0.246358 0.133669 1.205 126 125 125
0.339191 0.104274 1.083 186 186 188
0.228279 -0.330374 3.231 104 95 90
1.36142 -1.21836 3.568 40 40 34
0.254273 -1.05591 2.925 139 132 122
-0.956485 -0.0811399 3.149 55 52 47
0.39321 0.059858 1.354 180 179 179
-0.950551 -0.287382 2.158 117 118 107
0.0605736 0.186096 0.921 190 189 193
-0.846397 -0.585942 2.469 11 16 21
-0.859595 -0.483599 2.204 131 123 122
-0.0388776 0.257439 0.898 105 103 93
0.50988 -0.576847 3.318 66 60 47
-0.867072 -0.229672 2.32 118 111 101
-0.792745 -0.762297 2.392 64 79 78
-0.684037 0.426294 1.487 3 6 7
-0.850416 -0.413173 2.469 11 11 11
0.76017 -0.0476534 1.642 47 56 47
-0.602792 0.123895 1.432 3 7 2
0.279195 0.139509 0.823 60 45 33
0.233733 -0.0226601 1.416 175 174 174
0.163085 0.0891763 1.187 106 102 103
0.527093 0.0645936 1.234 163 172 163
-0.398441 0.37108 1.085 7 11 6
1.24548 -0.562336 2.489 35 19 14
0.445152 -0.926233 3.165 127 120 112
-0.46645 -0.381036 2.793 135 126 129
0.228325 0.242651 0.693 58 56 48
0.208557 0.030015 1.302 156 151 147
0.889987 -0.876068 3.266 114 110 101
-0.223469 -0.810052 2.768 150 140 138
0.451061 -0.741723 3.283 108 104 93
0.649014 -0.265376 2.44 48 32 27
0.0261528 0.3007 0.828 133 136 139
0.14558 0.202535 0.749 73 83 113
-0.570233 0.336847 1.456 3 3 3
0.656931 0.00269286 1.419 139 152 137
-0.550667 -0.0136898 1.442 10 10 10
0.0902025 -0.342178 3.011 115 105 103
0.246918 -0.0973438 1.624 158 156 148
0.20858 0.144427 1.03 104 104 98
0.119661 0.156224 0.988 25 31 31
0.437776 -0.306616 3.149 23 16 10
-0.313204 0.401062 1.048 7 13 11
-0.561221 0.336654 1.445 2 5 4
-0.136615 -0.909866 2.743 156 149 143
-1.08131 -0.362485 2.085 118 126 115
-1.10441 0.50276 2.143 100 111 107
0.209117 0.182347 0.811 192 197 202
-0.125763 0.216483 1.022 113 111 103
-0.0651734 -0.722388 2.743 137 132 130
-0.376076 -0.323691 2.731 132 125 119
0.857211 -0.934053 3.283 115 108 100
0.308439 0.226838 0.657 186 200 204
-0.544431 -0.907842 2.561 32 43 52
0.0959164 0.215759 0.849 192 192 194
1.26884 -0.866925 3.354 28 33 23
-0.666698 -0.45352 2.684 34 36 44
-0.506038 0.388318 1.378 8 16 15
0.153768 -0.0744531 1.705 165 156 151
-0.40545 -0.216399 2.78 127 119 116
0.222337 0.243615 0.699 60 60 54
0.20819 0.196645 0.764 193 198 203
-0.294198 0.0308315 1.439 202 198 203
-0.642767 0.556209 1.498 1 6 11
-0.031393 0.335932 0.893 94 95 84
-0.504902 -0.953596 2.572 51 57 59
-0.838288 -0.740888 2.411 7 13 13
-0.228365 -0.658546 2.719 147 137 135
0.182716 0.182296 0.948 69 65 70
0.219247 0.153734 1.025 157 163 163
0.260188 0.236445 0.654 48 74 76
-1.12883 0.565533 2.143 87 90 91
0.0312303 -0.286843 2.996 113 105 102
0.482807 -0.197122 1.959 108 101 95
0.507335 -0.0402736 1.563 121 112 115
-0.667937 0.222503 1.452 1 9 6
0.0537259 0.127008 1.162 143 143 145
-0.657926 0.268135 1.456 1 7 9
-0.651015 -0.0393411 3.086 86 88 94
0.309365 0.0948246 1.096 187 186 186
0.550547 -0.762693 3.149 43 33 33
0.123903 0.100903 1.066 52 45 58
1.15692 -0.710996 2.499 31 38 42
-0.207695 0.353424 1.085 2 8 10
-0.870849 -0.274977 2.32 121 116 112
-0.107588 -0.265766 2.925 120 112 109
-0.390577 0.287344 1.336 5 19 39
1.36392 -1.09139 3.181 42 45 44
-0.234949 0.28234 1.187 22 18 21
0.0415455 0.2107 0.868 152 151 153
-0.0635454 0.045432 1.319 100 93 102
-0.0380825 0.229303 0.914 158 154 159
0.0556498 0.190632 0.914 186 185 189
0.310226 0.17586 0.692 88 76 60
0.531058 -0.819299 2.982 145 130 120
-0.548734 -0.719953 2.684 7 15 14
0.386196 -0.0633269 1.567 155 150 146
-0.25985 0.35908 1.06 9 15 15
0.222741 0.0233679 1.286 130 131 122
-0.47267 0.0701027 1.477 19 18 22
-0.803879 -0.859296 2.402 43 49 62
-0.939898 -0.19271 3.215 47 48 42
-0.695854 0.269976 1.466 18 14 17
-1.08834 0.5725 2.092 92 96 89
-0.876783 -0.417318 2.158 126 124 114
0.113065 0.102414 1.046 157 153 154
-0.585771 -0.0873651 1.419 9 13 6
0.458967 0.101085 1.126 155 156 150
-0.705352 -0.520124 2.54 91 75 70
-0.0785723 0.261073 0.954 133 127 129
0.79951 -0.703148 3.181 110 101 94
-0.699177 0.172986 1.473 18 26 15
0.640843 -0.876776 2.996 125 116 99
-0.34617 0.233786 1.316 42 37 45
0.186445 0.1219 1.01 16 18 24
-0.70923 0.36506 1.484 8 11 10
0.211449 -0.339202 3.215 107 100 94
-0.0671214 0.0785677 1.265 102 102 104
-0.989293 -0.390005 2.143 123 123 117
-0.600461 0.123895 1.432 6 10 5
-0.667151 0.463575 1.498 1 4 5
-0.621103 0.416614 1.487 0 9 2
-0.945842 -0.367488 2.196 127 123 116
0.268936 -0.974585 2.982 138 131 123
-0.906279 0.70151 1.81 83 89 91
0.0840547 -0.477198 2.967 127 120 114
0.601828 -1.01329 2.996 130 120 106
0.168034 0.182839 0.935 40 35 45
0.0189816 -0.0200785 1.575 162 159 156
-0.476239 0.192757 1.535 9 13 8
0.0958895 0.276236 0.771 137 139 145
0.312763 -0.0457999 1.419 158 158 154
-0.0390717 -0.00459279 1.539 200 196 201
0.480394 0.00762551 1.48 191 195 190
0.0620092 0.305021 0.787 95 104 95
1.08857 -0.583654 2.66 29 25 14
0.0341187 -0.754777 2.831 136 128 125
-0.215909 0.130674 1.178 170 164 170
-0.472495 0.224992 1.484 7 20 29
-0.0339179 -1.06163 2.743 158 149 142
-0.700014 -0.796403 2.449 26 39 48
-0.0547569 0.361645 0.945 80 73 67
-0.106645 0.0209724 1.406 139 133 139
-0.56621 -0.615127 2.684 13 15 21
0.824144 -0.183914 1.691 127 136 127
0.786203 -0.0920583 1.624 108 113 103
-0.647407 0.228325 1.459 1 7 5
0.412933 -0.0372473 1.543 172 173 169
-0.834481 -0.641411 2.204 134 131 126
0.724459 -0.133681 1.616 151 150 150
0.66831 -0.559391 3.248 74 67 61
0.0415455 0.21635 0.868 142 138 141
-0.235192 0.182941 1.169 114 106 105
1.09839 -0.440417 2.684 33 15 6
0.249765 0.199563 0.747 184 191 197
-0.00805294 0.233286 0.884 176 175 177
-0.747852 -0.652932 2.449 59 66 72
-0.0477771 -0.0456935 1.668 175 170 168
0.053446 0.307347 0.793 72 67 75
0.243766 0.213022 0.692 189 200 200
-0.936964 -0.608485 2.151 132 132 134
-0.712575 0.269728 1.491 105 105 101
0.238721 0.248405 0.684 56 55 55
0.392766 0.0726053 1.169 151 153 142
0.941828 -0.60387 3.071 127 114 103
0.0297066 0.0869392 1.267 94 93 95
-0.3472 0.334531 1.201 8 8 10
-0.862404 -0.411815 2.166 129 127 119
-0.986917 -0.190672 3.181 52 52 46
-0.484082 0.331505 1.33 5 20 35
-0.671773 0.0968018 1.445 5 14 7
0.161483 0.0926578 1.135 64 53 59
0.193968 0.0491185 1.249 190 189 189
0.161409 -0.0939325 1.758 166 159 153
0.00212503 0.193969 0.93 189 188 190
-0.511547 0.399346 1.393 7 10 11
-0.347152 -0.814444 2.582 157 152 148
-0.567371 -0.0668641 1.425 11 14 15
-0.359452 0.0831621 1.375 147 147 147
-0.15856 0.315169 1.112 46 45 45
-0.997554 -0.158262 3.055 53 53 47
-0.457759 0.242334 1.416 16 34 57
-0.944599 -0.240407 2.244 115 115 109
0.126331 -0.481408 3.055 124 115 110
-0.337393 -0.800196 2.604 159 151 148
-0.656565 -0.618928 2.626 74 69 77
0.186416 -0.775625 2.982 141 134 126
-0.0295026 0.151132 1.03 151 140 146
0.400375 -0.0422693 1.543 179 179 175
-0.34723 0.0922915 1.345 152 151 155
0.258549 -0.438607 3.215 109 100 95
0.60473 -0.850529 2.939 143 125 114
0.788047 -0.0559408 1.65 41 46 36
1.18004 -0.573858 2.54 29 19 5
-0.247539 0.052186 1.327 192 188 191
0.311435 0.143293 0.758 94 82 64
0.415944 -0.0778248 1.603 124 126 117
-0.0830566 0.288412 0.952 90 85 81
-0.990061 -0.722332 2.01 138 144 144
-0.126994 0.260587 1.032 95 89 91
-0.62394 -0.5367 2.707 5 26 57
-0.0602581 0.143071 1.07 147 146 153
0.0259787 0.133728 1.108 175 174 176
0.563648 -0.668709 3.165 45 36 31
-1.11724 -0.285906 2.121 114 117 116
0.421969 0.01899 1.429 146 148 137
-0.429233 0.311121 1.308 4 21 33
0.212287 0.209563 0.731 191 198 204
-0.179079 0.0688859 1.316 101 96 106
0.0968681 0.291699 0.759 153 164 164
0.202434 0.218074 0.701 70 84 106
-0.389412 -0.394798 2.731 137 130 124
-0.65359 -0.501566 2.684 8 18 44
-0.117414 -0.907229 2.818 153 144 147
-0.0958396 0.0989717 1.237 111 110 117
-1.09322 -0.259146 2.128 117 117 117
0.778273 -0.123772 1.624 143 149 149
0.262969 0.141734 1.06 140 148 147
0.898528 -0.560548 3.165 97 90 82
-0.558092 0.378373 1.425 4 5 1
-0.985534 -0.443061 2.181 125 125 121
-0.0545831 0.30531 0.942 86 81 77
-0.0182898 0.278944 0.892 92 90 80
-0.284314 0.00771825 1.498 199 195 200
-0.702872 -0.771644 2.459 49 67 74
0.598399 -0.1226 1.575 135 142 134
0.254487 0.158248 0.796 135 115 93
0.283574 0.147514 0.794 105 92 70
1.00656 -0.575161 2.925 125 118 110
-0.940861 -0.59729 2.136 133 133 129
0.391347 -0.120831 1.62 193 193 193
-0.498468 -0.808671 2.604 27 31 43
-0.568397 0.0211215 1.416 12 12 14
0.274563 0.200241 0.745 181 191 194
-0.635451 0.463575 1.498 0 5 5
0.947743 -0.310759 2.392 98 98 102
-0.397622 -0.68615 2.638 151 142 137
0.144192 0.120934 1.002 15 18 19
0.289889 0.217477 0.671 187 197 200
-0.836315 -0.525122 2.228 132 128 121
-0.19434 0.191677 1.12 131 128 125
-0.845245 -0.490773 2.204 132 124 123
0.509697 -0.675674 3.248 75 65 63
0.360887 -0.936924 3.149 124 117 111
0.0819502 0.214855 0.862 195 195 197
0.0711757 0.120164 1.169 114 114 118
-0.721272 -0.845096 2.44 83 95 101
0.199031 0.143586 1.024 80 81 77
-0.631917 -0.898945 2.479 103 103 103
-0.0899569 0.373926 0.994 7 10 9
0.122129 0.142758 0.995 16 15 17
0.302143 0.00681143 1.322 176 176 176
-0.385308 0.283344 1.348 0 13 24
0.332677 0.225949 0.667 185 199 203
0.893547 -1.13669 3.026 128 121 113
-0.542016 -0.0210315 1.463 2 8 10
-0.878146 -0.212793 2.261 116 112 105
0.322617 0.173608 0.692 130 125 107
-0.0607409 0.0232108 1.403 95 114 134
0.112636 0.000412067 1.524 178 172 174
0.217604 0.205195 0.741 192 197 202
-0.34032 -0.00685745 1.487 183 179 180
-0.252305 0.259179 1.196 58 59 55
0.565532 0.0487253 1.239 181 188 182
0.0175256 0.234713 0.868 147 143 144
0.838445 -1.10041 3.133 122 115 105
0.318168 0.231384 0.64 183 197 199
-0.602792 0.112243 1.432 3 7 2
-0.512177 0.010034 1.48 33 28 26
-0.0530497 0.357431 0.942 77 77 73
0.706888 -1.24525 3.231 106 107 98
-0.879463 -0.299196 2.303 118 118 112
0.125684 0.256748 0.769 163 169 169
0.479992 0.158912 1.005 142 149 141
-0.219283 0.0899848 1.252 195 191 196
0.0848039 0.207176 0.877 171 171 173
0.591558 0.0800774 1.167 142 157 143
-0.509758 0.126234 1.487 4 10 12
-0.182326 0.397764 1.022 5 13 10
-0.209876 0.210867 1.135 100 98 90
1.12123 -0.812087 2.615 36 20 13
0.884344 -1.02903 3.133 123 116 108
-0.67364 0.0166645 1.429 13 14 29
1.11821 -0.724786 2.638 51 32 30
-0.610157 -0.845865 2.489 84 94 97
-0.646665 0.191786 1.452 1 8 2
-0.846717 -0.435733 2.53 9 15 17
-0.567371 0.0815483 1.425 8 9 5
0.0361072 -0.267341 2.996 103 96 90
0.0715328 0.180562 0.947 184 183 185
-0.357095 0.0442581 1.419 173 172 174
-0.486504 0.162039 1.528 4 10 8
-0.219633 0.0840065 1.254 194 193 197
-0.00719247 -0.674918 2.768 136 128 125
-0.00651669 0.251116 0.871 101 98 93
-1.06538 -0.353766 2.114 121 122 118
-0.536314 0.0751149 1.435 8 9 5
-0.937864 -0.213313 2.228 115 116 105
-0.844894 -0.639957 2.43 9 11 17
0.119175 0.27988 0.744 164 171 163
0.689738 -0.0862771 1.567 161 170 161
-0.96702 -0.234223 2.22 112 112 108
-0.0336212 -0.707218 2.719 141 133 132
0.710661 -0.0228715 1.591 112 113 102
0.453534 -0.590007 3.301 106 102 95
0.265092 0.0950785 1.12 181 181 181
0.170041 0.259298 0.744 88 89 78
0.0603883 0.168465 0.966 177 175 182
0.403734 0.0301245 1.406 144 147 146
1.16429 -0.970848 3.336 18 24 22
-0.504949 0.106372 1.48 7 10 9
0.5688 -0.668709 3.165 41 32 27
1.47693 -1.27347 3.609 45 45 41
-0.412286 0.0668741 1.459 148 147 149
0.805885 -0.617978 3.336 76 72 61
0.815044 -1.10692 3.181 122 113 108
0.571854 -0.370976 2.967 74 77 76
-0.653755 0.213052 1.452 3 11 8
-0.782004 -0.895156 2.383 82 94 98
-0.33737 -0.958266 2.54 166 167 154
-0.830321 -0.593978 2.469 32 34 42
0.522674 -1.17008 3.198 128 124 113
-0.632822 0.12476 1.442 2 9 3
0.230914 0.255424 0.694 53 57 50
-0.00115699 0.101191 1.192 101 101 103
0.573995 -0.245723 2.329 64 48 41
-0.433728 -0.756878 2.572 155 151 144
-0.278183 0.129689 1.242 144 144 140
-0.422181 0.0556813 1.477 142 142 142
-0.334547 -0.895643 2.55 166 161 157
1.02181 -0.978685 3.071 137 137 131
0.307261 0.218642 0.678 187 200 199
0.231164 0.111941 1.089 183 186 187
-0.302504 0.237292 1.234 79 74 70
-0.978285 0.0694125 3.011 48 48 42
-0.914368 -0.520605 2.107 132 132 126
-0.227197 0.0824888 1.262 195 194 196
0.0834422 0.124399 1.017 173 164 169
0.776965 -0.171919 1.655 149 155 155
-0.01626 0.121335 1.162 113 112 116
0.0482742 0.223272 0.862 162 161 161
0.0722106 0.0404708 1.369 193 189 190
-0.177495 0.119753 1.165 182 178 181
-0.298565 0.0545912 1.333 187 186 188
-0.60759 0.160736 1.449 4 7 8
-0.596369 0.138551 1.439 6 9 10
0.539955 -0.0485757 1.505 110 112 99
1.30176 -1.03866 3.071 39 42 45
0.402269 0.0343797 1.393 147 150 149
0.0368591 0.00757399 1.47 195 191 194
0.524641 0.0535242 1.257 169 173 168
0.351508 0.152464 0.731 97 93 82
-0.897662 -0.475262 2.166 129 127 119
0.394753 0.123709 1.039 107 108 102
0.117217 0.11361 0.981 27 27 29
0.226519 0.128558 1.051 129 127 138
0.322081 0.228653 0.65 188 200 204
-0.610463 -0.0823386 1.412 14 18 13
0.354628 0.137749 0.735 121 125 120
0.0437173 0.298526 0.804 156 159 158
1.28605 -1.10393 3.429 27 29 20
-0.952128 -0.598604 2.092 133 134 125
-0.686458 0.440813 1.487 1 7 5
-0.98259 -0.313519 2.121 119 119 115
0.014414 0.105423 1.196 104 100 103
0.395622 -0.868797 3.181 123 116 108
-0.602792 -0.123121 1.432 62 55 64
-1.12883 0.192385 2.143 92 98 98
0.0488287 0.263043 0.824 141 145 138
-0.8829 -0.262742 2.312 120 116 107
0.192847 0.20684 0.734 192 197 202
-1.06337 -0.428535 2.044 119 125 125
-0.527394 0.0216138 1.449 8 8 12
0.513943 0.104005 1.118 139 152 137
-0.31108 -0.501458 2.707 145 136 141
0.509696 -0.0549662 1.547 124 123 127
1.12629 -0.689594 2.54 43 27 22
0.121358 -0.506266 3.055 131 124 114
-1.12684 -0.189753 2.166 115 116 112
0.0945627 0.186661 0.902 190 189 193
1.08398 -0.597212 2.805 108 100 97
0.124314 -0.0597629 1.682 195 191 194
0.170478 0.186981 0.797 193 196 199
-0.566658 0.415892 1.459 3 3 5
-0.449317 0.183453 1.52 10 11 7
0.461589 0.0799402 1.165 170 174 169
0.316384 0.130237 0.761 120 111 92
0.283202 0.225042 0.658 191 198 202
-0.713621 -0.458122 2.54 108 90 81
0.0831566 0.179037 0.939 147 146 157
0.219119 0.0872447 1.187 179 175 176
0.224279 0.104948 1.09 155 152 147
0.345509 -0.916427 3.149 129 122 116
0.23884 -1.03665 2.911 137 133 126
0.866843 -0.453945 3.071 112 98 94
1.11856 -0.814024 2.649 38 20 11
1.1589 -0.851046 2.604 50 36 32
0.87609 -0.527549 3.215 104 93 84
0.662497 -0.0803482 1.551 124 128 123
-0.545135 -0.0195303 1.532 45 44 48
0.155056 -0.366239 3.133 112 102 102
0.075385 -0.0200785 1.575 118 113 109
-0.471029 0.106875 1.487 21 27 27
1.18802 -0.677067 2.479 34 13 10
0.98255 -0.571056 2.953 79 68 74
1.17404 -0.467212 2.638 35 14 9
0.530796 -0.0741836 1.528 121 128 120
0.311316 0.117171 1.072 164 161 158
0.521858 -0.164512 1.748 174 174 170
0.0986206 0.282061 0.763 149 152 151
0.862956 -0.394966 2.672 147 146 148
0.410725 -0.103911 1.603 153 152 152
-1.07429 0.609248 2.078 91 98 92
-1.01342 -0.486259 2.092 129 129 123
0.275568 -0.0824204 1.591 176 172 173
-1.00662 -0.314554 2.128 118 119 110
0.079225 -0.477198 2.967 129 122 116
1.76096 -1.48062 3.858 40 48 47
-0.431248 -0.475437 2.66 133 128 126
0.114485 0.280257 0.745 158 165 157
-0.374404 0.357613 1.087 10 12 18
-0.761997 -0.521656 2.469 32 42 49
-0.547037 -0.490407 2.719 8 15 21
-0.722886 -0.771644 2.459 69 68 75
1.03183 -0.978443 3.086 127 124 121
0.151017 0.109739 1.004 19 18 20
0.0362347 0.0445326 1.357 91 87 92
-1.10014 -0.103313 2.128 108 109 103
0.160533 0.195702 0.84 191 194 193
0.181066 0.186444 0.887 25 31 31
-0.959124 -0.552492 2.085 128 132 127
0.431364 0.15186 0.991 87 88 77
1.45731 -1.38558 3.787 39 41 32
0.068028 0.251593 0.813 160 163 162
0.288421 0.128869 0.815 121 112 103
0.00620783 0.249674 0.866 133 132 134
0.147228 0.20509 0.745 55 79 107
0.205695 0.178924 0.9 29 29 31
-0.20773 -1.01208 2.626 160 158 150
-1.0469 0.591708 2.064 97 98 92
-0.235123 -0.683433 2.695 146 142 135
0.551734 -0.0293485 1.524 63 73 57
-0.864036 -0.351362 2.253 124 121 116
0.470928 0.00758944 1.473 189 190 186
-0.252617 -0.990886 2.604 163 161 153
-0.550329 0.327318 1.435 3 6 5
-0.930409 -0.643534 2.128 136 136 130
-0.292305 0.0428857 1.375 196 195 197
-0.189453 0.0701099 1.299 143 141 148
-0.0537818 0.332835 0.955 84 82 74
-1.12917 0.349764 2.212 89 93 88
0.247439 0.134834 1.06 112 108 111
-0.999877 -0.761583 2.01 138 149 145
-0.681617 0.462591 1.487 4 7 10
1.49219 -1.24029 3.467 42 48 46
-0.817837 -0.784696 2.071 147 147 143
0.339655 0.216898 0.69 112 132 129
-0.0311172 -0.522692 2.898 128 123 121
0.351087 0.216757 0.686 112 128 119
-0.0933254 0.194795 1.013 170 160 170
-0.842426 -0.755501 2.151 143 141 133
-0.368697 0.335783 1.227 4 6 12
-0.85477 -0.208626 2.338 118 114 107
0.193525 0.0820674 1.196 196 191 189
0.311966 -0.129945 1.705 152 149 146
-0.0480659 0.14133 1.07 152 154 162
-0.361145 -0.410763 2.719 134 130 123
-0.207917 0.356076 1.077 5 11 9
0.572707 -0.8198 2.898 144 125 110
0.115101 0.229291 0.809 189 189 189
-0.333155 -0.716734 2.672 155 146 151
-0.728611 -0.117287 3.301 18 18 12
0.0106846 0.150398 1.025 185 181 182
-0.186357 -0.973617 2.626 161 157 150
0.399184 0.0758217 1.16 148 153 141
1.32516 -0.839959 2.719 116 124 121
-0.556548 -0.09328 1.439 48 48 50
-0.160736 0.376271 1.055 4 7 6
-0.608401 -0.313666 2.884 12 12 14
-1.00317 -0.565157 2.057 129 133 126
0.0535808 0.288716 0.795 155 158 157
-0.160729 -0.353127 2.939 128 118 118
-0.219913 -0.189255 2.78 131 124 118
-0.173078 0.150292 1.124 164 160 163
0.19313 -0.596972 3.011 125 120 118
1.25247 -0.943338 3.354 29 25 16
-1.05887 -0.632124 2.004 132 138 136
-0.203293 0.111076 1.194 177 173 176
-0.672371 -0.572717 2.572 66 66 70
0.341268 0.193296 0.682 81 60 55
0.0597855 0.11631 1.208 103 103 107
-0.986042 -0.517161 2.121 130 130 126
-0.798728 -0.395228 2.561 9 9 11
-0.533232 -0.716734 2.672 10 20 23
0.310055 -0.862365 3.102 129 115 107
-0.373973 -0.488462 2.684 127 110 110
-0.611459 -0.0661133 1.409 6 9 12
-0.673746 -0.736284 2.53 33 34 30
0.33858 0.0901271 1.104 187 190 189
-0.403502 -0.691324 2.593 153 145 142
0.631336 -0.188167 1.87 150 148 140
0.271011 0.018899 1.267 190 186 187
1.07606 -0.817605 3.266 109 109 109
0.975119 -0.814101 3.231 102 97 95
0.863405 -0.658159 3.266 108 99 94
-0.481512 -0.851046 2.604 50 50 52
0.266171 -0.511617 3.181 115 107 104
-0.317892 0.0100611 1.484 197 196 198
-0.124342 0.243569 1.024 107 105 97
1.08424 -0.536039 2.66 26 15 8
-0.507221 0.242742 1.432 20 22 28
0.425942 -0.0143258 1.509 178 178 180
-0.831682 -0.918 2.392 18 13 21
0.0702552 0.301921 0.779 74 72 86
1.18692 -0.368476 2.638 31 16 4
0.836392 -0.160659 1.65 123 136 123
-0.512177 0.116006 1.48 4 10 8
0.173324 0.201166 0.753 192 197 204
-0.211085 0.319886 1.162 4 4 4
-0.0415408 0.170626 0.997 189 188 190
0.545746 -0.171282 1.789 162 162 158
-1.01745 0.100256 3.055 43 39 42
-0.157661 0.106561 1.187 197 193 196
0.30596 0.189949 0.69 90 87 71
-1.08536 -0.177519 2.189 111 111 107
-0.265315 0.316085 1.176 9 15 13
1.15227 -0.59944 2.561 39 20 16
-0.00978626 0.0535673 1.308 93 92 101
-0.0225279 -0.278479 3.011 114 106 103
-1.05212 0.0249094 2.136 102 104 93
0.134278 0.270145 0.754 167 173 171
-0.0063895 0.319871 0.854 111 112 108
1.18383 -0.375877 2.66 38 18 8
-0.369689 0.336506 1.237 7 9 15
1.18694 -0.764023 2.582 38 42 35
-0.772906 -0.690239 2.44 47 64 67
-0.188991 0.215254 1.11 83 76 70
1.1281 -0.318636 2.582 52 45 35
0.300093 0.174532 0.719 127 116 93
-0.615127 -0.567536 2.707 12 33 64
-0.023441 0.0357521 1.359 137 158 175
-0.989485 -0.387961 2.151 128 123 119
1.12253 -0.731315 2.743 38 27 22
0.310846 0.164955 0.739 116 113 97
0.222112 0.000367454 1.359 134 129 125
-1.05594 -0.199588 2.158 111 112 103
0.182154 0.186981 0.797 192 197 204
-0.262609 -0.743743 2.707 150 142 139
0.254247 0.14082 0.847 108 104 93
0.636362 -0.0147625 1.555 112 122 110
0.310239 0.232469 0.643 186 198 202
1.03897 -0.468805 2.857 136 122 118
0.89179 -0.663577 3.215 109 104 100
0.328209 -0.588011 3.231 109 93 88
-0.049521 -0.573887 2.871 137 128 123
-0.623029 0.168157 1.452 6 6 6
-0.24421 0.0826849 1.265 188 187 189
0.676862 -0.0679029 1.555 143 142 142
-0.574906 -0.84333 2.53 40 46 59
-0.14801 0.38474 1.05 4 5 1
0.235517 0.165967 0.802 109 83 72
0.143789 -0.014117 1.487 134 129 127
-0.043394 0.190473 0.966 181 179 186
0.240243 0.253228 0.682 52 56 51
0.189302 0.263294 0.725 85 86 77
0.00894573 0.155844 1.017 185 181 182
0.364015 0.122488 1.043 177 171 173
0.368051 -0.0906774 1.555 185 181 184
0.464954 -1.06648 3.231 138 129 124
0.983162 -0.468805 2.857 36 39 38
1.2444 -0.875899 2.707 48 44 37
-0.512179 0.227867 1.487 7 10 11
-0.666716 -0.741282 2.519 44 44 46
-0.0890519 0.235656 0.984 113 105 102
-0.839469 -0.855719 2.392 14 11 8
0.62493 -0.732368 3.086 51 43 40
-0.0951619 0.191876 1.015 169 163 169
0.542286 -0.566048 3.318 63 61 42
-0.139701 0.335067 1.106 37 37 31
0.300632 0.213586 0.683 179 191 193
0.178225 0.16299 1.01 155 158 157
0.316272 0.151342 0.749 114 109 87
-0.033678 0.19825 0.958 195 195 199
0.0329752 0.139595 1.044 174 166 165
0.263588 0.151989 0.804 100 77 58
-0.841501 -0.800763 2.312 11 16 21
0.227374 0.248589 0.697 62 63 54
0.631904 -0.294415 2.707 53 42 33
-0.244843 -0.626916 2.755 145 135 135
0.255983 0.0227864 1.254 160 157 154
0.220111 0.213022 0.692 187 198 198
1.05192 -1.14417 3.086 125 119 123
0.682144 -1.18376 3.165 108 103 99
-0.421716 -0.713057 2.55 153 146 140
-0.536398 0.0352682 1.429 2 8 8
0.223746 -0.00854109 1.369 148 149 140
-0.0903545 -0.977271 2.695 156 148 145
1.13771 -0.449153 2.684 15 11 2
-0.832874 -0.677308 2.181 139 139 135
-0.84819 -0.161715 2.32 113 111 103
0.701409 -0.339985 2.755 81 32 20
-0.896203 -0.332579 2.731 24 23 23
0.936382 -0.496337 3.086 59 51 67
0.146763 -1.10183 2.871 146 141 137
1.24548 -0.748655 2.489 87 82 78
-0.0942243 0.207976 1.005 145 144 146
-0.686861 -0.867683 2.459 15 21 32
-0.968179 -0.362468 2.166 125 123 115
0.044634 0.3076 0.797 134 140 138
0.00656017 -0.793474 2.871 140 130 128
0.0966838 -0.723997 2.911 132 124 121
0.166973 0.232716 0.752 66 71 61
-0.468992 0.228119 1.473 9 29 42
0.360887 -0.901053 3.149 131 122 117
0.211132 0.258499 0.715 46 46 42
0.249906 0.137331 0.851 96 86 72
0.601934 0.00533339 1.513 145 151 153
-0.528024 0.252084 1.419 38 13 4
0.0611911 0.17724 0.954 186 182 185
1.04875 -0.861422 3.231 135 132 127
0.6992 -1.11116 3.149 111 104 94
-0.613361 0.49654 1.48 3 3 3
0.0880441 0.111715 1.141 123 126 129
-0.409831 -0.317844 2.719 131 123 120
0.679984 -0.175913 1.642 138 145 139
-0.573616 0.105032 1.429 4 7 10
-0.0487581 0.328853 0.948 84 81 76
0.0256057 -0.837689 2.911 146 139 133
0.1824 -0.498742 3.165 131 124 116
0.577786 -0.501389 3.215 34 24 22
0.218251 -0.883414 2.953 138 130 129
-0.515721 0.0643672 1.456 7 10 9
0.280847 0.136331 0.82 73 59 51
0.514221 -0.28752 3.055 32 21 16
0.0234978 0.206453 0.88 173 173 177
0.261858 0.191038 0.787 171 184 183
0.318887 0.179393 0.684 118 108 94
1.24141 -0.644961 2.449 45 19 8
-0.901644 -0.126673 3.266 40 40 40
-0.267813 0.0484081 1.342 191 187 190
-0.419762 0.125625 1.452 63 63 59
0.243141 -0.0355575 1.473 162 160 152
-0.041022 0.141066 1.068 176 175 175
0.141646 0.176868 0.952 131 130 130
-0.236925 0.115196 1.217 157 153 158
1.20645 -0.415238 2.411 125 122 117
1.1329 -0.573173 2.593 31 32 23
-0.152744 -0.471938 2.793 127 118 123
1.1638 -0.664964 2.479 32 11 8
-1.08052 -0.00991955 2.151 105 106 97
-0.827878 -0.842779 2.196 87 102 88
0.19511 0.212254 0.716 157 158 171
-0.572186 -0.226009 2.844 12 18 16
-0.381385 -0.607824 2.615 148 143 139
-0.0830648 0.21915 0.989 148 147 147
-0.154822 -0.142051 2.831 115 107 106
0.621797 0.0161748 1.387 179 186 180
-0.0839898 0.377018 0.981 45 39 41
-0.352851 -0.784156 2.593 157 147 145
-0.868728 -0.614709 2.173 135 132 129
0.801386 -0.0992478 1.612 164 170 168
0.543497 -0.608026 3.198 60 52 38
-0.00734098 0.0819659 1.254 100 96 97
-1.01343 -0.664783 2.024 135 141 139
-0.342673 0.37978 1.06 6 14 11
0.255453 -0.0606217 1.563 133 131 123
-0.701217 -0.590392 2.54 34 37 40
0.448028 -0.906178 3.149 131 120 115
-0.124342 -0.692936 2.768 140 135 131
0.956813 -0.52118 3.055 128 114 110
1.11954 -0.769435 2.572 25 15 3
-1.02278 -0.725603 2.01 139 139 139
0.671193 -0.254842 2.121 129 132 116
0.221347 0.144007 1.027 22 22 26
0.0614682 0.0993718 1.242 97 94 91
-0.49297 0.0818982 1.473 7 11 6
0.330744 0.0243855 1.342 144 145 139
-0.986422 -0.573798 2.064 135 136 132
-0.250425 0.314705 1.178 7 10 13
0.238834 0.236296 0.678 34 35 31
0.910252 -0.244634 1.837 174 180 178
0.0104971 0.23269 0.871 170 166 167
-0.0387908 0.335076 0.931 86 84 76
-0.237425 0.342199 1.1 13 20 26
0.535429 -0.785973 3.181 114 107 101
-0.183678 -0.710565 2.649 146 138 135
-1.07127 -0.264815 2.204 117 118 109
0.1236 -0.0691059 1.71 193 189 190
0.0871627 -0.0413043 1.603 156 152 143
-0.0844523 -0.0503254 1.642 190 184 186
0.194126 0.266535 0.721 87 89 78
-0.47069 0.232594 1.456 12 28 49
-0.655018 -0.542805 2.672 30 31 44
0.0407926 -0.295208 2.982 114 107 101
0.370106 0.0026568 1.4 188 188 190
0.278288 0.158341 0.79 134 114 94
0.901487 -0.94029 3.231 118 111 103
-0.00642774 0.136094 1.098 168 167 171
1.17231 -0.454628 2.615 23 14 9
-0.521824 -0.156287 2.925 16 17 13
-0.0936402 -0.399216 2.793 128 120 117
0.044074 0.0737806 1.327 92 89 86
-0.347981 0.0352682 1.429 189 185 188
-1.08697 -0.0621931 2.143 109 110 106
-0.53581 -0.527889 2.707 8 16 15
0.274662 0.0526726 1.237 144 146 137
-0.433026 0.0986775 1.473 63 66 67
0.553344 -0.689311 3.165 54 42 40
-0.410175 0.114814 1.435 75 70 66
0.048621 -0.700033 2.871 133 123 121
0.193678 -0.392556 3.181 115 105 103
-0.425039 0.0391195 1.487 118 117 117
-0.0587376 0.149645 1.043 189 185 188
0.0328969 0.094562 1.232 96 95 95
-0.0920432 0.0573381 1.297 93 87 93
-1.14463 0.0253408 2.173 99 105 103
-0.52889 0.286994 1.409 16 11 9
0.1661 -0.465474 3.149 116 108 107
0.298416 0.176619 0.704 100 91 82
0.234004 0.22814 0.68 61 70 93
-0.252671 -0.722904 2.695 150 140 138
-0.318322 0.404473 1.048 2 13 13
0.166307 0.226912 0.749 44 35 40
-0.630609 -0.380468 2.857 10 20 36
-0.698677 -0.524424 2.561 62 43 39
0.183728 -0.86966 2.939 129 119 119
0.225465 0.092811 1.16 185 177 174
-0.844894 -0.406647 2.43 11 14 15
-0.263545 0.204341 1.194 106 106 102
-0.374423 -0.424037 2.719 138 130 127
-1.01346 -0.621458 2.044 135 136 132
-1.0333 -0.491514 2.057 129 128 128
0.196084 0.182032 0.84 189 196 200
-0.390431 -0.852662 2.509 163 158 156
-0.549521 -0.0113195 1.439 10 10 10
1.08138 -0.82292 3.266 84 83 85
-1.13389 0.109854 2.166 96 99 98
0.260825 0.148341 0.82 102 92 78
0.364418 0.0765472 1.201 152 157 147
-0.405977 0.0709354 1.445 147 147 151
-0.139228 -0.699691 2.707 142 137 133
-0.350368 0.36523 1.073 4 10 10
0.306962 -0.0918315 1.62 131 131 127
0.10619 0.281561 0.755 143 149 147
-0.649782 0.263939 1.459 3 6 5
-0.456506 0.104455 1.487 16 27 27
0.145429 0.201293 0.864 192 192 192
-0.071147 0.270432 0.938 110 103 97
0.267034 0.102145 1.098 161 162 158
0.215065 0.21014 0.705 189 197 198
0.228252 0.233502 0.686 67 63 64
-0.0364896 0.20587 0.95 195 195 199
0.309553 0.193877 0.688 85 79 66
-0.143042 0.10767 1.178 191 190 190
-0.0363545 0.341574 0.908 92 88 81
0.260601 -0.575867 3.055 119 107 105
0.24195 0.200761 0.738 186 197 197
-0.551548 -0.320028 2.857 9 10 6
-0.0915615 -1.06143 2.731 156 152 145
-0.345797 0.396655 1.059 4 7 6
-0.847159 -0.859229 2.338 7 13 13
0.262784 0.219287 0.68 188 198 201
-1.14602 0.229305 2.196 95 95 95
-1.07472 0.51803 2.092 98 107 98
0.206188 0.211661 0.714 188 195 199
-0.13165 0.236386 1.029 90 85 81
-1.05156 0.202868 2.107 91 97 95
-0.495741 -0.273535 2.857 47 37 37
0.202912 0.186981 0.797 192 199 205
-0.207145 0.0785677 1.265 194 193 195
-0.801399 -0.825354 2.383 31 32 47
-0.112014 0.202383 1.018 144 143 145
-0.393328 -0.68615 2.638 152 143 138
0.468466 0.167987 0.991 165 176 172
-0.645032 0.25919 1.459 4 7 6
0.281263 -0.00177081 1.305 193 189 190
-0.167972 0.339503 1.139 13 13 9
0.0556998 0.197434 0.891 186 185 187
0.456405 -0.624187 3.283 94 90 83
0.117306 -0.859386 2.953 137 130 124
0.0657754 0.101801 1.247 94 91 88
-0.0935096 0.185269 1.015 163 159 162
0.0507379 -0.25759 2.996 111 102 97
1.23447 -0.71162 2.459 33 14 12
-0.0291237 0.291454 0.913 88 81 71
0.519263 -0.189777 1.917 127 125 117
-0.210454 0.318008 1.169 4 4 4
-0.941647 -0.566449 2.099 133 133 127
1.11602 -0.661786 2.593 22 15 9
-0.838966 -0.627586 2.459 18 21 20
-0.405268 -0.484095 2.66 84 74 74
-0.606824 0.268321 1.47 6 6 6
0.0726447 0.0568881 1.336 183 171 182
-0.274606 -0.722904 2.695 150 142 141
-0.850459 -0.757185 2.136 145 145 141
-0.850799 -0.54268 2.402 13 13 15
0.241529 0.175088 0.796 105 89 68
-0.452717 -0.861998 2.561 147 144 139
0.542323 0.0765472 1.201 175 185 173
-0.971368 -0.217712 3.198 37 38 32
-0.507082 -0.654524 2.649 4 16 22
-0.563575 0.11045 1.439 7 10 11
0.0779573 0.236412 0.82 171 174 177
1.11587 -0.427314 2.684 32 18 3
0.767646 -0.183686 1.664 160 166 166
1.18876 -0.631193 2.489 39 19 9
-0.165545 -0.199146 2.857 129 122 116
0.271884 0.199409 0.751 182 193 193
0.909844 -1.03413 3.133 124 115 108
-0.575539 -0.191642 2.884 25 33 32
-0.23977 0.101393 1.242 182 176 180
0.0500231 0.219175 0.868 159 159 153
-1.0136 -0.540145 2.051 126 134 131
0.242005 0.215955 0.687 186 196 199
0.159577 0.280604 0.724 142 154 156
-1.03256 -0.692824 1.991 96 114 121
-1.12099 -0.159708 2.189 108 109 103
0.0467567 0.0527759 1.342 92 82 92
-0.222004 -0.876989 2.593 142 136 138
-0.0499303 0.261739 0.913 116 116 112
0.0874432 0.273532 0.774 168 169 165
-0.604431 0.514715 1.47 4 5 1
0.229698 0.158794 0.984 32 38 38
-0.0515405 0.0868937 1.237 104 103 107
0.255911 0.196334 0.758 186 197 197
-0.815184 -0.42395 2.509 55 62 68
-0.94502 -0.0664786 2.953 51 51 51
-0.450602 0.150899 1.516 29 25 28
-0.203456 -0.943704 2.626 160 157 152
-0.00554964 0.190009 0.948 187 186 188
-0.516104 0.33677 1.369 7 10 9
0.722833 -0.111179 1.595 142 144 135
-1.12695 0.12789 2.173 102 103 97
-0.171981 0.336386 1.141 7 7 3
0.176695 0.0934349 1.06 35 33 40
0.245484 0.20932 0.71 189 199 204
-0.24672 0.073136 1.278 193 192 194
0.273978 0.224312 0.659 187 199 201
-0.0429649 0.227055 0.923 177 175 182
-0.264541 0.100332 1.254 170 166 169
-0.12881 0.122425 1.137 196 192 195
-0.0826073 -0.163483 2.884 115 107 104
-0.839469 -0.411966 2.392 8 16 13
0.0760056 0.292048 0.773 91 87 80
1.15722 -0.77362 2.572 39 45 28
0.0463273 0.234546 0.852 170 172 178
0.409088 -0.308174 3.165 30 15 14
0.449229 0.100546 1.12 120 129 109
0.541196 0.0701029 1.225 174 181 173
-0.570788 -0.802159 2.53 51 48 45
-0.410505 -0.531605 2.638 145 138 132
0.193587 0.266966 0.719 87 92 80
-0.275369 -0.778446 2.66 153 142 146
1.21372 -0.92495 3.026 38 38 38
-0.0751125 0.181428 1.012 175 171 176
-0.589899 -0.111235 1.429 26 21 29
0.104956 -0.151687 2.755 143 134 129
1.12309 -0.707798 2.561 47 36 29
-0.627816 0.339991 1.48 3 7 2
-0.338969 0.117873 1.313 144 135 140
-0.901961 -0.16826 3.248 33 34 28
0.255203 0.194921 0.767 191 199 200
-1.09385 -0.270548 2.136 122 119 116
0.0507286 0.01461 1.456 197 193 196
0.288352 -1.01341 2.982 127 120 112
0.0848655 0.176356 0.941 156 152 157
-1.12954 -0.314453 2.151 115 122 116
0.205169 0.0340421 1.294 168 165 160
-0.627681 -0.0320799 1.425 10 9 9
-0.334589 -0.397488 2.719 137 132 130
0.242088 0.053713 1.215 137 139 130
-0.896951 0.024826 2.953 52 52 46
-0.269046 0.291749 1.21 11 11 13
0.055358 0.279512 0.802 143 146 147
0.538291 -0.639252 3.198 65 46 40
-1.03682 -0.573798 2.064 126 132 130
-0.546769 -0.890814 2.572 59 71 75
0.727017 -1.14315 3.181 117 110 102
-0.366428 -0.158324 2.793 121 113 110
0.0387216 0.301699 0.809 150 156 156
-0.140989 0.140177 1.102 186 180 186
-0.289145 0.147284 1.237 147 146 148
-0.739808 -0.538033 2.489 33 32 32
-0.277051 -0.627573 2.719 146 138 135
-0.312453 0.392466 1.057 10 10 12
-0.398692 0.350749 1.203 20 21 8
-0.120929 0.144809 1.083 176 170 174
-0.625944 0.523087 1.487 1 4 3
-0.593241 0.472758 1.466 0 5 3
0.67184 -1.17346 3.165 107 105 97
0.6651 -0.894599 3.04 116 107 86
0.10704 0.167444 0.934 39 38 40
-0.00873132 0.114261 1.167 108 107 111
1.01162 -0.610633 2.982 129 120 115
1.2376 -1.04748 3.373 28 23 19
-0.0472149 0.32114 0.948 86 84 76
-0.981754 0.664927 1.899 94 105 105
-0.686048 0.579693 1.502 6 9 8
0.720716 -0.00901525 1.445 165 172 164
-0.107846 0.292834 1.01 77 75 67
-0.306487 0.166069 1.242 150 150 146
0.0666817 -0.855434 2.844 138 127 131
0.0210679 -0.410519 2.939 122 115 109
0.185882 -1.03202 2.898 156 145 136
0.0994215 0.234847 0.81 181 181 183
1.1656 -0.51412 2.572 41 27 12
-0.301465 0.33765 1.139 9 12 11
0.269145 -0.088039 1.599 170 164 166
0.886556 -0.674041 3.215 113 109 100
0.532422 -0.0999866 1.624 88 107 111
-0.380664 0.334561 1.26 7 10 9
-0.580038 0.148535 1.445 6 7 1
0.209943 0.18067 0.887 38 49 70
0.242911 0.228321 0.674 59 73 106
0.200901 0.179939 0.843 188 193 200
0.822596 -1.03493 3.231 117 111 98
0.135765 0.276713 0.742 153 161 158
-0.591379 -0.917439 2.53 23 32 42
0.146987 0.16299 1.01 136 139 140
0.755627 -0.437444 3.026 89 75 58
-0.248284 -0.705361 2.695 149 141 140
0.344148 0.209038 0.69 39 43 38
0.486916 -0.0660451 1.571 183 185 174
-0.0445408 0.0725065 1.267 82 78 81
-0.92873 -0.379175 2.181 128 121 115
-0.282044 -0.265014 2.768 127 119 116
0.211803 -0.0817987 1.579 156 152 145
-0.184918 -0.901441 2.731 158 154 147
-0.471464 0.387966 1.267 2 8 6
-0.0672643 -0.44611 2.831 138 130 127
0.118794 0.202432 0.875 183 182 182
0.432088 0.0619391 1.305 185 186 182
-1.04819 -0.323874 2.121 122 123 110
0.852978 -0.485972 3.149 93 87 74
0.743704 -0.814101 3.231 80 71 64
1.23719 -0.86762 3.215 30 26 19
0.264447 0.134742 1.073 71 62 69
-0.153123 -0.773589 2.719 156 146 146
0.0571739 0.305284 0.791 70 67 62
-1.01388 -0.32964 2.136 120 120 114
0.226801 0.0249855 1.262 140 141 128
0.63725 -0.110636 1.551 129 137 124
-0.617853 -0.472708 2.719 10 26 47
-1.09453 0.0565877 2.151 101 105 100
-0.0408324 0.178881 0.98 176 172 177
-0.609222 -0.383365 2.844 3 13 18
-0.515271 -0.839654 2.582 24 26 32
1.11272 -0.595058 2.615 29 15 7
-0.425447 0.221977 1.48 41 41 35
0.162136 0.235806 0.758 56 61 51
0.232451 -0.0176053 1.381 175 172 169
0.347264 -0.782019 3.165 121 114 106
1.10276 -0.440417 2.684 33 15 6
-0.599908 0.377904 1.459 0 6 6
-0.908899 -0.22812 3.198 26 26 20
-0.820027 -0.351362 2.253 117 118 107
0.191476 -0.0207727 1.445 196 192 193
0.248623 0.0957576 1.128 170 170 164
0.20369 0.190553 0.785 192 199 203
0.418559 -1.08161 3.198 134 123 114
0.0102155 0.167717 0.98 190 189 191
1.17638 -0.356184 2.55 34 14 4
-0.718373 -0.698796 2.499 75 54 65
0.0894185 -0.897593 2.831 143 135 132
0.147707 -0.516425 3.086 125 123 115
1.36213 -1.34627 3.696 34 34 34
-0.961502 0.691771 1.831 91 98 92
0.0273696 0.150398 1.025 179 176 173
-0.483699 -0.86855 2.593 37 37 37
-0.0834561 0.147933 1.055 191 187 188
-0.767165 -0.369225 2.953 13 17 12
-0.178984 0.194328 1.104 130 125 123
-0.719946 -0.844227 2.449 83 93 100
-1.09198 -0.25903 2.099 114 117 120
0.674006 -0.184281 1.774 181 183 174
1.31931 -0.827442 2.707 114 122 111
-0.0807137 0.228319 0.98 136 132 135
0.468763 0.115211 1.009 187 195 194
-0.969155 -0.61903 2.092 137 137 131
-0.334092 0.180324 1.286 108 108 110
0.310225 -0.0312244 1.387 155 156 145
-0.464588 -0.425168 2.755 134 119 118
-0.832038 -0.679834 2.236 104 101 96
-0.5655 -0.357222 2.857 11 11 11
1.15002 -0.455841 2.672 17 12 8
0.12206 0.200269 0.878 176 176 172
0.330831 0.218508 0.688 148 154 154
0.944495 -1.08104 3.181 123 116 108
0.157578 -0.895256 2.898 139 134 130
-0.291987 0.180771 1.232 95 90 88
0.220781 0.173695 0.82 149 149 149
0.264506 0.199972 0.744 187 194 198
0.067893 0.282361 0.781 127 130 131
0.256847 -0.866466 3.011 137 127 125
-0.205053 0.343211 1.139 3 6 7
-0.153026 -0.229188 2.884 108 98 98
-0.519204 -0.318359 2.884 14 13 13
-0.15717 0.0501396 1.33 101 100 109
-0.452717 -0.94535 2.561 164 160 153
-0.49182 0.109074 1.484 5 11 11
-0.539996 -0.584553 2.684 10 18 19
0.294083 0.0766424 1.234 186 182 183
0.298959 0.17647 0.708 105 95 83
-0.83391 -0.492554 2.212 130 125 123
-0.136795 0.162433 1.083 154 148 150
-1.10361 -0.113702 2.128 109 109 105
-0.690864 -0.859679 2.459 11 20 30
-0.947468 -0.307452 2.151 117 118 114
-0.193171 0.361738 1.073 6 9 8
-0.145043 0.160229 1.092 145 136 139
1.08424 -0.358562 2.66 21 19 9
0.79951 -1.22598 3.181 118 114 105
-1.10503 -0.0659257 2.151 105 106 102
0.501917 -0.299021 3.071 29 18 11
-0.697151 0.439923 1.484 2 8 10
0.105249 0.208115 0.869 191 194 197
1.05212 -0.313121 2.166 153 154 150
0.228162 0.197046 0.756 190 198 199
1.02214 -0.926675 3.149 137 137 133
0.61278 -1.04806 3.026 114 111 97
1.28509 -0.970839 2.519 129 127 119
-0.948951 -0.198097 2.22 94 87 81
0.155402 -0.662087 3.04 126 116 114
-0.386344 -0.667457 2.649 149 141 140
0.362278 0.0269653 1.362 189 189 191
-0.208031 0.399069 1.034 2 8 8
-0.328916 -0.74625 2.638 160 150 148
-0.0122299 0.306028 0.874 106 106 100
-0.519474 -0.982514 2.582 35 43 44
-0.483986 -0.0605244 2.898 143 133 133
0.507205 -0.62627 3.266 70 64 51
0.166203 0.193426 0.848 188 191 190
0.158403 0.191686 0.795 196 196 200
0.250371 0.121571 0.867 122 97 79
-0.161214 0.389726 1.036 7 11 6
-0.497187 0.341047 1.342 10 20 36
0.204209 0.186981 0.797 194 201 207
0.534503 -0.109975 1.655 91 101 104
0.340185 0.173978 0.698 135 130 108
0.191945 0.19031 0.784 190 196 198
-0.251883 0.159651 1.194 136 131 129
0.234693 0.2388 0.682 50 56 56
-0.129025 0.317518 1.077 54 54 50
-0.881089 -0.210792 2.499 94 94 88
-0.860719 -0.175521 2.303 111 112 101
0.276235 0.111529 1.085 146 143 138
0.709229 -0.647529 3.266 72 69 55
0.0259317 0.306174 0.821 148 159 159
0.074549 0.184292 0.927 187 186 188
0.607978 0.0635991 1.215 140 150 134
0.416153 0.145093 0.978 87 89 76
-0.952128 -0.550943 2.092 130 131 127
-0.0345258 0.0668968 1.278 84 80 85
-0.643217 0.115134 1.439 4 7 6
1.15519 -0.392372 2.684 25 18 1
-0.0383211 0.117491 1.143 112 111 113
-0.0292774 -0.00967658 1.551 198 194 199
-0.196075 0.351532 1.13 2 8 8
0.228068 0.205085 0.732 189 199 204
0.0890332 0.291896 0.766 150 160 163
0.0439239 0.179588 0.95 201 200 202
-0.122139 0.392535 1.048 4 4 4
0.263371 0.253343 0.662 65 64 64
0.025852 -0.601828 2.939 123 112 116
0.265572 0.211531 0.702 185 197 201
-0.842426 -0.671492 2.151 140 138 130
-0.130993 -0.733766 2.719 142 137 133
-0.8515 -0.118898 2.449 92 85 79
-0.567587 0.181034 1.48 8 8 8
1.0721 -0.606592 2.871 123 119 110
0.815405 -0.200946 1.719 135 144 135
-0.956939 -0.692257 2.037 139 140 136
-0.921447 -0.629922 2.189 134 133 133
-1.10323 -0.23336 2.114 115 118 119
1.15872 -0.473234 2.672 31 18 5
-0.610463 -0.0593607 1.412 5 11 11
-0.0821261 0.146909 1.06 192 188 189
-0.198054 -0.327645 2.925 127 115 115
-1.10572 0.046558 2.173 102 105 108
0.109104 0.094562 1.232 91 90 94
-0.719299 -0.916931 2.42 39 62 79
-0.172964 0.240166 1.1 60 61 57
0.226663 0.176186 0.932 50 55 60
-0.95407 -0.705977 2.01 144 144 144
0.233155 0.0499634 1.22 140 141 132
0.481807 0.174753 0.966 197 205 206
0.1884 0.203714 0.74 192 198 200
1.72984 -1.36455 3.763 43 47 42
0.200968 0.0528855 1.242 187 186 186
-0.0515517 -0.99477 2.731 155 147 144
1.4684 -1.03392 3.117 36 39 38
-0.843055 -0.629922 2.189 135 132 127
0.228223 0.148637 1.013 21 24 25
0.586065 -0.335612 2.871 74 66 63
0.315099 0.126011 1.073 97 98 87
0.602744 -0.50644 3.181 61 54 44
-0.299201 0.0884488 1.289 165 161 164
0.305624 0.237149 0.625 171 181 184
0.24286 0.261338 0.68 53 56 57
0.393632 -0.277271 3.165 29 18 13
-0.596337 -0.857397 2.499 27 41 45
0.611171 -0.55078 3.198 41 25 18
0.497014 -0.00945822 1.516 189 190 186
0.491256 -0.472139 3.266 76 65 60
-0.837738 -0.30789 2.312 119 115 108
0.0644063 0.0343797 1.393 189 185 190
-0.811313 -0.378029 2.615 8 11 14
-0.292892 -0.592939 2.743 145 135 135
0.42669 -0.982681 3.181 128 117 108
-0.134901 0.368742 1.068 11 11 5
-0.570151 -0.389767 2.857 7 10 11
