ply
format ascii 1.0
comment Created by Open3D
element vertex 1275
property double x
property double y
property double z
property uchar red
property uchar green
property uchar blue
end_header
0.2618 -0.0629627 0.669 255 255 255
-0.0732015 -0.0986053 0.311 255 255 255
0.051033 0.0395765 0.433 255 255 255
-0.10916 -0.0844779 0.331 255 255 255
-0.176963 0.115464 0.427 255 255 255
-0.0986018 -0.0481581 0.353 255 255 255
-0.0716239 -0.0520434 0.356 255 255 255
-0.0324025 -0.115314 0.318 255 255 255
-0.102628 -0.0432316 0.355 255 255 255
0.258769 0.151522 0.738 255 255 255
0.336112 -0.116979 0.758 255 255 255
-0.127244 -0.0828967 0.329 255 255 255
0.145001 -0.0322643 0.406 255 255 255
0.0505081 -0.098691 0.355 255 255 255
0.30862 0.187071 0.696 255 255 255
-0.0100267 0.0406313 0.422 255 255 255
-0.201637 0.0637435 0.395 255 255 255
0.0920805 0.042027 0.444 255 255 255
-0.185145 -0.00919877 0.357 255 255 255
0.153578 0.0286292 0.438 255 255 255
0.0442793 0.0556296 0.443 255 255 255
0.117034 -0.0392398 0.403 255 255 255
-0.130338 -0.0640728 0.337 255 255 255
0.098248 0.200148 0.523 255 255 255
0.133103 -0.0469927 0.402 255 255 255
-0.0262115 0.0774496 0.44 255 255 255
-0.10221 -0.0661366 0.342 255 255 255
-0.0452009 -0.109793 0.317 0 0 0
0.317072 0.228973 0.642 255 255 255
-0.0320828 -0.058649 0.361 255 255 255
-0.144834 -0.0631474 0.335 255 255 255
0.0392593 -0.00715787 0.406 255 255 255
0.133019 -0.0614456 0.394 255 255 255
-0.193404 0.153297 0.444 255 255 255
-0.127502 -0.0159386 0.365 255 255 255
-0.148372 -0.0747136 0.326 255 255 255
0.2618 -0.00961726 0.669 255 255 255
-0.121357 0.0932279 0.427 255 255 255
0.110044 0.126635 0.492 255 255 255
0.0351203 -0.109486 0.335 255 255 255
0.132359 -0.0234681 0.414 255 255 255
0.0216114 -0.054821 0.375 255 255 255
0.23822 0.223623 0.627 255 255 255
0.01947 0.084161 0.453 255 255 255
0.273202 0.231869 0.63 255 255 255
0.029441 0.0912513 0.459 255 255 255
-0.130187 0.0266925 0.389 255 255 255
0.118268 -0.0569574 0.394 255 255 255
-0.0602798 -0.087585 0.341 0 0 0
-0.0433994 0.111929 0.455 255 255 255
0.14442 0.233884 0.606 255 255 255
-0.110234 -0.0531391 0.348 255 255 255
-0.0257939 -0.0428804 0.372 255 255 255
-0.0685911 -0.0116772 0.381 255 255 255
-0.00123166 0.134344 0.474 255 255 255
-0.00650275 -0.0416163 0.377 255 255 255
0.324697 -0.105748 0.766 255 255 255
0.0919671 0.0352042 0.44 255 255 255
-0.0580478 -0.0141573 0.381 255 255 255
0.000310843 0.128672 0.473 255 255 255
-0.00665799 -0.0243934 0.386 255 255 255
0.0997989 0.148883 0.505 255 255 255
-0.118088 -0.0125104 0.369 255 255 255
0.313095 0.132603 0.733 255 255 255
-0.0355665 -0.00117282 0.393 255 255 255
-0.206442 0.10479 0.415 255 255 255
0.0452036 0.0595015 0.445 255 255 255
0.0660184 -0.0151605 0.408 255 255 255
-0.141676 -0.000503426 0.371 255 255 255
0.00645232 -0.0389578 0.381 255 255 255
0.322248 0.0484444 0.706 255 255 255
0.0478048 -0.114187 0.336 255 255 255
-0.197948 0.0935195 0.41 255 255 255
0.311847 -0.0593769 0.642 255 255 255
0.217081 0.186921 0.679 255 255 255
0.156825 -0.108594 0.363 255 255 255
-0.0849518 -0.071702 0.342 255 255 255
0.00958604 -0.0793556 0.359 0 0 0
0.0579339 -0.0637024 0.377 255 255 255
0.00114249 0.18321 0.5 255 255 255
0.246737 0.164712 0.717 255 255 255
0.0152578 -0.103555 0.33 255 255 255
-0.103787 -0.0399895 0.357 255 255 255
0.0427471 -0.0672754 0.373 255 255 255
-0.100062 -0.0844464 0.333 255 255 255
0.110399 -0.0452298 0.398 0 0 0
-0.098538 0.143101 0.46 255 255 255
0.286598 0.19275 0.684 255 255 255
0.329701 -0.218531 0.672 255 255 255
-0.097717 0.11915 0.446 255 255 255
0.0109046 -0.0686139 0.364 255 255 255
-0.0825946 0.16512 0.476 255 255 255
-0.132712 -0.0188049 0.363 255 255 255
0.114968 0.00150519 0.427 255 255 255
0.381305 -0.115872 0.767 255 255 255
-0.13552 -0.0802642 0.327 255 255 255
-0.0473376 -0.0414457 0.37 255 255 255
-0.139052 0.0317567 0.389 255 255 255
0.0635609 -0.0711075 0.374 255 255 255
-0.0310366 0.181815 0.494 0 0 0
-0.137152 0.0292246 0.389 255 255 255
0.285276 0.200602 0.673 255 255 255
-0.0514024 -0.00430379 0.387 255 255 255
-0.164561 -0.0433181 0.342 255 255 255
0.375098 0.121728 0.762 255 255 255
-0.171607 0.136164 0.44 255 255 255
-0.109297 -0.108396 0.303 0 0 0
-0.129722 -0.0711118 0.334 255 255 255
-0.0398933 -0.0442159 0.368 255 255 255
-0.159076 0.130732 0.441 255 255 255
0.263371 -0.0138258 0.662 255 255 255
-0.146626 0.120735 0.436 255 255 255
-0.102569 0.117434 0.445 255 255 255
-0.0850295 -0.113693 0.308 255 255 255
-0.111727 0.0727225 0.417 255 255 255
-0.0788747 -0.0414972 0.36 255 255 255
-0.133018 0.103921 0.431 255 255 255
-0.108771 0.0263944 0.394 255 255 255
-0.0532625 0.155376 0.477 0 0 0
-0.0183282 -0.0520011 0.368 255 255 255
-0.0159873 -0.11379 0.321 255 255 255
0.060613 0.0412698 0.436 255 255 255
-0.0664574 -0.00675238 0.383 255 255 255
0.00243786 0.0659932 0.44 255 255 255
0.0886538 -0.0852561 0.372 255 255 255
-0.176934 0.135854 0.439 255 255 255
0.106492 -0.0173626 0.413 0 0 0
0.134746 -0.0438305 0.403 255 255 255
-0.193912 0.138791 0.437 255 255 255
0.138741 0.0484533 0.45 255 255 255
-0.142565 -0.0693958 0.331 255 255 255
0.334475 0.00797659 0.684 0 0 0
0.0743051 0.139208 0.494 255 255 255
-0.0584626 0.178813 0.488 255 255 255
-0.0320767 0.102364 0.452 255 255 255
0.35265 0.132526 0.746 255 255 255
0.10563 -0.101288 0.35 255 255 255
-0.00336146 -0.0551448 0.369 255 255 255
-0.112943 0.0465559 0.402 255 255 255
0.132087 0.104581 0.479 255 255 255
-0.0185376 0.116157 0.463 255 255 255
0.00531485 0.0661432 0.441 255 255 255
0.0602285 -0.0665928 0.376 255 255 255
-0.0715816 0.134119 0.46 255 255 255
0.115582 -0.0484682 0.398 255 255 255
0.0513056 -0.0175543 0.402 255 255 255
-0.00783264 -0.0303571 0.382 255 255 255
-0.109924 0.103231 0.434 255 255 255
0.131116 0.173621 0.515 255 255 255
0.0895922 -0.12088 0.341 255 255 255
0.151323 -0.0422024 0.4 255 255 255
0.0249931 0.180111 0.505 255 255 255
-0.1294 -0.0205204 0.362 255 255 255
-0.0508711 -0.0123618 0.383 255 255 255
0.115798 -0.0620911 0.39 255 255 255
0.0515087 -0.0523873 0.384 255 255 255
0.268219 0.0603036 0.697 255 255 255
0.345184 -0.142474 0.743 255 255 255
0.0164137 -0.0877147 0.355 255 255 255
-0.138885 -0.00411474 0.37 255 255 255
0.124102 -0.0311716 0.409 255 255 255
0.0365757 0.117374 0.474 255 255 255
0.256202 0.144902 0.741 255 255 255
0.281461 0.00234063 0.664 255 255 255
-0.206374 0.0634207 0.393 255 255 255
-0.0569659 0.00974872 0.395 255 255 255
-0.109127 -0.0664981 0.341 255 255 255
-0.115086 0.0106991 0.383 255 255 255
0.141099 -0.0699809 0.388 255 255 255
0.130407 -0.101571 0.357 255 255 255
0.236218 0.190516 0.68 255 255 255
-0.133432 -0.0493124 0.345 255 255 255
0.0191943 -0.0923905 0.353 255 255 255
0.104384 -0.0205725 0.41 255 255 255
-0.120669 0.102756 0.432 255 255 255
0.137395 0.0453218 0.448 255 255 255
0.304617 -0.017135 0.665 255 255 255
-0.101911 -0.0681628 0.341 255 255 255
-0.17097 0.0203475 0.377 255 255 255
-0.048891 0.105807 0.451 255 255 255
-0.14424 0.0730138 0.411 255 255 255
-0.140205 -0.075172 0.328 255 255 255
0.0982754 -0.00194148 0.421 255 255 255
0.320544 -0.101025 0.768 255 255 255
-0.0452623 -0.088051 0.345 0 0 0
-0.157553 0.175304 0.464 255 255 255
0.310923 0.0567267 0.709 255 255 255
0.263681 0.0432899 0.697 255 255 255
-0.179592 -0.0366396 0.342 255 255 255
0.0492821 0.0221942 0.424 255 255 255
-0.200248 0.179 0.458 255 255 255
0.118365 0.0356042 0.445 255 255 255
0.156098 -0.0918006 0.374 255 255 255
0.0288706 -0.0851977 0.359 255 255 255
0.31595 -0.213381 0.673 255 255 255
0.045214 -0.0385097 0.389 255 255 255
-0.153263 -0.0774188 0.324 255 255 255
-0.162816 -0.0311422 0.349 255 255 255
0.31964 0.178877 0.713 255 255 255
-0.0223659 -0.0868674 0.347 255 255 255
-0.16799 0.0499904 0.393 255 255 255
0.0436796 0.0456313 0.437 255 255 255
-0.0545675 0.0183801 0.401 255 255 255
0.0724023 0.0641153 0.452 255 255 255
0.0153169 0.0281362 0.42 255 255 255
0.311516 0.0790922 0.713 255 255 255
-0.0449284 -0.0414457 0.37 255 255 255
-0.0729527 0.178135 0.484 255 255 255
-0.112742 -0.0541157 0.347 255 255 255
-0.0365914 0.182249 0.493 0 0 0
0.0190855 -0.094723 0.351 255 255 255
0.104542 0.00497954 0.427 255 255 255
-0.0227503 0.0332839 0.416 255 255 255
-0.01445 0.0597337 0.431 255 255 255
0.0180216 -0.00252053 0.404 255 255 255
-0.0105732 0.0805022 0.445 255 255 255
-0.167927 -0.0183905 0.355 255 255 255
-0.123741 -0.0732859 0.334 255 255 255
0.0263174 0.137966 0.484 255 255 255
0.279633 0.153506 0.736 255 255 255
-0.186606 0.121873 0.43 255 255 255
-0.183439 0.0987454 0.418 255 255 255
0.127514 -0.0168926 0.418 255 255 255
0.0219955 0.0191134 0.417 255 255 255
0.264275 0.20207 0.667 255 255 255
0.023085 -0.0981502 0.351 255 255 255
0.00997955 -0.00895986 0.398 255 255 255
0.294667 -0.246002 0.641 255 255 255
0.317828 0.00569156 0.677 255 255 255
-0.053261 0.11837 0.457 255 255 255
0.0692323 0.146819 0.498 255 255 255
0.141851 0.0742831 0.465 255 255 255
-0.168565 -0.0798362 0.321 255 255 255
0.282243 0.0209282 0.671 255 255 255
0.262542 -0.242115 0.639 255 255 255
0.0322159 0.127699 0.478 255 255 255
0.015783 0.0856354 0.453 255 255 255
-0.0301942 -0.0345903 0.374 0 0 0
-0.0815879 -0.00973988 0.378 255 255 255
0.0123363 0.103877 0.462 255 255 255
0.119386 0.0913402 0.475 255 255 255
-0.0748429 -0.0235087 0.372 255 255 255
-0.0238341 -0.0783811 0.352 255 255 255
0.0187625 -0.0260484 0.392 255 255 255
0.100159 -0.0633387 0.386 0 0 0
-0.151083 0.036821 0.389 255 255 255
0.021662 0.187136 0.504 255 255 255
0.363737 -0.123309 0.759 255 255 255
0.0729646 -0.0203718 0.406 255 255 255
0.278691 0.208542 0.66 255 255 255
-0.158842 -0.0673703 0.329 255 255 255
-0.135171 0.0515317 0.4 255 255 255
0.28935 0.198262 0.68 255 255 255
-0.00867332 0.041416 0.423 255 255 255
0.0155323 -0.025982 0.391 255 255 255
0.134357 0.0578769 0.455 255 255 255
0.0690542 -0.112556 0.341 255 255 255
0.149488 -0.0751151 0.382 255 255 255
-0.0898565 -0.0251206 0.369 255 255 255
0.278037 0.207782 0.661 255 255 255
-0.0233972 -0.0572017 0.363 255 255 255
0.280082 0.0344372 0.679 255 255 255
-0.135542 0.0600847 0.405 255 255 255
0.0635577 0.14925 0.498 255 255 255
0.0015612 -0.00313864 0.399 255 255 255
0.302169 -0.0317999 0.655 255 255 255
-0.18616 0.0406159 0.383 0 0 0
-0.187353 0.0781508 0.403 255 255 255
-0.155917 -0.0105058 0.362 255 255 255
0.0718091 -0.0492712 0.389 255 255 255
0.013655 0.140533 0.482 255 255 255
-0.159159 -0.0808809 0.321 255 255 255
-0.0112603 -0.0803271 0.353 255 255 255
0.139805 0.160316 0.51 255 255 255
0.26317 0.224431 0.638 255 255 255
0.255372 0.00698391 0.696 0 0 0
-0.093621 0.0544186 0.412 255 255 255
0.101848 -0.080054 0.376 0 0 0
-0.141081 0.159512 0.462 255 255 255
-0.167411 -0.0443013 0.341 255 255 255
0.0301773 -0.0466415 0.383 255 255 255
-0.0108627 -0.110109 0.324 0 0 0
-0.104761 0.0217394 0.391 255 255 255
0.0409998 0.0249542 0.424 255 255 255
0.328512 -0.0597468 0.646 255 255 255
0.155556 -0.0584325 0.391 255 255 255
0.0344786 0.141488 0.488 255 255 255
-0.175079 -0.00925031 0.359 255 255 255
0.0528571 0.139391 0.489 255 255 255
0.0024711 0.0785058 0.446 255 255 255
-0.134546 -0.0221645 0.36 255 255 255
0.0445702 -0.0747576 0.368 255 255 255
-0.0672573 -0.0189167 0.377 255 255 255
0.177452 0.215448 0.636 255 255 255
0.0569105 -0.02658 0.4 255 255 255
-0.180327 0.0133826 0.371 255 255 255
0.158157 -0.0880084 0.376 255 255 255
-0.0411942 -0.0221591 0.38 255 255 255
0.210355 0.172594 0.697 255 255 255
-0.121636 0.0617061 0.407 255 255 255
-0.0668044 -0.00240199 0.385 255 255 255
0.0418668 -0.0592503 0.376 255 255 255
0.34847 0.0595339 0.715 0 0 0
-0.185493 0.0669862 0.399 255 255 255
-0.200808 0.0857884 0.405 255 255 255
0.0442841 -0.052598 0.381 255 255 255
0.139257 0.154727 0.508 255 255 255
-0.131896 -0.0700248 0.334 255 255 255
-0.1488 0.0310437 0.388 255 255 255
-0.00622692 0.0790539 0.445 255 255 255
0.11892 0.137369 0.499 255 255 255
0.125203 -0.00471527 0.424 255 255 255
0.0900226 0.0374371 0.441 255 255 255
0.0793013 -0.0361623 0.398 255 255 255
0.302068 -0.0539001 0.639 255 255 255
0.330505 -0.0247845 0.667 255 255 255
-0.158722 0.0211278 0.38 255 255 255
0.073078 0.0232081 0.43 255 255 255
0.152502 0.00706415 0.427 255 255 255
0.035488 -0.0745545 0.367 255 255 255
-0.0841697 0.0581916 0.415 255 255 255
-0.0336795 0.00989681 0.401 255 255 255
-0.0311941 -0.0758737 0.351 255 255 255
0.265451 -0.239744 0.641 255 255 255
-0.137609 0.103679 0.43 255 255 255
-0.12296 -0.0855736 0.329 255 255 255
0.0338653 -0.0199202 0.397 255 255 255
0.0990506 -0.0759724 0.377 0 0 0
-0.0475955 -0.0661528 0.354 255 255 255
0.357087 0.183642 0.709 255 255 255
0.253669 0.108324 0.755 255 255 255
0.102837 -0.0593997 0.389 255 255 255
0.285129 0.090059 0.708 255 255 255
0.128533 0.0582585 0.458 255 255 255
-0.0723726 0.153096 0.47 255 255 255
0.116296 -0.0354802 0.405 255 255 255
0.221364 0.239134 0.617 255 255 255
-0.130453 -0.0071253 0.37 255 255 255
0.0595885 0.141847 0.492 255 255 255
0.0928491 -0.0429605 0.395 255 255 255
0.25394 0.231321 0.623 255 255 255
-0.16205 0.111555 0.428 255 255 255
0.293356 -0.24124 0.645 255 255 255
-0.0473026 0.0923958 0.443 255 255 255
-0.0989885 -0.0114627 0.374 255 255 255
-0.0851996 0.00387326 0.386 255 255 255
0.30862 0.0386973 0.696 255 255 255
-0.172293 0.16968 0.459 255 255 255
0.0494385 0.0550326 0.444 255 255 255
-0.0117849 0.186587 0.496 255 255 255
0.133422 0.107366 0.481 255 255 255
0.0312049 0.099581 0.463 255 255 255
0.337927 0.161012 0.743 255 255 255
0.0135708 0.0863725 0.453 255 255 255
0.077596 0.0773951 0.461 255 255 255
-0.0273973 -0.10927 0.32 0 0 0
-0.0847589 -0.0193229 0.373 255 255 255
0.317339 -0.017238 0.669 255 255 255
0.065531 -0.0341333 0.397 255 255 255
0.338382 0.156386 0.744 255 255 255
-0.11664 -0.0320345 0.359 255 255 255
0.00704742 -0.123961 0.323 255 255 255
0.0653445 0.18594 0.512 255 255 255
0.312827 0.0899115 0.716 255 255 255
-0.0278144 -0.0629977 0.359 0 0 0
0.0981512 -0.0586156 0.388 255 255 255
0.139796 -0.0953509 0.376 255 255 255
-0.216204 0.106973 0.413 255 255 255
0.0481023 0.0380791 0.432 255 255 255
0.0901231 0.0314803 0.438 255 255 255
-0.202012 0.0705267 0.397 255 255 255
0.287705 0.0209282 0.671 255 255 255
-0.0503166 -0.0869281 0.345 255 255 255
0.0653785 0.0274066 0.43 255 255 255
-0.0766883 -0.0453447 0.358 255 255 255
0.000310843 0.126363 0.473 255 255 255
-0.13663 -0.0589364 0.339 255 255 255
-0.0839611 0.025367 0.398 255 255 255
0.365023 -0.128632 0.754 255 255 255
-0.0714964 0.0962846 0.441 255 255 255
0.142811 -0.0120439 0.415 255 255 255
0.133333 -0.23564 0.614 255 255 255
0.251616 0.0453164 0.711 0 0 0
-0.17186 0.132391 0.437 255 255 255
-0.0809917 0.0934913 0.438 255 255 255
0.159017 -0.120984 0.356 255 255 255
0.142385 -0.0903219 0.378 255 255 255
0.153222 -0.118087 0.356 255 255 255
-0.0561872 -0.0135373 0.381 255 255 255
-0.13553 0.0733691 0.413 255 255 255
0.372769 -0.0987822 0.77 255 255 255
-0.0526071 -0.111151 0.315 255 255 255
-0.130884 -0.0267021 0.358 255 255 255
-0.127067 0.156843 0.463 0 0 0
0.000267469 0.0107072 0.407 255 255 255
0.0295693 0.0961501 0.461 255 255 255
-0.165038 -0.0195459 0.355 255 255 255
0.0311224 -0.0364224 0.387 255 255 255
-0.0891632 0.0340415 0.401 255 255 255
-0.164561 -0.0422051 0.342 255 255 255
0.0680666 0.104811 0.473 255 255 255
-0.0967389 0.0529489 0.411 255 255 255
0.325694 0.218019 0.653 255 255 255
-0.0565596 -0.0878419 0.342 0 0 0
0.0986631 -0.0113412 0.414 255 255 255
-0.0393933 0.0357323 0.413 255 255 255
-0.0101701 0.172058 0.496 255 255 255
-0.115086 0.0113224 0.383 255 255 255
-0.117885 -0.100333 0.301 255 255 255
-0.0587864 -0.0845026 0.342 255 255 255
-0.1158 0.0720439 0.417 255 255 255
0.0868372 -0.0828346 0.372 255 255 255
0.139836 -0.0725065 0.388 255 255 255
-0.147588 0.0174175 0.38 255 255 255
0.0586493 -0.0221887 0.403 255 255 255
0.0274455 -0.124812 0.328 255 255 255
-0.198928 0.0484718 0.386 255 255 255
-0.0553248 -0.0017893 0.388 255 255 255
-0.00622677 -0.0698108 0.361 255 255 255
0.394077 0.115488 0.77 255 255 255
0.128986 0.128758 0.494 255 255 255
-0.14756 -0.0620571 0.335 255 255 255
-0.0379927 -0.0458874 0.367 255 255 255
0.235803 0.188857 0.682 255 255 255
0.0286026 -0.0364224 0.387 255 255 255
0.133394 -0.0786328 0.384 255 255 255
0.142648 -0.0844397 0.382 255 255 255
0.0130694 -0.106454 0.329 255 255 255
-0.168543 0.00550413 0.369 255 255 255
-0.0626924 0.150675 0.472 255 255 255
0.341807 -0.021625 0.67 255 255 255
-0.116379 -0.0291946 0.36 255 255 255
-0.0802243 0.032818 0.402 255 255 255
-0.0780456 -0.0598803 0.351 255 255 255
-0.202241 0.132985 0.432 255 255 255
-0.0487157 0.0484089 0.418 255 255 255
0.220197 0.189115 0.675 255 255 255
-0.19321 0.168564 0.452 0 0 0
-0.185028 0.0648753 0.398 255 255 255
0.155242 -0.123184 0.354 255 255 255
-0.141594 0.0829015 0.417 255 255 255
0.115584 0.109048 0.485 255 255 255
-0.0433499 -0.0626468 0.357 255 255 255
0.372144 0.126921 0.756 255 255 255
-0.141807 -0.0746382 0.328 255 255 255
0.0518093 -0.0995483 0.356 0 0 0
-0.0922112 -0.0774639 0.338 255 255 255
0.271935 -0.0627059 0.644 255 255 255
-0.0533285 -0.0285041 0.374 255 255 255
0.105348 -0.0289608 0.406 0 0 0
-0.142233 0.0716762 0.411 255 255 255
-0.0451355 -0.0523314 0.362 255 255 255
-0.154987 0.0256575 0.383 255 255 255
0.282559 -0.00732868 0.659 255 255 255
0.120112 0.145307 0.504 255 255 255
0.255231 0.0437868 0.705 255 255 255
-0.0351976 -0.0906479 0.34 255 255 255
0.04288 0.0336259 0.429 255 255 255
-0.148669 -0.106974 0.295 255 255 255
-0.0842537 -0.114323 0.307 255 255 255
-0.105722 0.0317638 0.397 255 255 255
0.0853725 0.024019 0.432 255 255 255
0.0439615 -0.0678824 0.373 255 255 255
0.339137 0.161012 0.743 255 255 255
0.0748376 0.0999805 0.472 255 255 255
0.027828 -0.0412463 0.385 255 255 255
-0.0413585 0.114652 0.457 255 255 255
-0.145008 0.0570229 0.402 255 255 255
-0.0864976 0.093989 0.437 255 255 255
0.0294688 0.137178 0.484 255 255 255
-0.0337599 -0.0780567 0.348 255 255 255
-0.0638558 0.0832638 0.433 255 255 255
-0.0286825 0.0899163 0.445 255 255 255
0.17889 0.234736 0.616 255 255 255
0.324919 -0.210552 0.678 255 255 255
-0.074214 -0.0394801 0.363 255 255 255
-0.147631 0.0753854 0.413 255 255 255
-0.135182 -0.0387462 0.351 255 255 255
0.0157339 0.0122092 0.413 255 255 255
-0.172645 -0.0538798 0.335 255 255 255
-0.0689151 -0.0194784 0.376 255 255 255
0.114304 0.0796709 0.47 255 255 255
0.290509 0.211764 0.66 255 255 255
0.0581172 0.0138816 0.423 255 255 255
0.121292 0.172278 0.516 255 255 255
-0.0675538 -0.0693622 0.347 255 255 255
0.147531 0.0455241 0.45 255 255 255
0.0498725 -0.0188158 0.401 255 255 255
0.099362 -0.111469 0.348 0 0 0
0.0174686 0.134202 0.479 255 255 255
0.366736 -0.0919434 0.755 255 255 255
-0.0377718 0.00461803 0.396 255 255 255
0.0530483 0.0435974 0.438 255 255 255
0.111725 -0.0245757 0.41 0 0 0
0.14507 0.0235319 0.436 255 255 255
-0.136057 0.171484 0.468 0 0 0
-0.0659963 -0.0887263 0.339 255 255 255
-0.0895971 0.0530777 0.412 255 255 255
0.306876 -0.110156 0.762 0 0 0
-0.167277 -0.0578933 0.333 255 255 255
0.199015 0.196543 0.663 255 255 255
0.00255421 0.104402 0.461 255 255 255
0.0497189 0.0974015 0.467 255 255 255
-0.0905445 -0.105674 0.308 255 255 255
0.0882203 -0.0595698 0.386 255 255 255
-0.0156247 -0.0413955 0.375 255 255 255
0.357498 -0.186284 0.703 255 255 255
-0.165961 0.103811 0.422 255 255 255
-0.169216 0.110773 0.425 255 255 255
0.34983 0.0392533 0.706 255 255 255
-0.0339362 0.0629472 0.429 255 255 255
0.253947 0.0923408 0.745 255 255 255
-0.0929977 -0.0633481 0.345 255 255 255
-0.0468332 0.183108 0.491 0 0 0
0.347499 0.0286266 0.699 255 255 255
0.000214238 -0.11291 0.326 255 255 255
0.0996812 -0.0957176 0.368 255 255 255
-0.143873 -0.10252 0.296 255 255 255
0.104601 0.0205514 0.433 255 255 255
-0.000404754 0.026578 0.417 255 255 255
-0.120821 -0.0686633 0.338 255 255 255
0.258674 0.0667321 0.705 255 255 255
-0.145635 0.0225412 0.383 255 255 255
0.068567 -0.0913735 0.365 255 255 255
-0.0689738 0.0478298 0.413 255 255 255
0.00310506 -0.0860716 0.353 255 255 255
-0.194741 0.0200777 0.372 255 255 255
0.298142 -0.245058 0.644 255 255 255
-0.00795164 0.108903 0.461 255 255 255
-0.048502 -0.00369301 0.389 255 255 255
0.145847 -0.0543927 0.394 255 255 255
0.132295 0.0744428 0.466 255 255 255
0.319604 -0.0565055 0.645 0 0 0
-0.213034 0.109781 0.416 255 255 255
0.130832 -0.106201 0.355 255 255 255
0.00932052 -0.113414 0.329 255 255 255
0.115223 -0.046642 0.399 255 255 255
0.271586 0.167977 0.721 255 255 255
0.0904985 -0.0619215 0.385 255 255 255
0.236263 0.148119 0.739 255 255 255
0.347939 0.0882264 0.731 255 255 255
0.316003 0.156114 0.737 255 255 255
0.266004 -0.0569435 0.65 255 255 255
0.13582 0.00150519 0.427 0 0 0
0.00822435 -0.112002 0.328 255 255 255
-0.0144937 -0.0617569 0.362 255 255 255
-0.0717701 0.0384301 0.406 255 255 255
0.322413 0.0699078 0.714 255 255 255
-0.0233996 0.0804963 0.441 255 255 255
-0.0507166 -0.105333 0.316 255 255 255
0.0611816 -0.0994952 0.36 255 255 255
-0.0391318 -0.105482 0.318 255 255 255
0.160881 -0.122377 0.355 255 255 255
-0.0789978 -0.0332548 0.366 255 255 255
0.248629 0.0712493 0.74 255 255 255
0.0943002 -0.115786 0.344 255 255 255
0.0690275 0.0695706 0.454 255 255 255
-0.0413297 0.0478428 0.419 255 255 255
0.038966 -0.0761381 0.366 255 255 255
0.0145511 -0.010281 0.399 255 255 255
-0.039637 0.0944731 0.446 255 255 255
0.256246 0.0696141 0.711 255 255 255
-0.158574 -0.0766542 0.323 255 255 255
-0.141633 -0.0369271 0.35 255 255 255
-0.115025 0.113251 0.44 255 255 255
0.0841589 0.0504251 0.448 255 255 255
0.206619 0.237196 0.612 255 255 255
-0.107015 0.0317638 0.397 255 255 255
-0.104184 0.0641148 0.414 255 255 255
-0.0560046 -0.0080198 0.384 255 255 255
0.121397 -0.0918006 0.374 255 255 255
-0.188539 0.00965491 0.367 255 255 255
0.25949 0.165401 0.72 255 255 255
0.0612733 -0.0235003 0.403 255 255 255
-0.131283 0.174512 0.47 255 255 255
0.106289 0.040039 0.446 255 255 255
0.122535 0.0394013 0.447 255 255 255
0.135394 0.0624565 0.456 255 255 255
-0.0864929 -0.0409113 0.36 255 255 255
-0.0726539 0.0469294 0.411 255 255 255
0.110659 0.0439616 0.449 255 255 255
-0.00554126 -0.00633715 0.396 255 255 255
0.100977 -0.00668921 0.418 255 255 255
-0.132867 -0.0742436 0.331 255 255 255
0.289175 0.0310307 0.677 0 0 0
-0.0599856 -0.0348224 0.37 255 255 255
0.136201 0.0848439 0.469 255 255 255
-0.164866 -0.0895457 0.324 255 255 255
0.110923 0.147822 0.507 255 255 255
0.0458147 0.191101 0.508 255 255 255
0.281989 0.201697 0.673 255 255 255
-0.170429 -0.0200102 0.353 255 255 255
-0.0805453 -0.0648447 0.347 255 255 255
-0.156564 -0.0418921 0.344 255 255 255
-0.117349 -0.0229399 0.363 255 255 255
-0.0744146 0.13308 0.459 255 255 255
-0.017515 0.102528 0.456 255 255 255
0.151645 -0.00938759 0.417 255 255 255
-0.0437239 -0.0426499 0.37 255 255 255
-0.188067 0.133201 0.435 255 255 255
-0.0904546 -0.113951 0.306 255 255 255
0.365785 0.0153622 0.717 255 255 255
-0.0730093 0.00389333 0.388 255 255 255
-0.0721835 0.0563009 0.416 255 255 255
0.128875 -0.018253 0.418 255 255 255
-0.12572 -0.0177206 0.365 255 255 255
0.348016 -0.00866881 0.68 0 0 0
-0.016576 -0.0521424 0.369 255 255 255
0.19066 0.227995 0.625 255 255 255
-0.170335 -0.0177626 0.354 255 255 255
-0.127428 -0.0484689 0.347 255 255 255
-0.00453661 0.18896 0.498 255 255 255
-0.115577 -0.0253028 0.363 255 255 255
-0.128857 0.147052 0.456 255 255 255
-0.185323 0.0226806 0.375 255 255 255
0.0834349 0.0676509 0.456 255 255 255
0.0140758 0.000109236 0.404 255 255 255
0.0732633 0.0174872 0.427 255 255 255
0.30523 -0.232898 0.657 255 255 255
0.0297081 -0.0406198 0.385 255 255 255
0.0202419 0.00476963 0.409 255 255 255
-0.178939 0.167461 0.455 255 255 255
0.104858 0.187873 0.522 255 255 255
-0.165477 -0.00812691 0.361 255 255 255
0.335329 -0.19095 0.695 255 255 255
-0.131313 0.114612 0.437 255 255 255
-0.118023 0.155337 0.463 255 255 255
-0.0679717 0.0398494 0.407 0 0 0
0.131072 -0.119284 0.351 255 255 255
-0.116644 -0.00476784 0.374 255 255 255
0.133766 0.0539366 0.453 255 255 255
0.274632 0.0658802 0.696 0 0 0
0.0291033 0.178467 0.505 255 255 255
-0.0530706 0.00137477 0.39 255 255 255
0.134988 0.106583 0.481 255 255 255
-0.156522 0.0551601 0.398 255 255 255
0.115309 -0.0893662 0.374 255 255 255
-0.0476876 -0.116557 0.313 255 255 255
0.0136463 -0.113222 0.33 255 255 255
-0.13798 0.0252303 0.386 255 255 255
-0.125738 0.021517 0.387 255 255 255
0.0631706 0.05142 0.444 255 255 255
0.0970344 0.118216 0.487 255 255 255
0.017662 -0.0403033 0.382 255 255 255
0.381536 -0.124708 0.76 255 255 255
-0.130553 0.0326395 0.392 255 255 255
0.0326202 0.135603 0.484 255 255 255
0.131794 -0.0476469 0.402 255 255 255
-0.113117 -0.0613064 0.343 255 255 255
-0.0669479 0.0162586 0.397 255 255 255
0.0780065 0.0748185 0.459 255 255 255
-0.0342449 -0.0717104 0.353 255 255 255
-0.0718426 -0.0450122 0.36 255 255 255
0.00765371 0.175073 0.5 255 255 255
0.025647 -0.0766955 0.363 255 255 255
0.101413 0.12268 0.489 255 255 255
0.128766 -0.0729494 0.387 255 255 255
0.0839136 -0.0976916 0.362 0 0 0
0.0985116 -0.113972 0.347 0 0 0
-0.0891275 0.110418 0.443 255 255 255
0.063655 -0.0771783 0.371 255 255 255
0.0265132 -0.0964366 0.351 0 0 0
-0.0645306 -0.0845617 0.34 255 255 255
0.0262092 0.110557 0.468 255 255 255
0.10061 0.017651 0.431 255 255 255
0.142034 0.107366 0.481 255 255 255
-0.0169278 -0.0113474 0.391 255 255 255
0.249681 0.0696664 0.736 255 255 255
0.14981 -0.0508023 0.396 255 255 255
0.137183 -0.107099 0.358 255 255 255
-0.0553839 0.0312392 0.407 255 255 255
-0.153283 0.0538648 0.398 255 255 255
-0.18177 0.157182 0.451 255 255 255
-0.0445146 0.0686919 0.43 255 255 255
0.0374672 0.0372896 0.431 255 255 255
-0.160134 0.0440094 0.391 255 255 255
0.00390479 -0.118545 0.324 255 255 255
-0.121889 -0.0845028 0.329 255 255 255
-0.156786 0.0602938 0.402 255 255 255
0.357263 -0.167588 0.721 255 255 255
-0.120202 -0.0390773 0.354 255 255 255
0.0208416 0.180574 0.504 0 0 0
0.139174 -0.0873187 0.381 255 255 255
-0.0763324 0.0711833 0.424 255 255 255
-0.089576 0.147366 0.464 255 255 255
-0.140531 -0.00588907 0.368 255 255 255
-0.150198 -0.0140016 0.361 255 255 255
-0.207617 0.107751 0.416 255 255 255
0.333881 0.191626 0.692 255 255 255
-0.0737367 -0.115068 0.309 255 255 255
-0.0399786 0.148854 0.476 255 255 255
0.311501 0.226537 0.65 255 255 255
-0.209082 0.14344 0.436 255 255 255
0.0386819 -0.040201 0.387 255 255 255
0.00222178 -0.000544134 0.401 255 255 255
0.0709276 -0.0861359 0.368 255 255 255
0.252197 0.136351 0.747 255 255 255
0.297978 0.0176787 0.672 255 255 255
0.276985 -0.0366192 0.646 255 255 255
0.106368 -0.11893 0.345 255 255 255
0.125165 0.03641 0.446 255 255 255
-0.0121986 -0.0896908 0.347 255 255 255
-0.119894 0.042962 0.399 255 255 255
-0.0148541 -0.0494063 0.371 255 255 255
0.147308 -0.0841706 0.378 255 255 255
-0.0506403 0.098322 0.447 255 255 255
0.0011402 0.188528 0.499 255 255 255
-0.109017 0.043285 0.402 255 255 255
-0.178132 0.0171425 0.374 255 255 255
0.21852 0.182416 0.687 255 255 255
-0.111315 -0.0817847 0.331 255 255 255
-0.0342426 -0.0612451 0.359 0 0 0
0.0388386 -0.0268906 0.395 255 255 255
0.134257 0.162293 0.511 255 255 255
-0.10542 0.128559 0.451 255 255 255
-0.121362 -0.0124765 0.368 255 255 255
0.00321941 -0.0630349 0.366 255 255 255
-0.18263 0.0252556 0.377 255 255 255
-0.125811 -0.0142343 0.367 255 255 255
0.0895141 0.166777 0.512 0 0 0
-0.107615 0.176335 0.477 255 255 255
-0.207704 0.0739428 0.398 255 255 255
0.272771 -0.0739813 0.651 0 0 0
-0.139508 -0.0667636 0.334 255 255 255
-0.118958 -0.112205 0.3 255 255 255
-0.0971187 0.106091 0.44 255 255 255
0.105544 -0.0560303 0.392 255 255 255
0.0713414 -0.0997716 0.361 255 255 255
-0.163707 0.091263 0.418 255 255 255
0.0854849 -0.0638011 0.385 255 255 255
0.0263824 -0.0741482 0.365 255 255 255
-0.0121367 -0.0635242 0.362 255 255 255
-0.0188854 -0.0094627 0.392 255 255 255
0.262162 0.0502391 0.699 255 255 255
0.358326 -0.106853 0.774 255 255 255
-0.171851 -0.0431915 0.341 255 255 255
-0.09125 -0.110826 0.307 255 255 255
-0.0133478 0.119185 0.466 255 255 255
0.155031 -0.0980441 0.37 255 255 255
-0.039061 0.00590687 0.396 0 0 0
-0.092866 -0.0364259 0.362 255 255 255
-0.000443579 0.0990342 0.457 255 255 255
0.193825 0.220264 0.632 255 255 255
-0.0639834 -0.0802843 0.343 255 255 255
0.103473 -0.070142 0.382 0 0 0
0.0136925 -0.020359 0.393 255 255 255
-0.111048 0.0727225 0.417 255 255 255
0.12108 0.0386739 0.447 255 255 255
0.142181 0.0408562 0.447 255 255 255
0.121609 0.11346 0.487 255 255 255
0.016654 0.133144 0.478 255 255 255
-0.0295189 -0.0240775 0.381 255 255 255
-0.0457569 0.0907487 0.442 255 255 255
0.317107 0.162645 0.734 255 255 255
0.0309428 -0.0149004 0.401 255 255 255
0.113354 0.0463592 0.451 255 255 255
-0.00637332 0.0140533 0.408 255 255 255
-0.0316927 0.0584845 0.427 255 255 255
-0.062987 -0.0442059 0.363 255 255 255
0.0371899 -0.018675 0.398 255 255 255
-0.0689858 -0.117202 0.308 255 255 255
0.148203 -0.102305 0.368 255 255 255
-0.132022 -0.0130043 0.366 255 255 255
0.285935 0.0972459 0.71 255 255 255
-0.0655202 -0.103824 0.313 255 255 255
0.12974 0.0573876 0.457 255 255 255
-0.0148647 -0.0200482 0.387 255 255 255
0.114997 0.0185227 0.435 255 255 255
0.0469013 0.122774 0.477 255 255 255
0.0200966 -0.0439178 0.381 255 255 255
0.0566817 0.0953253 0.468 255 255 255
0.333017 -0.154785 0.727 255 255 255
-0.106593 -0.067963 0.34 255 255 255
0.0159572 0.0962697 0.458 255 255 255
0.093697 0.068096 0.459 255 255 255
0.14114 0.0576225 0.453 255 255 255
0.0781829 -0.0628464 0.383 255 255 255
0.348563 0.0704953 0.72 255 255 255
0.139008 0.100053 0.476 255 255 255
0.352589 -0.114623 0.767 255 255 255
0.0776372 0.026128 0.432 255 255 255
0.0829967 -0.12293 0.339 255 255 255
0.140797 -0.100181 0.369 0 0 0
0.282335 0.239431 0.623 0 0 0
-0.125749 0.1254 0.445 255 255 255
0.135378 0.0691429 0.461 255 255 255
0.00340865 -0.112192 0.327 0 0 0
0.156414 -0.100181 0.369 255 255 255
0.149053 -0.0531104 0.394 255 255 255
0.00951926 0.00407395 0.406 255 255 255
-0.131505 0.0124704 0.38 255 255 255
-0.113139 0.0183681 0.387 255 255 255
0.12542 -0.122229 0.348 255 255 255
0.155527 0.23427 0.607 255 255 255
-0.110999 0.151242 0.462 255 255 255
0.0789698 0.137322 0.493 255 255 255
-0.0172308 -0.000540063 0.398 255 255 255
-0.0678502 -0.102984 0.312 255 255 255
0.299018 -0.00741765 0.667 255 255 255
0.046721 0.159613 0.5 255 255 255
0.259119 0.146917 0.739 255 255 255
-0.0665554 -0.0141201 0.38 255 255 255
0.0423354 -0.110906 0.336 0 0 0
0.0642517 0.119392 0.479 255 255 255
0.0105602 0.144267 0.484 255 255 255
0.0865468 -0.0757709 0.376 255 255 255
-0.147349 0.18216 0.47 255 255 255
-0.0830779 0.0876937 0.434 255 255 255
-0.0889261 -0.0441796 0.358 255 255 255
0.156334 -0.105918 0.366 255 255 255
0.135045 0.171611 0.514 255 255 255
0.0409492 0.0625384 0.446 255 255 255
-0.0856763 -0.0348501 0.364 255 255 255
-0.0469678 -0.0593267 0.358 255 255 255
0.237033 -0.242548 0.632 255 255 255
0.0908678 -0.0470996 0.392 255 255 255
-0.0615578 -0.117331 0.311 255 255 255
0.282545 -0.0200444 0.654 255 255 255
0.0567204 -0.00984893 0.408 255 255 255
0.0485919 0.0221942 0.424 255 255 255
0.345 0.00129993 0.685 0 0 0
-0.132788 -0.0227504 0.36 255 255 255
-0.0729542 -0.0862644 0.338 255 255 255
0.0799208 -0.121079 0.34 255 255 255
0.114869 0.105236 0.482 255 255 255
0.244654 0.172444 0.701 255 255 255
0.0599316 -0.0430513 0.39 255 255 255
0.0973761 -0.122147 0.343 255 255 255
0.121246 -0.0993108 0.368 255 255 255
-0.000836697 -0.122529 0.322 255 255 255
0.0796008 -0.119215 0.341 255 255 255
0.315624 0.0134035 0.677 0 0 0
0.0552969 -0.120934 0.335 255 255 255
0.0152115 -0.102171 0.329 255 255 255
0.0400307 -0.060474 0.376 255 255 255
-0.00818888 -0.0510794 0.37 255 255 255
-0.153666 0.0469118 0.394 255 255 255
-0.14773 0.0873902 0.419 255 255 255
0.0529188 0.0636897 0.449 255 255 255
-0.104011 0.0924834 0.43 255 255 255
-0.0673384 0.183954 0.489 0 0 0
-0.148584 -0.0824361 0.323 255 255 255
0.262542 -0.244195 0.639 255 255 255
-0.093361 0.116973 0.446 255 255 255
-0.0595919 -0.00241447 0.387 255 255 255
-0.0995178 -0.00662897 0.376 255 255 255
0.209652 0.18609 0.68 255 255 255
0.360979 -0.122396 0.761 255 255 255
0.322522 -0.198814 0.687 255 255 255
-0.0671878 -0.0586639 0.354 255 255 255
0.00547185 -0.00249557 0.4 255 255 255
0.112871 -0.119274 0.346 255 255 255
0.0439931 -0.121472 0.332 255 255 255
0.296975 -0.0578778 0.637 255 255 255
-0.0478055 0.0468233 0.416 255 255 255
0.278804 0.0402563 0.684 255 255 255
-0.113574 -0.0184651 0.368 255 255 255
0.0949638 -0.0830573 0.373 255 255 255
0.0542152 0.0839643 0.46 255 255 255
-0.129221 0.0234668 0.388 255 255 255
-0.0293481 -0.0415577 0.371 0 0 0
-0.09624 0.0153372 0.39 255 255 255
0.0635101 -0.0606582 0.381 255 255 255
-0.123526 -0.0542077 0.344 255 255 255
0.344901 0.149322 0.745 255 255 255
-0.199468 0.0562423 0.392 255 255 255
-0.124285 -0.0727424 0.334 255 255 255
-0.182587 0.0835627 0.407 255 255 255
-0.194813 0.117689 0.425 255 255 255
0.0574782 -0.12584 0.335 255 255 255
-0.00617027 0.181219 0.499 0 0 0
-0.0123041 -0.0853401 0.35 255 255 255
-0.223587 0.170717 0.448 255 255 255
0.145304 -0.0941272 0.376 255 255 255
0.208621 -0.24063 0.627 255 255 255
0.309968 0.233043 0.636 255 255 255
-0.137086 0.0493311 0.398 255 255 255
-0.14041 -0.0704731 0.331 255 255 255
-0.063151 0.0832638 0.433 255 255 255
-0.170617 -0.0138464 0.357 255 255 255
0.115867 -0.0683639 0.386 0 0 0
-0.0895195 0.0863861 0.431 255 255 255
-0.109164 0.0962054 0.431 255 255 255
0.108281 -0.0519596 0.395 255 255 255
-0.197582 0.124092 0.428 255 255 255
0.280496 -0.0698243 0.642 255 255 255
0.284979 0.230661 0.638 255 255 255
0.138764 0.116391 0.486 255 255 255
0.0661047 0.098792 0.47 255 255 255
0.0125428 -0.0795767 0.36 255 255 255
-0.134762 0.00930448 0.377 255 255 255
0.099286 -0.0898568 0.371 0 0 0
-0.0933973 -0.00907647 0.376 255 255 255
0.0811843 -0.110984 0.343 0 0 0
0.153411 -0.100181 0.369 255 255 255
0.0741183 -0.0342193 0.398 255 255 255
0.0713848 -0.0648277 0.38 255 255 255
-0.0960972 0.0607462 0.414 255 255 255
0.323521 -0.144528 0.735 255 255 255
0.000228039 -0.0930789 0.347 0 0 0
0.0444002 -0.0940184 0.357 255 255 255
-0.111384 0.00568313 0.381 255 255 255
0.106352 -0.0500312 0.395 0 0 0
-0.1324 0.182939 0.474 255 255 255
-0.0754892 -0.1109 0.31 255 255 255
-0.117293 -0.111478 0.302 255 255 255
0.133519 -0.105342 0.356 255 255 255
0.145803 -0.0200024 0.412 255 255 255
-0.0156949 -0.0101006 0.392 255 255 255
0.0590043 -0.0659809 0.376 255 255 255
-0.203679 0.0747779 0.399 255 255 255
0.0217317 0.00815691 0.412 255 255 255
0.0325528 0.133751 0.483 255 255 255
-0.139878 0.0869153 0.42 255 255 255
0.0660487 0.173935 0.511 255 255 255
0.117999 0.179537 0.52 0 0 0
-0.0502996 -0.0533618 0.361 255 255 255
-0.0720159 0.126828 0.458 255 255 255
0.314434 -0.201285 0.684 255 255 255
-0.18157 0.00306857 0.365 255 255 255
-0.164889 -0.00812691 0.361 255 255 255
0.127582 -0.109358 0.354 255 255 255
-0.163123 0.0958005 0.42 255 255 255
0.0217779 0.0867539 0.455 255 255 255
0.229583 0.180967 0.69 255 255 255
-0.00685661 0.161205 0.49 255 255 255
0.113682 0.116631 0.487 255 255 255
-0.0221925 -0.0242038 0.383 255 255 255
-0.116532 -0.0201515 0.366 255 255 255
0.1147 -0.0887575 0.374 255 255 255
0.0627242 0.0309772 0.431 255 255 255
-0.182702 0.0691069 0.4 255 255 255
0.0113582 -0.121398 0.326 255 255 255
0.14368 -0.0316036 0.406 255 255 255
0.26195 0.00347785 0.675 255 255 255
0.316945 -0.0671056 0.646 255 255 255
-0.108547 0.143225 0.458 255 255 255
0.00987976 -0.059509 0.37 255 255 255
-0.0398059 0.00979809 0.397 0 0 0
0.0154926 -0.0278195 0.39 255 255 255
-0.117596 0.0809563 0.421 255 255 255
0.0474686 0.175394 0.508 255 255 255
0.260256 0.0291679 0.685 255 255 255
-0.126705 -0.0561187 0.342 255 255 255
0.159993 -0.0880084 0.376 255 255 255
-0.102727 0.148235 0.462 255 255 255
-0.0417768 0.0334711 0.41 0 0 0
0.0111742 -0.0545286 0.373 255 255 255
0.244393 0.174863 0.697 255 255 255
0.307303 0.198026 0.683 255 255 255
-0.120581 -0.059458 0.342 255 255 255
-0.149481 -0.0663638 0.332 255 255 255
0.0725464 0.0260675 0.431 255 255 255
-0.0872787 0.159124 0.472 255 255 255
-0.0663048 -0.0402916 0.365 255 255 255
-0.158891 0.108515 0.427 255 255 255
-0.0963011 0.129129 0.453 255 255 255
-0.0264968 -0.054547 0.365 255 255 255
-0.0219895 -0.0824923 0.35 255 255 255
-0.106831 -0.108889 0.303 0 0 0
-0.01848 -0.00247685 0.397 255 255 255
-0.0452196 -0.0610745 0.358 255 255 255
-0.0166293 0.184165 0.496 255 255 255
-0.157034 -0.0800849 0.322 255 255 255
-0.0594216 -0.0708978 0.349 255 255 255
-0.0626566 -0.0376285 0.368 255 255 255
-0.0268053 0.0749593 0.438 255 255 255
-0.0675275 -0.00797803 0.382 255 255 255
0.0897099 -0.0976389 0.364 0 0 0
-0.0560947 -0.0770451 0.346 255 255 255
-0.186866 0.0535537 0.391 255 255 255
-0.0119322 0.128621 0.47 255 255 255
0.00101453 0.0759861 0.444 255 255 255
-0.0238484 -0.0462625 0.37 255 255 255
0.0865781 0.0218593 0.431 255 255 255
-0.0793347 0.0606529 0.418 255 255 255
-0.0167546 -0.0187886 0.387 255 255 255
-0.159882 0.170789 0.462 0 0 0
0.286865 0.00126008 0.664 255 255 255
-0.138074 -0.103349 0.297 255 255 255
-0.138074 -0.104316 0.297 255 255 255
-0.0967543 0.0359094 0.4 255 255 255
0.0432798 0.0409858 0.433 255 255 255
-0.0429242 0.189886 0.492 255 255 255
-0.127391 -0.0847798 0.328 255 255 255
-0.114123 -0.0637235 0.341 255 255 255
-0.166717 -0.0406539 0.343 255 255 255
0.0155158 -0.0780353 0.361 255 255 255
-0.00734295 -0.0188857 0.389 255 255 255
-0.185733 0.0440748 0.386 255 255 255
-0.0584081 0.0284494 0.405 255 255 255
-0.0939414 -0.112457 0.306 255 255 255
-0.00036884 -0.0376187 0.38 255 255 255
-0.183916 0.096242 0.416 255 255 255
-0.0450347 -0.0709345 0.352 255 255 255
-0.0341798 0.0345546 0.415 255 255 255
0.265761 -0.0571187 0.652 255 255 255
-0.137877 -0.0662201 0.334 255 255 255
0.260818 0.152516 0.737 255 255 255
-0.128068 0.124116 0.443 255 255 255
-0.186848 0.0586011 0.395 255 255 255
-0.0157581 0.190658 0.494 255 255 255
0.333748 0.200989 0.678 255 255 255
-0.0181338 -0.109429 0.322 0 0 0
-0.182105 0.0742159 0.403 255 255 255
0.050079 -0.00652918 0.408 255 255 255
-0.161134 -0.0412121 0.343 255 255 255
0.133737 -0.117906 0.352 255 255 255
-0.147905 0.00313582 0.373 255 255 255
-0.179455 0.0349151 0.382 255 255 255
0.0569856 -0.0566137 0.383 255 255 255
-0.143125 -0.0458107 0.344 255 255 255
-0.0530362 0.16328 0.482 255 255 255
-0.0671371 -0.0806068 0.342 255 255 255
-0.0434586 0.0285899 0.407 255 255 255
-0.133837 0.125558 0.443 255 255 255
-0.191526 0.0238373 0.374 255 255 255
-0.0677008 -0.116576 0.309 255 255 255
-0.1053 -0.0629809 0.343 255 255 255
-0.00879644 0.118426 0.466 255 255 255
0.00388068 -0.123053 0.322 255 255 255
0.0790969 0.0758947 0.461 255 255 255
0.137258 0.102807 0.478 255 255 255
0.00853451 -0.0680216 0.364 255 255 255
-0.202148 0.0664826 0.396 255 255 255
0.0562594 -0.02658 0.4 255 255 255
-0.0367298 0.0487563 0.421 255 255 255
-0.150954 -0.0192353 0.36 255 255 255
0.0517417 0.135372 0.486 255 255 255
0.120901 -0.103305 0.353 255 255 255
-0.00696855 0.180046 0.498 255 255 255
-0.0713028 0.149398 0.468 255 255 255
-0.0760632 0.0534642 0.415 255 255 255
0.108164 -0.0761585 0.381 255 255 255
0.314828 0.180435 0.71 255 255 255
0.135414 -0.027311 0.411 255 255 255
-0.204913 0.119889 0.423 255 255 255
-0.132165 0.0365601 0.393 255 255 255
-0.0966244 -0.0551532 0.35 255 255 255
-0.194386 0.0276361 0.376 255 255 255
0.114616 0.123981 0.491 255 255 255
-0.0518009 0.00010545 0.39 255 255 255
-0.033638 0.144371 0.474 255 255 255
0.308099 0.0144623 0.675 0 0 0
-0.00883492 -0.0893829 0.348 255 255 255
0.158183 -0.0719459 0.385 255 255 255
0.152152 0.029342 0.438 255 255 255
0.0426641 0.0158336 0.42 255 255 255
-0.0232683 -0.0621738 0.361 255 255 255
0.128507 0.178847 0.518 255 255 255
0.275313 -0.0284712 0.652 255 255 255
0.157804 0.229228 0.612 255 255 255
-0.13176 -0.0452107 0.348 255 255 255
-0.0960561 0.0929136 0.432 255 255 255
0.0604092 -0.0594182 0.381 255 255 255
-0.174154 -0.0462482 0.339 255 255 255
0.00597813 -0.0860716 0.353 255 255 255
-0.0871997 0.0402131 0.404 0 0 0
-0.12986 0.0902895 0.423 255 255 255
-0.077247 0.0398494 0.407 0 0 0
0.0721362 -0.0580113 0.384 255 255 255
-0.0971844 -0.0712827 0.34 255 255 255
0.332916 0.193318 0.69 255 255 255
0.0256956 -0.111 0.333 0 0 0
0.133761 -0.035743 0.408 255 255 255
0.0512651 0.139391 0.489 255 255 255
-0.111442 -0.00173857 0.377 255 255 255
-0.0244608 0.115655 0.461 255 255 255
-0.101682 0.0957256 0.432 255 255 255
0.245653 0.238278 0.62 255 255 255
-0.138685 0.103438 0.429 255 255 255
-0.0689165 -0.0575117 0.354 255 255 255
0.385976 0.0990166 0.759 255 255 255
0.157737 -0.0889949 0.375 255 255 255
0.109173 0.137369 0.499 255 255 255
-0.0956649 0.0688156 0.418 255 255 255
0.117035 0.0258959 0.44 255 255 255
0.0266643 -0.092965 0.353 0 0 0
-0.156232 0.0475529 0.394 255 255 255
0.0474459 0.00415422 0.414 255 255 255
-0.0228171 -0.0736418 0.354 255 255 255
0.13044 -0.035079 0.408 255 255 255
0.24093 0.143452 0.746 255 255 255
-0.164998 0.0346526 0.386 255 255 255
0.0747824 -0.0516702 0.388 255 255 255
-0.0796715 0.0200842 0.396 255 255 255
0.100726 -0.127729 0.343 0 0 0
0.255558 0.218497 0.645 255 255 255
0.108612 -0.0893662 0.374 255 255 255
0.134767 0.0930676 0.472 255 255 255
-0.100489 -0.0277419 0.364 255 255 255
0.317607 -0.220584 0.665 255 255 255
0.0266219 -0.0217482 0.395 255 255 255
0.0766255 0.186192 0.515 255 255 255
0.14292 0.114337 0.484 255 255 255
-0.0279182 -0.112394 0.32 255 255 255
0.0896622 0.0521148 0.45 255 255 255
-0.134803 0.0459769 0.397 255 255 255
0.0360613 -0.0958025 0.355 255 255 255
0.0448522 0.126671 0.48 255 255 255
0.121439 0.0303979 0.443 255 255 255
-0.0919489 -0.111959 0.306 255 255 255
0.251899 0.0716702 0.732 0 0 0
0.322865 -0.169684 0.715 255 255 255
0.0333535 -0.0310723 0.391 255 255 255
-0.0279069 0.109206 0.456 255 255 255
-0.192478 0.0632604 0.396 255 255 255
0.135758 0.0105879 0.429 255 255 255
-0.174866 -0.0557257 0.333 255 255 255
0.00370052 -0.0819377 0.355 255 255 255
0.11017 0.0539366 0.453 255 255 255
0.067051 0.0467666 0.441 255 255 255
-0.00413392 -0.0268363 0.385 255 255 255
-0.0329946 0.0730301 0.435 255 255 255
0.0137506 0.100215 0.459 255 255 255
0.25492 0.240527 0.618 255 255 255
-0.00350041 -0.11238 0.326 0 0 0
-0.0283843 -0.00689342 0.391 255 255 255
-0.00373344 0.177159 0.499 255 255 255
-0.122259 -0.0799265 0.33 255 255 255
0.335109 -0.109631 0.767 255 255 255
-0.128207 0.119249 0.441 255 255 255
0.284059 0.109413 0.714 255 255 255
0.255499 -0.242394 0.637 255 255 255
0.312468 -0.18356 0.697 255 255 255
0.0317806 0.0393023 0.43 255 255 255
-0.0240669 0.0126006 0.404 255 255 255
0.075172 0.0146733 0.426 255 255 255
-0.0198015 -0.0224507 0.385 255 255 255
-0.0123297 -0.116925 0.321 255 255 255
0.37625 -0.0990388 0.772 255 255 255
0.366977 0.0608661 0.731 255 255 255
0.16747 0.22184 0.622 255 255 255
0.203886 0.223927 0.625 255 255 255
0.303991 0.210437 0.666 255 255 255
-0.0511562 0.0271313 0.405 255 255 255
-0.1883 0.0578116 0.394 255 255 255
-0.114819 0.000101665 0.376 255 255 255
0.329198 0.0046102 0.68 255 255 255
0.0394666 0.0791751 0.454 255 255 255
-0.169463 -0.0238952 0.351 255 255 255
0.14195 0.0369693 0.444 255 255 255
0.126218 -0.0444864 0.403 255 255 255
0.0460266 -0.114392 0.335 255 255 255
-0.0962965 -0.112217 0.304 255 255 255
-0.133819 0.0419945 0.396 255 255 255
-0.11905 -0.0390773 0.354 255 255 255
-0.024377 -0.0163116 0.388 255 255 255
0.257661 -0.00316817 0.687 255 255 255
0.200624 0.235356 0.615 255 255 255
-0.149023 -0.0134141 0.361 255 255 255
-0.0197062 -0.110477 0.322 255 255 255
-0.173488 0.115464 0.427 255 255 255
-0.0789981 -0.117934 0.306 255 255 255
0.294179 0.108554 0.716 255 255 255
0.177595 0.229937 0.622 255 255 255
-0.00645142 0.0229626 0.413 255 255 255
-0.0837098 -0.0854608 0.337 255 255 255
0.0902015 0.0861862 0.468 255 255 255
-0.169893 0.139255 0.443 255 255 255
-0.138875 0.0232854 0.385 255 255 255
-0.0189438 -0.121524 0.318 255 255 255
0.0945844 -0.119356 0.343 255 255 255
-0.181102 0.164514 0.453 255 255 255
0.0617345 -0.0723248 0.374 255 255 255
0.13069 0.0686894 0.463 0 0 0
-0.191628 0.176378 0.457 255 255 255
-0.0738934 -0.0567748 0.353 255 255 255
0.126942 -0.0904559 0.376 255 255 255
-0.093574 -0.0838633 0.335 255 255 255
0.0744847 0.0863904 0.465 255 255 255
0.0613516 -0.0956593 0.361 255 255 255
0.323155 -0.122739 0.748 255 255 255
-0.175466 -0.00460212 0.361 255 255 255
-0.117378 0.0659762 0.413 255 255 255
0.0313731 -0.125036 0.33 255 255 255
0.058348 -0.0813451 0.368 255 255 255
0.0982736 -0.0633387 0.386 0 0 0
0.108692 0.165561 0.516 0 0 0
-0.0172496 0.0263868 0.414 255 255 255
-0.0887362 -0.00848711 0.377 255 255 255
-0.123016 0.0567894 0.405 255 255 255
0.0349266 0.185408 0.506 255 255 255
0.201716 0.190462 0.672 255 255 255
-0.0171385 -0.108717 0.323 255 255 255
-0.0965715 0.179006 0.48 255 255 255
0.0586886 -0.0526601 0.386 255 255 255
-0.0129748 -0.0200482 0.387 255 255 255
-0.11534 -0.0195559 0.366 255 255 255
-0.0299265 0.170426 0.489 0 0 0
0.101852 0.131435 0.495 255 255 255
0.308813 0.0422766 0.699 255 255 255
-0.0664823 0.0275845 0.402 255 255 255
0.26264 0.0867781 0.719 255 255 255
0.0872951 0.152689 0.504 255 255 255
0.0200924 -0.103018 0.33 255 255 255
-0.10831 -0.108889 0.303 0 0 0
-0.107015 0.0311177 0.397 255 255 255
0.371884 0.0636778 0.736 255 255 255
-0.0865525 0.0279577 0.398 255 255 255
0.258418 0.0973459 0.737 255 255 255
0.0634767 -0.123114 0.335 255 255 255
-0.0893581 0.0573776 0.414 255 255 255
0.0656957 -0.116516 0.338 255 255 255
-0.0901485 0.00197336 0.383 255 255 255
0.050543 0.0187001 0.423 255 255 255
0.0856754 0.162486 0.509 255 255 255
0.0739496 0.0253662 0.431 255 255 255
-0.108794 0.0132611 0.385 255 255 255
0.116917 0.0348801 0.445 255 255 255
0.313889 -0.116516 0.755 255 255 255
-0.08891 -0.0785639 0.338 255 255 255
0.0665214 -0.0235003 0.403 255 255 255
0.0668275 -0.00324876 0.413 255 255 255
0.270041 0.0254845 0.676 255 255 255
-0.104124 0.0191943 0.391 255 255 255
-0.10521 0.150062 0.463 255 255 255
0.106144 -0.0327628 0.404 255 255 255
0.122488 0.132775 0.497 255 255 255
-0.01579 0.188627 0.495 255 255 255
-0.0980253 0.0485787 0.408 255 255 255
-0.0997725 0.0464726 0.407 255 255 255
-0.197184 0.0978005 0.414 0 0 0
0.378029 0.150932 0.741 0 0 0
0.0684991 -0.108672 0.341 255 255 255
-0.0945639 0.0325731 0.399 255 255 255
-0.167969 -0.0655643 0.328 255 255 255
-0.0224585 -0.0330272 0.377 255 255 255
0.131238 0.0281714 0.442 255 255 255
-0.225264 0.145976 0.433 255 255 255
0.335205 0.0774177 0.719 255 255 255
-0.120635 0.135026 0.453 255 255 255
-0.15238 0.182536 0.469 255 255 255
0.131072 -0.117571 0.351 255 255 255
0.365928 -0.177828 0.715 255 255 255
0.0451903 -0.0181179 0.4 255 255 255
-0.12634 0.120239 0.442 255 255 255
0.110245 -0.101294 0.352 255 255 255
-0.0478273 0.12568 0.462 255 255 255
-0.0462349 0.0762175 0.433 255 255 255
0.33596 0.155175 0.744 255 255 255
0.0319886 -0.0572619 0.375 255 255 255
0.310296 0.00897009 0.675 255 255 255
0.0878352 -0.111631 0.345 0 0 0
0.0618207 -0.00925252 0.411 255 255 255
0.00879887 0.125859 0.474 255 255 255
-0.167109 0.0953443 0.418 255 255 255
-0.0882126 0.0153766 0.391 255 255 255
0.046804 0.0388719 0.433 255 255 255
0.0601082 0.187704 0.51 255 255 255
0.265105 -0.0348907 0.653 255 255 255
-0.133535 0.0696697 0.411 255 255 255
-0.0920486 -0.106676 0.308 255 255 255
0.257216 -0.010834 0.677 255 255 255
-0.151358 0.0782628 0.414 255 255 255
0.0692818 -0.0291838 0.4 255 255 255
0.142917 -0.0574524 0.393 255 255 255
0.0544289 -0.0668472 0.374 255 255 255
0.288994 0.0936476 0.709 255 255 255
-0.0740681 0.0621617 0.419 255 255 255
0.118644 -0.0927692 0.373 255 255 255
-0.133217 -0.0512592 0.343 255 255 255
0.0904493 -0.094263 0.367 0 0 0
-0.151724 0.0825039 0.415 255 255 255
0.307734 0.188792 0.694 255 255 255
-0.0231734 -0.0150876 0.389 255 255 255
-0.143752 -0.0330343 0.351 255 255 255
-0.207367 0.171526 0.454 0 0 0
0.316133 0.168655 0.729 255 255 255
-0.0874258 -0.00113999 0.382 255 255 255
0.217807 -0.235528 0.627 0 0 0
0.237674 0.189688 0.681 255 255 255
-0.0438857 0.0375657 0.411 255 255 255
0.0179157 0.0801198 0.451 255 255 255
0.360113 -0.0942756 0.754 0 0 0
