ply
format ascii 1.0
comment Created by Open3D
element vertex 1359
property double x
property double y
property double z
property uchar red
property uchar green
property uchar blue
end_header
0.0446079 0.0360716 1 170 164 166
0.390553 -0.00104213 0.768 78 66 50
0.0264533 0.19257 1.055 2 8 8
0.467583 -0.0523222 1.01 178 185 179
-0.991028 0.460968 1.899 93 104 102
-0.680807 0.527903 1.724 75 78 77
-0.218174 -0.852821 2.649 3 14 23
-0.417285 0.400033 1.637 0 3 2
-1.01973 -0.456021 2.004 103 109 109
0.371108 0.0275587 0.764 107 104 88
-1.01603 -0.62875 1.953 116 124 123
-0.370695 -0.17362 1.445 6 10 3
0.266882 0.218121 0.647 147 157 160
-0.752229 -0.594578 2.114 121 119 109
-0.377085 -0.266916 1.416 8 11 14
-0.750536 0.564014 1.673 99 108 99
-0.545971 -0.527056 2.42 76 77 73
1.23657 -1.05519 2.884 108 104 97
0.830103 -0.445104 1.744 174 179 167
-0.469486 0.462926 1.624 3 6 9
-0.175277 -0.0713844 1.336 125 115 115
0.198655 0.0386635 0.908 178 181 182
0.350837 0.0356319 0.806 161 172 170
-0.419427 0.297739 1.575 1 4 3
-1.03682 -0.298376 2.064 106 105 105
0.311492 0.181579 0.637 161 174 173
-0.475307 0.121934 1.524 5 6 2
-1.16843 0.315917 2.253 91 102 100
0.359325 -0.940235 2.78 130 125 121
0.230123 0.0963882 0.788 181 181 183
-0.804472 -0.503397 2.181 113 108 104
0.179917 -0.706763 2.805 124 116 113
0.213407 0.281607 0.739 71 81 69
-0.273033 -0.765007 2.768 5 17 33
-0.768035 -0.778685 2.064 126 132 115
-0.775899 -0.125432 2.151 99 97 89
-0.395461 -0.611494 3.301 19 19 19
0.234481 0.244038 0.675 123 127 120
-0.0870316 -0.234242 1.502 194 188 190
0.181587 0.27566 0.806 55 62 54
0.228951 -0.294725 1.591 156 152 145
0.0455159 -0.0203938 1.059 190 186 189
-1.08536 -0.0813392 2.189 97 99 90
-1.05251 0.371622 2.151 105 112 106
-0.464198 0.460283 1.624 2 5 6
-0.38484 0.432807 1.591 0 6 4
0.0987408 0.190823 0.874 99 97 89
1.20955 -0.871676 2.898 92 85 77
-1.17418 0.167985 2.236 121 131 119
0.915674 -0.776462 2.793 42 80 74
-0.0632196 0.0755602 1.156 70 58 56
1.13109 -0.733371 2.638 86 99 98
0.20428 0.293908 0.768 72 72 68
-1.09058 0.393538 2.064 98 105 99
0.222973 0.192978 0.701 161 161 163
-0.499957 0.0250802 1.516 41 43 34
-0.0422909 -0.0877702 1.203 196 190 194
0.119129 0.168387 0.847 120 120 116
-0.826759 -0.644103 2.085 123 123 117
0.431186 -0.697184 2.898 113 106 100
0.513832 -0.730961 2.939 111 107 98
-0.852023 -0.498253 2.114 115 112 107
0.00684581 0.340606 0.955 29 15 9
-0.371105 0.0903594 1.494 3 3 5
-0.314447 -0.636952 3.086 8 12 7
0.224092 0.107548 0.776 190 190 192
-0.278736 0.371622 1.342 9 12 11
0.236302 0.148284 0.728 158 161 162
-0.62466 -0.67836 2.173 128 121 111
0.920682 -0.677564 2.638 46 34 32
0.0630198 0.119107 0.913 141 135 137
0.234825 -0.0586567 1.169 95 94 94
-0.466842 0.45764 1.624 3 6 5
-0.964975 -0.370459 2.151 108 109 100
-0.115213 0.260163 1.079 6 7 3
-0.252668 -0.00460473 1.543 30 30 26
0.0859667 0.164934 0.92 86 79 73
-0.105741 0.22533 1.072 2 5 4
0.0595131 0.169122 0.952 86 81 77
-0.379581 -0.0775825 1.452 4 8 3
-0.508662 -0.864154 2.449 50 58 59
0.750701 -0.929874 3.026 108 99 94
-0.147951 -0.207541 1.452 195 191 194
-0.141035 0.304682 1.075 2 6 1
0.0411455 0.202668 0.995 25 24 28
0.273784 0.105888 0.691 69 74 81
-0.322279 -0.942144 2.519 43 48 55
0.21438 0.248299 0.726 72 79 71
-0.14825 0.178677 1.13 12 19 13
0.00229412 0.294362 1.004 3 6 5
1.15179 -1.09363 3.071 79 70 63
-0.974554 -0.737558 1.972 121 128 122
0.378582 -0.280299 1.487 127 124 119
0.274623 -0.585566 2.793 121 109 109
-0.874349 -0.238838 2.196 103 103 99
0.0212029 -0.107645 1.252 105 105 109
-0.623636 0.5807 1.599 104 105 99
-0.232363 0.0257847 1.419 11 27 46
0.285447 0.166294 0.676 144 152 151
-0.940264 -0.564911 2.044 112 115 114
-0.0834106 0.426625 1.149 16 12 13
-0.088941 -0.905087 2.53 146 141 137
-0.608124 0.591424 1.579 93 100 94
-0.396684 0.496162 1.629 0 6 6
-0.213809 -0.1666 1.466 148 144 147
-0.828268 0.526836 1.739 110 111 105
-0.484367 -0.750588 2.509 12 8 13
-0.950549 -0.369518 2.166 109 110 101
0.42694 -0.0261534 1.015 73 72 81
0.0593249 -0.609874 2.719 126 117 112
0.432805 -0.104398 1.149 140 145 135
-0.899202 0.430101 1.941 110 114 109
0.891171 -1.00857 3.086 75 67 66
0.226947 0.133869 0.74 169 172 173
-0.928304 0.071549 2.294 98 95 92
0.279249 -0.00445942 0.967 7 11 4
-0.922449 0.33069 2.158 97 93 84
-0.416973 -0.87611 2.449 54 60 62
0.123003 0.0474245 0.906 189 188 188
0.445786 -0.5507 2.755 101 97 90
-0.239152 0.218472 1.108 10 14 9
0.237726 0.109472 0.763 151 145 147
-0.0349934 -0.0485984 1.156 183 177 181
0.0377919 0.0567691 0.992 152 143 148
-0.246509 0.0997397 1.357 8 21 32
0.34772 -0.667328 2.871 116 107 102
-0.968363 -0.466728 2.143 106 115 108
-0.443289 0.341328 1.587 0 5 3
0.172517 0.104178 0.819 181 180 182
-1.00013 -0.708205 1.953 115 126 122
0.182672 0.106328 0.805 181 180 180
-0.380103 -0.180674 1.445 7 10 9
-0.608803 -0.718129 3.026 25 25 27
-0.598558 -0.762489 2.181 129 125 116
-0.417398 -0.0728567 1.452 2 8 6
-0.20172 0.133942 1.324 17 20 21
0.472297 -0.250822 1.366 153 154 148
-0.712827 0.568719 1.655 100 106 104
-0.890359 -0.520605 2.107 112 114 105
0.262341 0.00960288 0.957 9 20 16
-0.966854 -0.520119 2.051 114 115 109
0.294565 0.15223 0.687 74 84 72
-0.307154 -0.17968 1.456 11 11 13
0.884538 -0.473646 1.821 162 174 166
-0.284377 0.51751 1.425 7 13 11
-0.453232 0.203382 1.559 2 6 1
-1.02081 -0.203099 2.158 101 101 103
-0.929502 -0.658885 2.057 119 120 114
0.223328 0.269364 0.695 81 82 78
-0.988364 -0.0473878 2.269 95 99 92
0.275867 0.103854 0.685 62 74 92
-0.0983684 -0.778647 2.561 139 134 130
-0.553832 -0.498798 3.133 54 54 48
-0.0997378 -0.217734 1.473 196 195 197
0.298122 0.117055 0.665 70 69 69
-0.452977 0.378682 1.603 0 6 0
0.488054 -0.179546 1.242 145 154 147
-0.454766 0.329243 1.591 1 4 3
1.25059 -0.92227 2.939 93 88 84
-0.748224 0.60774 1.555 91 102 100
-0.184486 0.210371 1.094 9 15 13
-0.95573 -0.518562 2.085 112 113 107
-0.576737 -0.7978 2.22 131 128 123
-0.355572 0.115222 1.47 2 5 4
-0.876284 0.496696 1.815 104 111 105
0.331679 0.0401411 0.908 144 143 154
-0.584431 -0.728227 3.133 24 28 23
-0.566335 -0.821743 2.236 126 125 125
-0.445505 0.563816 1.633 30 33 17
0.340985 0.0884054 0.695 186 199 198
-0.0258745 0.0481428 1.089 94 86 85
-0.871321 -0.395684 2.136 113 108 104
0.280959 0.2141 0.629 131 137 137
-0.164084 0.0281962 1.316 86 78 77
0.203906 0.00176867 0.932 95 89 93
-0.24506 -0.86502 2.66 20 25 34
0.567624 -0.325381 1.494 193 193 193
-0.0408496 0.1497 1.162 6 9 10
0.474855 -0.0608399 1.015 186 193 187
-0.0586279 -0.693322 2.649 131 123 120
-0.417398 -0.198089 1.452 2 8 6
1.2084 -1.02234 2.884 98 100 91
-0.849141 -0.668927 2.057 124 125 116
0.154817 0.189875 0.777 107 102 100
0.225445 0.132704 0.747 152 157 147
0.375069 -0.00106927 0.788 128 121 100
1.31685 -1.08107 2.805 130 134 129
0.687305 -1.11621 2.884 121 114 104
0.249362 0.22641 0.662 105 117 109
0.178038 -0.814226 2.707 143 139 132
-0.387113 0.160025 1.509 0 5 3
1.18636 -1.11046 2.982 106 99 89
0.211491 0.0326809 0.906 117 123 121
0.629343 -0.3369 1.502 152 164 156
-0.822853 0.466029 1.882 115 112 109
0.167489 0.00961292 0.958 197 193 196
-1.00982 -0.721475 1.929 116 127 125
0.0648593 0.107808 0.918 132 131 133
-0.240825 0.483688 1.375 2 5 4
-0.2537 0.4804 1.372 4 7 6
-0.0262785 -0.0122997 1.106 168 162 166
0.244328 0.089158 0.71 51 80 108
-0.134315 -0.0137788 1.239 103 92 98
-0.227463 0.459168 1.362 0 5 3
0.20388 0.00627122 0.925 68 67 71
0.011383 0.163783 1.092 49 44 40
-0.288065 0.486477 1.409 17 20 19
0.127787 -1.00352 2.582 144 139 137
-0.418574 -0.331436 1.416 35 35 29
0.118569 0.0175532 0.966 184 178 180
-0.324246 0.466262 1.491 13 20 14
0.332075 -0.205103 1.403 172 172 166
0.327318 0.13917 0.652 58 61 62
-0.406698 -0.170202 1.456 3 6 7
0.027156 0.238594 1.017 2 5 4
0.788814 -0.795658 3.04 43 37 41
0.274251 0.20177 0.652 161 174 173
0.396837 -0.356414 1.7 188 187 187
0.348646 0.0683757 0.735 155 167 159
0.272124 0.16381 0.684 138 146 147
-1.01014 -0.430929 2.024 109 113 108
0.688591 -0.304853 1.477 160 170 158
0.0251996 0.306104 1.005 22 18 9
-0.459278 0.2254 1.571 1 5 0
-0.510222 0.145012 1.532 37 36 38
0.247159 0.252194 0.659 120 123 124
0.251522 0.125075 0.745 112 118 118
0.113748 0.181006 0.848 119 119 113
-0.145876 0.234052 1.072 10 13 14
0.278001 0.0443272 0.874 41 36 46
0.236649 -0.0515205 1.098 99 102 105
-0.429251 0.411943 1.642 0 3 2
-0.892637 0.426261 1.997 114 116 107
0.0653816 -0.179688 1.366 152 147 155
-0.226441 0.153257 1.305 5 4 4
-1.07107 0.132309 2.312 107 112 100
-0.114151 0.303588 1.053 3 6 5
0.278329 0.234945 0.63 93 107 111
-0.428393 0.0966241 1.516 3 6 5
0.259911 0.230058 0.648 122 130 119
0.319401 0.0961729 0.678 187 200 199
-0.138908 -0.949999 2.54 122 114 113
0.306184 -0.0976136 1.18 146 143 138
1.1607 -1.00341 3.055 73 66 56
0.559467 -0.630389 2.831 104 94 92
-0.439227 0.588151 1.591 53 61 50
0.288897 -0.0880124 1.18 188 187 187
0.102584 0.244197 0.847 95 96 90
-0.129299 0.0328582 1.249 102 95 89
-1.09381 0.326914 2.228 103 110 104
-0.977696 -0.652997 1.959 119 119 121
-0.322447 0.0604223 1.419 21 17 20
0.231338 0.0762283 0.834 188 191 192
-0.532896 -0.785713 2.312 15 12 9
0.632995 -0.717392 2.982 91 81 79
-0.484573 -0.132421 1.484 6 10 3
0.561147 -0.174428 1.294 171 178 172
0.156626 -0.20947 1.449 199 195 198
0.112468 0.227975 0.809 105 101 94
-0.845393 0.13919 2.365 110 107 102
0.7177 -0.250061 1.425 84 92 81
-0.2098 0.21789 1.096 7 10 9
0.0114039 0.197909 1.094 9 9 9
-1.08883 0.343661 2.196 104 111 103
0.256674 0.20207 0.667 149 157 158
-0.753103 0.0144814 2.136 99 95 84
0.121023 0.1713 0.841 122 119 114
-0.447691 0.0345334 1.498 5 6 2
0.0101889 -0.829858 2.604 139 134 132
0.931948 -0.903985 3.055 68 64 55
-0.606249 -0.581905 2.196 121 117 110
0.175526 0.153932 0.768 157 160 161
-0.78545 -0.175005 2.158 102 97 93
-0.835678 -0.0830857 2.236 98 96 88
-0.0789029 -0.0463099 1.194 146 142 143
0.290828 0.211042 0.626 150 157 161
-0.885378 -0.605442 2.128 120 121 112
-0.483401 0.309555 1.583 5 5 5
1.12037 -1.00344 3.04 72 65 57
-0.317944 -0.874895 2.55 19 24 44
-0.192143 -0.135188 1.412 147 143 146
0.218711 0.117381 0.766 180 183 184
-0.910086 -0.586192 2.121 118 118 112
0.325934 0.065757 0.746 187 198 198
0.236128 0.0373435 0.877 29 29 33
-0.798798 0.453124 1.905 117 118 114
1.07976 -0.998663 2.996 72 65 59
0.287236 0.0694771 0.734 191 197 199
0.268543 0.182525 0.675 170 178 175
0.0203322 0.269022 1.007 4 8 3
0.364237 -0.737554 2.818 119 114 110
-0.172807 -0.918473 2.615 13 16 19
-1.0372 0.0420114 2.312 96 97 93
0.28763 0.063553 0.828 147 155 152
0.0328147 0.0854806 0.988 113 106 100
0.221011 -0.715893 2.805 122 117 115
-1.07391 0.11222 2.286 92 96 89
-0.874986 -0.508479 2.128 113 114 105
0.0621521 0.163265 0.945 86 82 75
-0.349918 0.520361 1.551 20 25 15
-0.0518759 -0.855681 2.53 117 109 108
0.314982 0.170467 0.642 148 172 172
-0.295755 -0.0993085 1.532 11 15 8
0.34855 -0.304172 1.642 190 189 189
-0.958558 0.0303787 2.286 98 96 86
0.0358854 0.149186 0.984 86 78 75
-0.407944 -0.0775825 1.452 2 8 8
0.882011 -0.705895 2.731 43 38 36
0.242744 0.151131 0.719 153 159 159
0.26147 0.111349 0.719 52 45 39
-0.999462 -0.163792 2.196 97 98 94
-0.585248 -0.627505 3.165 49 49 43
0.0563625 0.307429 0.978 71 63 60
-0.566973 -0.578677 2.253 120 117 112
0.258674 0.10115 0.705 73 72 79
0.186203 0.0111719 0.958 193 192 194
0.264815 0.0931968 0.697 106 114 140
-0.881459 0.533183 1.705 104 112 109
0.469277 -0.235915 1.308 151 156 146
0.527165 -0.172272 1.278 181 185 180
0.236493 0.0152698 0.923 27 30 29
0.256348 0.0599897 0.854 125 125 125
-0.0943914 0.299008 1.043 4 7 6
0.660487 -0.945885 2.953 111 107 98
-1.1353 0.00774099 2.196 96 97 91
-1.03256 0.41526 1.991 100 107 101
0.391269 -0.0633574 1.057 175 175 171
0.391518 -0.0159769 0.765 82 64 53
-0.229605 -0.730474 2.844 4 10 8
-0.787831 -0.722091 2.037 128 129 123
-0.954836 0.0340988 2.286 99 97 87
0.0754836 0.0810944 0.92 162 156 160
-0.846619 -0.181081 2.189 102 98 91
1.35172 -0.919604 2.719 97 92 100
-0.919864 0.171399 2.44 106 103 98
0.0513841 0.147887 0.945 90 85 81
-0.203113 0.174202 1.149 5 6 2
0.0227787 0.00537908 1.044 186 177 180
-0.531277 -0.634752 2.338 41 38 35
1.24461 -0.955175 2.982 97 90 82
0.275253 0.227769 0.63 107 114 108
-0.0705176 -0.0808698 1.217 187 181 185
-0.899371 -0.235265 2.196 101 102 93
0.137992 0.196187 0.782 134 133 135
-0.72525 0.388856 2.057 99 97 89
-0.0350021 -0.0990994 1.222 193 189 192
-0.624122 -0.55689 2.196 121 114 108
-0.0944819 0.297595 1.044 4 7 6
-0.233741 0.229291 1.108 8 11 12
-0.321642 -0.0537582 1.513 4 8 3
0.214057 0.223052 0.717 72 79 71
0.153451 0.116883 0.824 167 166 170
-0.0662827 0.242359 1.055 5 12 6
0.211367 0.126689 0.762 154 154 156
0.0234933 0.0785389 1.002 107 101 103
-0.156784 0.238206 1.075 6 6 6
-0.0543642 0.349463 1.057 10 11 2
-0.0127454 -0.0788763 1.187 197 193 196
-0.809476 0.441759 1.923 114 115 111
-1.01052 0.296006 2.269 91 93 82
0.121226 0.0797015 0.872 147 141 143
-0.0321155 -0.116997 1.265 179 175 178
0.414464 -0.0692307 1.068 184 190 188
0.20088 -0.0612325 1.182 96 96 96
0.676584 -0.158841 1.322 181 185 180
0.214848 0.0810696 0.828 195 195 195
-0.465457 -0.119779 1.477 8 9 5
-0.0961432 0.176043 1.102 16 19 22
-0.946918 -0.558259 2.044 113 117 110
1.13829 -0.91578 2.996 73 60 49
0.0676767 -0.0114434 1.029 167 163 168
-0.913123 -0.701176 1.978 123 124 120
-0.0299332 -0.00510965 1.108 170 161 166
-0.178094 0.144648 1.249 6 9 10
-0.305443 -0.128451 1.494 8 11 12
0.265091 0.0814128 0.713 190 196 198
0.0303172 0.242362 1.012 3 6 5
-0.843568 -0.303955 2.228 107 103 96
0.415423 -0.0708358 1.066 184 190 188
-0.01092 0.253489 1.017 3 6 5
-0.354906 -0.858016 2.489 68 68 72
0.340342 0.0401978 0.877 29 28 39
0.231291 0.180687 0.702 168 176 175
-0.872273 -0.732145 2.01 122 126 121
-0.728929 0.599133 1.579 99 114 113
-0.607831 -0.745 2.151 125 125 121
0.298227 0.0832636 0.709 190 198 199
0.295898 0.0639233 0.753 191 198 202
0.142616 0.0277294 0.938 191 190 190
-0.769062 0.387363 2.085 98 100 91
0.36433 0.0165712 0.837 68 70 54
0.00915684 0.0223041 1.041 166 160 162
-0.711681 -0.519159 2.158 119 115 106
0.191583 0.197285 0.743 94 94 88
-0.761428 -0.653074 2.092 125 121 114
0.112127 -0.00792132 1.007 199 193 195
-0.818362 -0.428367 2.143 110 111 102
1.33844 -0.946152 2.719 99 96 91
0.326451 -0.228334 1.449 106 99 89
0.53289 -0.155739 1.262 184 188 183
0.572045 -1.00839 2.871 125 117 116
-0.477027 -0.837678 2.43 57 59 65
-1.01817 0.285451 2.303 93 95 86
-0.750156 0.602741 1.575 96 104 101
0.0247877 -0.531192 2.818 125 116 109
-0.152098 0.267187 1.079 4 8 3
0.271067 0.206014 0.652 167 178 176
-0.497566 -0.104139 1.494 8 9 5
0.217696 -0.853873 2.707 125 120 118
0.216428 0.0419572 0.884 162 165 164
-0.0838995 -0.0587449 1.21 143 136 145
-0.467671 0.54448 1.655 5 5 5
0.116873 0.0662625 0.882 168 162 166
0.0323207 -0.14229 1.289 142 129 133
-0.0434803 0.0813601 1.132 73 68 66
-0.704881 0.442112 1.911 97 98 87
-0.385697 0.0465973 1.494 3 7 2
0.209811 -0.0712696 1.189 91 91 93
0.148787 0.161548 0.806 128 129 123
0.0510063 0.0726483 0.967 159 153 157
0.00943832 0.206333 1.073 11 12 8
-0.372801 -0.24481 1.435 11 15 10
-0.441055 0.288217 1.579 1 4 3
-0.971344 -0.737558 1.972 120 127 119
-0.00946493 0.236992 1.039 1 7 5
-0.538274 0.553362 1.682 53 51 41
-0.0280414 -0.117181 1.267 168 164 167
0.321562 0.154232 0.662 46 52 50
-0.138185 0.199689 1.094 11 17 17
0.0931998 0.195544 0.889 97 93 86
0.206145 0.067368 0.842 167 166 168
0.175526 0.187676 0.768 92 89 84
-0.462786 0.252882 1.583 0 6 4
-0.423386 -0.258717 1.409 7 10 11
-0.407944 -0.14138 1.452 1 7 5
-0.38961 -0.28958 1.403 11 12 8
0.087018 -0.658299 2.755 127 119 116
-0.506547 0.507929 1.65 29 37 24
-0.0475499 -0.823266 2.519 129 122 116
-1.00642 -0.450845 2.01 112 116 111
0.679946 -0.780817 3.04 87 84 81
0.180686 0.269071 0.802 54 56 47
-0.811042 -0.778443 2.037 130 130 124
-0.646845 -0.726332 2.107 128 126 118
0.791091 -1.09676 3.011 96 94 86
-0.0839672 -0.225247 1.491 198 194 195
-0.071204 -0.141606 1.302 193 189 190
0.418299 -0.153561 1.182 164 168 161
0.333727 -0.562841 2.793 112 106 108
0.801781 -1.14493 2.996 100 98 86
0.314583 0.0644565 0.745 189 199 202
-0.0287985 0.414889 1.066 23 18 14
-0.573389 0.516536 1.705 48 50 41
0.290599 0.229836 0.619 141 149 150
0.130877 0.0159481 0.964 172 167 165
-0.341308 -0.0558116 1.502 4 7 6
-0.402664 -0.827667 2.459 77 55 57
-0.237984 -0.172674 1.498 120 112 109
-0.11129 0.0101557 1.208 110 102 99
0.218504 0.277069 0.724 77 82 72
-0.888842 -0.567349 2.128 115 116 110
0.615796 -0.321436 1.487 166 169 170
0.160114 -0.158841 1.322 116 141 164
-0.235403 -0.110663 1.452 69 64 60
-0.817218 -0.648703 2.078 122 122 116
-0.961127 -0.394191 2.166 109 110 104
0.205386 0.00627122 0.925 55 54 58
-0.426535 -0.158682 1.459 3 6 5
0.26332 -0.751311 2.818 123 115 114
-0.232739 0.13918 1.354 10 10 4
-0.589346 0.580175 1.612 103 104 100
0.221769 -0.0960563 1.234 90 89 91
-0.0552539 -0.0614915 1.187 180 171 176
-0.553572 -0.694256 2.604 22 19 16
-0.143531 -0.0240527 1.249 142 138 141
0.852012 -0.506451 2.01 95 105 93
-0.831182 0.461126 1.887 111 112 106
0.339582 -0.0279768 0.964 69 62 73
0.394627 -0.165744 1.26 138 139 133
-0.870034 -0.663638 2.051 122 123 119
-0.0542277 0.283008 1.022 4 10 8
-0.103281 0.488059 1.254 13 11 1
-0.780534 0.499706 1.826 116 116 112
0.305553 -0.0980272 1.185 149 145 146
-0.96109 -0.403271 2.158 108 109 103
-0.984184 -0.69584 1.972 111 125 116
-0.75888 0.377185 2.085 103 101 91
-0.857517 -0.312324 2.236 106 103 98
0.290845 0.0645677 0.807 167 170 173
-0.945486 0.254649 2.365 92 89 84
-0.227579 0.165113 1.22 20 16 17
0.391555 -0.0608792 1.044 169 169 165
-0.399587 -0.17968 1.456 6 7 3
0.273609 0.201017 0.653 162 173 173
0.365217 0.0352363 0.896 98 99 93
-0.337267 -0.026939 1.528 4 8 3
0.307742 0.210336 0.615 148 159 159
0.695392 -0.241284 1.456 50 47 42
0.963837 -0.932432 2.911 33 22 15
-0.686509 -0.69733 2.092 126 126 122
-0.473071 -0.829769 2.43 54 60 58
0.256348 0.0585999 0.854 101 103 94
-0.0455232 0.0798692 1.137 75 70 68
0.0698533 0.00027363 1.012 183 177 179
0.157144 0.170689 0.776 152 155 154
-0.1934 0.0606537 1.372 6 11 16
0.191769 0.0199687 0.932 184 183 183
0.301897 0.0478712 0.861 27 27 29
0.139492 0.274085 0.813 82 89 81
0.976057 -0.719953 2.684 80 75 71
-0.565747 0.42971 1.724 48 45 40
-0.219519 0.231215 1.1 9 10 6
-0.111466 0.153634 1.149 3 6 7
-0.113651 -0.921556 2.53 147 142 138
-1.0031 -0.196669 2.204 103 103 99
0.265961 -0.12417 1.234 186 185 189
0.397033 -0.14704 1.176 146 147 138
0.000681488 0.238224 1.037 0 6 4
-0.777177 -0.64747 2.107 125 120 116
-0.659317 -0.694343 2.114 128 124 117
0.20938 -0.0207596 0.994 190 190 194
-0.141806 -0.822133 2.593 93 81 79
0.84872 -0.774006 2.939 41 27 21
0.424031 -0.0161949 1.012 31 31 33
0.597999 -0.232004 1.4 167 174 168
0.189654 0.000266059 0.984 185 181 184
-0.328355 0.024253 1.466 39 15 3
0.0519798 -0.12853 1.257 92 86 92
-0.233255 0.0732403 1.357 10 23 48
-0.115068 -0.070801 1.249 153 147 153
-0.397789 0.362901 1.591 0 4 2
-0.00843953 0.178361 1.128 31 31 27
1.03433 -0.611986 2.151 130 141 137
-0.939199 0.398243 2.071 108 108 108
-0.125534 -0.013701 1.232 102 93 96
-0.53018 -0.867114 2.402 16 19 22
-1.03779 -0.210665 2.128 103 103 97
-0.947468 -0.335455 2.151 110 108 100
-0.11169 0.347529 1.046 2 5 6
-0.971344 -0.743976 1.972 121 125 118
0.174114 0.283694 0.814 58 63 53
-0.315041 -0.100007 1.505 4 11 5
0.325996 0.0868977 0.692 187 197 200
0.193975 0.0427166 0.9 189 189 189
-0.211053 0.273549 1.112 7 10 11
-0.00389246 -0.245807 1.498 177 173 174
0.106991 -0.0555892 1.145 109 108 110
0.0896387 0.187309 0.927 87 84 79
-0.830211 0.203794 2.312 106 103 98
0.26147 0.110179 0.719 51 41 41
-0.712367 0.406846 1.966 105 100 96
0.950593 -0.844867 2.871 73 78 68
-0.549818 0.570093 1.659 67 76 69
-0.157989 0.346491 1.108 3 6 5
0.00737628 0.0337687 1.029 142 136 142
0.378029 0.0327583 0.741 135 124 90
-0.0165571 -0.160883 1.339 109 106 120
0.0221023 0.114019 1.013 85 81 74
-0.393333 0.595605 1.563 39 36 33
-0.783876 0.241621 2.244 93 91 81
1.28486 -0.82544 2.672 126 121 117
-1.03587 -0.053976 2.236 92 99 93
-0.0868443 0.331763 1.034 0 6 0
-0.0368794 0.0146179 1.1 146 140 142
-0.648446 0.509706 1.758 71 71 71
-0.268004 0.441047 1.354 11 14 13
0.185213 0.286268 0.799 62 64 55
1.36778 -0.91995 2.707 118 117 124
0.50142 -0.0729014 1.022 146 154 141
0.956665 -0.799992 2.78 72 81 74
-0.333091 0.0447571 1.435 43 18 11
-0.132667 0.500385 1.302 9 9 3
0.509686 -0.0786529 1.032 145 158 145
-0.498508 0.559294 1.659 43 56 43
-1.00015 -0.511461 2.004 112 114 105
-0.348196 -0.82893 2.499 66 65 72
-0.505428 -0.717958 3.248 23 24 20
-0.780606 -0.602896 2.107 119 118 118
-0.719988 0.512566 1.758 100 103 102
-0.905553 0.424494 2.004 111 112 108
0.312596 0.128867 0.659 55 55 55
-0.821491 0.476994 1.865 107 114 108
0.324474 0.11882 0.634 69 85 120
0.00781355 0.140424 1.09 56 56 52
0.0344394 0.347425 0.904 36 17 11
0.24975 0.0534136 0.86 31 30 32
-0.320308 0.012476 1.484 11 8 5
-0.00420088 0.320547 0.994 47 17 0
0.338268 -0.611961 2.831 125 121 114
0.041435 0.233444 1.002 6 9 12
-0.951429 -0.0326182 2.269 94 95 89
-0.395992 -0.0310558 1.487 2 5 4
0.10407 0.0878916 0.883 169 168 172
0.110996 -0.273124 1.571 191 185 187
-0.256198 0.165256 1.316 27 13 7
-0.802926 0.592922 1.583 95 109 100
0.142403 0.172255 0.807 142 142 144
-0.399004 -0.247779 1.412 6 10 5
-0.13135 0.167712 1.143 3 6 5
-0.857384 0.502627 1.794 104 111 105
0.159169 0.208703 0.786 67 68 59
-0.042925 0.13705 1.167 12 12 12
0.483322 -0.115369 1.205 160 164 157
-0.910353 -0.750394 1.972 119 126 120
0.284441 0.0678603 0.815 186 189 188
-0.504862 -0.111433 1.494 16 16 20
0.12734 0.0643127 0.875 186 182 183
-0.0904867 -0.141933 1.305 193 189 192
-0.380435 -0.733325 3.133 3 6 5
0.160911 0.112449 0.821 169 169 169
-0.0741035 -0.490272 2.743 123 113 113
-0.83948 0.0340988 2.286 96 97 86
0.553838 -0.918836 2.898 122 117 115
0.148403 0.0946596 0.841 141 137 140
-0.187739 0.166144 1.158 6 10 5
0.24959 0.0769343 0.827 197 200 201
0.312239 0.208995 0.614 145 159 163
0.740849 -0.998814 3.026 97 93 86
0.206392 0.228529 0.727 68 75 69
-0.158928 0.204736 1.102 11 17 19
0.0513755 0.190466 0.974 88 81 75
0.266402 -1.01248 2.755 139 134 130
0.160578 0.0126777 0.954 198 194 197
0.272919 0.100657 0.686 58 77 106
0.404662 -0.0310473 1.013 169 173 168
0.194275 0.27368 0.778 69 71 62
0.283224 0.0821098 0.709 190 198 199
-0.0332982 0.0504191 1.1 93 87 89
0.187985 -0.298061 1.595 174 172 164
0.282369 -0.0260519 0.951 11 14 13
-0.462852 -0.254859 1.439 18 13 21
-0.256355 -0.097005 1.535 38 37 44
0.257857 0.13123 0.732 100 96 99
-0.681973 -0.771395 2.099 131 132 123
0.399897 -0.0934774 1.13 128 129 125
-0.1126 0.129317 1.201 4 12 11
0.387835 -0.0665551 1.081 174 173 173
0.525 -0.998906 2.844 134 134 128
-0.19033 0.0959554 1.366 3 11 12
0.104234 0.034268 0.95 188 184 187
0.47943 -1.07581 2.768 127 128 119
-0.854994 -0.169195 2.22 103 101 93
-0.531728 -0.849279 2.374 13 14 10
0.265637 -0.150914 1.291 186 185 187
-0.495134 -0.0798266 1.494 9 10 6
-1.03093 -0.230681 2.121 102 103 99
0.205844 -0.0396849 1.068 119 121 129
0.225558 0.266651 0.688 75 79 72
0.147151 -0.00777973 0.989 175 171 172
0.108056 0.249188 0.836 102 102 98
0.325932 -0.786012 2.844 123 115 112
-0.857413 -0.576434 2.136 117 114 109
0.383293 0.0102458 0.771 92 87 65
-0.943944 -0.41093 2.143 112 112 108
0.224127 -0.136525 1.294 143 137 141
0.0626794 0.100137 0.93 141 140 142
1.15379 -0.920365 3.011 73 59 51
0.293987 0.0443779 0.875 43 35 51
0.0186373 0.0590896 1.004 159 154 152
-0.168368 0.0110637 1.316 85 81 72
-0.380612 0.336167 1.563 0 3 4
-1.01006 0.417239 1.985 106 106 102
-0.494309 -0.175061 1.477 15 11 14
-0.332292 0.592214 1.528 27 34 28
0.228239 -0.121592 1.27 95 94 96
0.0824481 0.289625 0.931 65 66 55
-0.829954 -0.567349 2.128 118 119 108
-0.476039 -0.129656 1.48 8 9 5
0.0475899 -0.0776577 1.198 113 109 114
-1.06706 -0.362193 2.064 103 110 104
-1.03604 -0.472327 2.004 105 113 110
0.030468 -0.245156 1.509 196 190 192
-0.684212 -0.779822 2.085 134 129 125
-0.231311 -0.134662 1.456 130 121 124
0.853885 -0.676232 2.755 21 16 14
0.269284 0.0968925 0.691 79 86 110
-0.226541 0.183542 1.126 9 16 10
-0.0677422 0.246571 1.051 5 12 4
0.144073 0.24114 0.809 63 67 62
-0.572014 -0.569062 2.244 121 117 110
0.966476 -0.76367 2.731 67 67 63
-0.122913 -0.0862541 1.267 175 171 174
-0.815578 0.243451 2.261 93 89 82
-0.510845 0.56098 1.664 60 62 53
0.389066 -0.0136634 0.775 58 47 51
0.272779 0.210426 0.646 161 174 171
-1.05985 -0.15098 2.166 98 102 97
-0.0177922 0.17454 1.139 7 10 9
0.0213821 0.145047 1.059 70 66 59
-0.186845 0.230252 1.087 8 11 10
0.261417 -0.0043718 0.948 7 10 11
-0.820836 0.498273 1.81 111 111 111
-0.0904558 0.228133 1.077 3 6 5
-0.555104 0.432027 1.7 42 40 32
0.105249 0.154377 0.869 108 105 100
0.198972 0.233503 0.739 71 75 68
0.260927 -0.0520957 0.975 28 30 38
1.28489 -0.884785 2.805 90 83 94
-0.80241 0.544366 1.714 108 112 107
0.287262 -0.162033 1.313 189 188 190
0.261851 -0.00742575 0.944 9 9 9
-0.537142 -0.881633 2.347 7 13 15
-0.961723 -0.357448 2.136 110 111 102
1.15461 -1.0961 2.844 106 107 98
-0.950346 -0.547828 2.03 114 118 111
0.0851239 -0.244469 1.52 202 198 199
-0.136008 0.150344 1.167 12 11 13
0.327422 -0.798903 2.857 124 116 113
0.954897 -0.989489 2.884 75 55 35
-0.0468044 0.125871 1.169 19 15 18
0.955541 -1.00816 2.844 42 36 23
-0.67514 -0.692832 2.099 129 122 116
-0.36599 -0.175971 1.445 6 9 10
0.0846105 0.23091 0.875 98 88 86
-0.990723 -0.557114 1.947 110 117 109
-0.366536 -0.109344 1.466 4 7 6
-0.449244 0.000402063 1.487 4 7 6
-0.469115 -0.817906 2.43 56 62 60
0.297744 0.178727 0.657 148 159 157
-0.9041 -0.254018 2.173 105 103 93
-0.173175 0.242604 1.079 6 9 10
-0.384308 -0.174461 1.452 4 11 5
-0.589587 0.373938 1.779 82 84 75
0.0895853 0.209288 0.868 133 139 141
-1.16615 0.288673 2.329 105 106 102
0.856845 -1.07364 3.071 80 71 66
-0.348711 -0.281583 1.432 81 74 64
-0.599956 0.473697 1.784 57 52 48
0.854141 -1.16624 3.026 103 94 89
-0.105916 -0.118939 1.286 190 189 193
-1.03579 -0.0501572 2.228 94 98 91
0.100034 -0.717924 2.743 130 122 119
-0.447066 0.472304 1.629 2 6 1
0.522962 -0.185473 1.283 182 189 181
0.209963 0.0812654 0.83 196 196 196
-0.564952 -0.497726 2.32 115 111 102
-0.222837 -0.106808 1.432 82 72 70
0.299199 -0.86861 2.768 112 107 105
-0.619144 0.568397 1.686 79 81 70
-0.264569 0.13306 1.359 8 17 29
0.199279 0.276411 0.768 71 76 64
-0.850424 0.462966 1.882 109 117 114
0.179047 0.0666248 0.85 153 149 152
0.731526 -0.400275 1.62 158 159 153
0.263634 -0.0977207 1.205 146 139 148
0.0229053 -0.897659 2.604 124 116 113
-0.660032 -0.52984 2.173 118 116 108
0.164322 -0.0689265 1.182 97 96 96
0.226419 0.000251729 0.931 13 14 10
0.181304 0.199653 0.766 69 70 66
-0.365037 0.568865 1.595 32 34 21
0.341158 -0.104398 1.149 191 190 190
0.824015 -0.978127 3.117 104 102 94
0.21008 0.108796 0.785 182 181 183
0.000961444 -0.221017 1.463 199 193 197
-0.770317 -0.609753 2.107 120 115 111
0.280066 0.241989 0.627 80 91 89
-0.351042 -0.276923 1.432 74 63 56
0.220289 -0.112433 1.26 86 83 80
0.631321 -0.234484 1.429 144 145 139
0.0756974 -0.725431 2.672 130 123 117
-0.335479 -0.103651 1.487 4 8 3
0.673179 -0.237766 1.449 31 39 36
-0.246165 -0.803699 2.672 4 10 12
0.140038 -0.220131 1.473 206 200 204
-0.458664 -0.187686 1.463 4 10 8
-0.971344 -0.760022 1.972 115 121 119
0.325843 0.0378821 0.925 185 188 189
0.0415746 0.326336 0.932 59 25 5
1.15379 -1.15066 3.011 86 79 71
0.0816546 -0.0296131 1.081 126 125 129
0.260256 -0.16742 1.339 193 192 194
-0.541301 -0.743664 2.253 89 87 75
0.326029 -0.738716 2.805 121 113 110
-0.979654 -0.447676 2.071 110 111 105
-0.954064 -0.280359 2.158 103 103 97
-0.825773 -0.0952388 2.181 97 95 87
0.307591 -0.0155548 0.972 9 10 6
-0.542548 -0.630267 2.228 121 114 108
0.256437 -0.858274 2.793 139 135 128
0.0318066 0.275577 1.007 4 4 6
-0.993903 -0.532454 1.985 114 117 118
0.0856362 0.0285867 0.967 195 191 192
-0.984184 -0.699049 1.972 114 127 122
-0.480664 0.337011 1.591 1 7 5
0.32594 0.111089 0.643 189 196 200
0.496402 -0.102658 1.194 144 153 144
-0.467187 0.416238 1.607 4 4 4
0.282708 0.104203 0.68 69 82 107
0.123173 0.167761 0.837 125 122 119
-0.955657 0.193623 2.42 103 103 97
-0.541605 -0.542676 3.181 52 52 48
-0.2617 -0.0148765 1.567 15 16 12
-1.06367 -0.353236 2.051 107 111 104
0.924289 -0.99834 3.165 62 60 52
0.173481 -0.0442543 1.141 105 108 111
-0.467715 0.388792 1.591 2 5 4
0.208624 0.0951332 0.799 183 183 185
-1.04887 0.270765 2.338 87 95 84
0.223029 0.135621 0.743 172 175 176
-0.0808865 0.265316 1.044 6 10 5
-0.146611 0.493929 1.313 6 7 3
-0.659822 0.576566 1.624 107 108 102
0.332662 0.150378 0.65 55 54 56
0.37239 -0.133186 1.189 157 158 154
0.146307 -0.0940324 1.208 94 94 94
0.253426 -0.0285034 0.93 35 39 32
-0.254706 0.434954 1.342 8 11 10
-0.174536 0.200803 1.11 7 11 4
0.0995965 -0.603678 2.731 123 116 110
0.308739 0.138381 0.674 53 56 55
-0.459401 -0.105072 1.473 3 7 2
-0.0499884 -0.237379 1.491 196 192 193
0.209105 -0.0691014 1.185 91 91 93
0.214623 0.0619606 0.843 182 178 179
-0.451287 -0.0928973 1.47 3 7 2
0.320217 -0.945229 2.755 140 131 126
-0.00458547 -0.00853489 1.085 179 173 175
-0.848582 -0.611779 2.114 119 117 109
0.204916 0.0433958 0.884 171 171 171
-0.828802 -0.141897 2.189 101 99 89
-1.04819 -0.275552 2.121 106 106 100
0.891885 -0.708502 2.707 51 50 52
-0.0315314 -0.841697 2.55 142 137 133
-0.993814 -0.532176 1.972 110 118 117
0.245229 0.123144 0.748 143 143 139
0.187783 0.211912 0.752 79 80 76
-0.700272 -0.593864 2.269 117 114 111
0.0537222 0.255907 0.988 46 43 40
0.210257 -0.0332445 1.03 195 194 196
0.0976231 -0.108543 1.239 99 98 100
-0.361093 -0.112263 1.473 4 8 3
0.0510857 -0.148237 1.286 146 135 141
-0.960903 -0.603918 1.997 114 117 116
0.317639 0.0219003 0.95 174 177 178
0.255062 -0.0578134 1.116 151 153 159
0.283997 0.0686548 0.738 192 198 200
0.277081 -0.636666 2.818 114 106 103
-0.0744817 0.395901 1.1 5 6 2
0.301245 0.227979 0.614 151 164 161
0.291829 0.174964 0.663 141 154 151
-0.802292 -0.608817 2.092 123 118 114
-1.14024 0.00760704 2.158 96 100 93
0.850984 -0.883026 3.086 81 82 69
0.337008 -0.10673 1.154 190 190 190
-0.118946 0.257127 1.081 1 8 2
-0.19495 0.173596 1.145 5 5 5
0.59543 -0.340926 1.509 192 195 196
0.130558 -0.741957 2.638 130 122 121
-0.58652 -0.719436 3.117 25 26 22
0.591543 -0.157399 1.31 146 154 143
1.26015 -0.960532 2.939 96 94 84
0.934592 -0.957136 3.165 65 56 51
0.676984 -0.37953 1.567 177 182 172
-0.0831333 0.197602 1.073 9 12 15
0.251967 -0.0808079 1.187 84 83 83
-0.131021 0.207486 1.079 9 16 10
0.12798 -0.724467 2.768 129 122 114
0.141273 0.0158819 0.96 195 191 192
0.167674 0.0985861 0.828 182 182 182
0.0753574 -0.839047 2.66 135 130 126
-0.0844538 -0.917549 2.519 145 143 135
-0.0659415 -0.152617 1.324 183 182 184
0.218924 0.200389 0.699 145 145 141
-0.00144333 -0.236742 1.487 190 186 187
-0.841111 -0.33057 2.212 108 108 102
0.288435 0.0757041 0.725 189 196 200
0.936278 -0.500062 1.853 176 184 181
0.483077 -0.67832 2.898 101 97 90
0.195896 0.197938 0.732 104 95 90
-1.09917 0.0670769 2.269 97 99 90
0.332519 0.09535 0.68 187 197 200
-0.975167 -0.752059 1.935 105 112 104
0.96425 -0.862244 2.898 52 56 51
0.406621 -0.130575 1.149 148 153 141
-1.05208 0.373728 2.143 107 110 109
0.178535 -0.960591 2.649 139 134 130
-0.101814 0.138949 1.167 11 11 11
0.297171 0.22343 0.618 157 168 168
-0.670528 0.541507 1.705 89 94 84
0.192787 -0.649198 2.793 119 114 110
-0.796151 -0.351486 2.121 110 107 104
0.248688 0.0761369 0.833 197 200 201
0.0872181 -0.909517 2.626 122 114 111
-1.05755 0.0332336 2.228 96 98 87
-0.316113 -0.773205 2.831 9 15 15
0.0553835 -0.57062 2.743 103 93 93
0.453981 -0.0440605 1.009 187 190 189
-0.00275175 0.0950701 1.059 77 71 73
0.558998 -0.994036 2.925 123 118 114
0.0702823 0.299266 0.892 156 159 158
-1.10215 0.236523 2.338 98 104 102
-0.470266 -0.0813218 1.477 4 7 6
0.491757 -0.0621222 1.009 173 184 180
-0.410307 -0.068131 1.452 4 8 3
1.09987 -1.06246 3.011 71 68 63
0.03703 0.117313 0.972 95 90 86
0.119551 0.157918 0.85 120 118 108
0.203464 0.218461 0.725 77 78 67
-0.124118 0.17469 1.128 8 16 13
0.941307 -1.02207 2.857 29 27 15
0.263666 -0.0443414 0.945 21 24 23
-0.8952 0.457877 1.899 113 113 109
-0.793254 0.478273 1.87 110 114 109
0.147046 -0.0874054 1.198 94 94 94
-0.391789 0.265626 1.567 2 6 1
-0.593751 -0.608292 2.793 29 31 22
0.117444 0.214279 0.807 101 98 95
1.27484 -0.853729 2.793 63 62 64
-0.963554 -0.62811 2.044 114 117 116
0.0551412 -0.692562 2.731 130 122 119
-0.155381 0.0404529 1.297 85 79 81
-0.632823 -0.537304 2.189 120 116 109
-0.657134 -0.729761 2.107 127 125 117
0.944883 -1.00349 2.911 72 49 30
0.936188 -0.722904 2.695 72 78 80
-0.210372 0.278663 1.118 8 11 12
0.616134 -0.979756 2.925 118 111 105
0.362743 -0.00287385 0.963 22 25 26
-0.719124 -0.34436 2.078 109 105 96
-0.597668 -0.450101 3.149 55 52 49
-0.398729 -0.913521 2.411 62 65 66
-1.02872 -0.707192 1.959 119 125 123
-0.873805 -0.632647 2.092 123 119 110
-0.17323 0.0995192 1.354 1 7 9
-0.881643 -0.69772 2.024 125 122 119
-0.214556 -0.067521 1.439 69 68 68
0.317324 0.185997 0.624 157 167 170
0.697041 -0.233134 1.435 46 43 38
0.776627 -0.354546 1.547 158 169 165
0.12798 -0.656901 2.768 127 120 114
-1.03851 -0.169149 2.173 102 103 97
0.30924 0.210993 0.614 144 155 155
0.0713593 0.00191669 1.01 166 160 162
-0.94301 -0.367176 2.173 105 106 100
0.492597 -0.840195 2.871 115 110 106
-0.793821 -0.485651 2.181 111 112 103
0.352695 -0.0881165 1.132 189 188 188
-0.0271648 0.21098 1.07 11 15 8
0.29853 0.142996 0.691 48 51 52
0.479419 -0.133569 1.21 142 148 146
0.608446 -0.780843 2.911 106 102 95
0.018693 0.0805696 1.007 107 102 98
0.380897 -0.262941 1.432 191 190 190
-0.451287 -0.0952895 1.47 4 8 3
-0.291396 -0.605696 3.055 15 16 12
-0.273418 0.0645021 1.359 14 20 31
-0.96494 -0.61793 1.959 119 120 116
-0.432387 0.175728 1.539 4 4 4
-0.0116982 -0.548794 2.768 141 134 126
-0.139285 0.252201 1.075 4 7 6
0.153402 0.323427 0.831 46 49 52
-0.922343 -0.288447 2.166 110 103 93
0.470073 -0.253045 1.366 152 153 149
0.32601 -0.0450922 0.961 27 27 29
-0.380103 -0.0936689 1.445 2 9 3
0.318033 0.0812986 0.712 188 199 199
-0.156896 -0.0307779 1.275 134 125 128
0.243481 0.0843815 0.739 124 130 159
-0.222486 -0.861443 2.649 6 12 12
0.0597158 0.10479 0.931 150 144 146
0.246748 0.160114 0.707 142 149 143
-0.386672 -0.162646 1.452 6 9 8
0.34491 0.085991 0.703 185 197 199
0.618688 -0.134107 1.291 151 163 155
0.164724 0.156738 0.782 151 155 150
0.18432 0.186454 0.763 86 87 83
-0.334648 -0.939025 2.489 77 76 76
0.0970129 0.276557 0.801 89 95 93
0.442114 -0.0642155 1.043 181 184 183
0.298603 0.150892 0.686 71 76 64
-0.461347 0.0197608 1.487 4 8 3
0.257935 0.230064 0.651 111 118 110
0.395522 -0.0210515 0.817 125 133 122
-0.921003 0.479808 1.876 109 113 106
-0.210597 -0.191663 1.494 167 166 168
0.0231278 0.165884 1.06 52 51 51
0.522091 -0.332677 1.539 156 161 151
-0.915377 -0.116248 2.244 106 110 103
1.25535 -0.998875 2.884 75 66 59
0.151925 0.120759 0.823 153 152 156
-0.975906 -0.312484 2.114 105 110 100
0.109338 -0.0395103 1.112 116 115 117
0.607099 -0.273955 1.466 71 66 64
0.189938 0.109162 0.797 177 176 178
0.324717 0.0743561 0.735 188 198 201
-0.151379 0.0295309 1.281 95 88 82
-0.594204 0.58777 1.583 100 103 104
-0.257636 0.363802 1.291 5 16 14
0.0805471 0.290604 0.862 115 118 102
-0.372446 0.149724 1.48 1 4 3
-0.678443 0.56163 1.65 109 110 104
1.30772 -0.88022 2.805 93 80 84
-0.970036 -0.0216264 2.278 89 89 83
-0.869757 0.355273 2.158 101 99 91
-0.0667345 0.110238 1.185 33 32 32
0.213785 -0.0352258 1.039 195 194 196
0.141521 0.179018 0.802 154 155 151
0.281882 0.241071 0.622 92 99 93
-0.181255 0.289232 1.096 3 6 7
0.576192 -0.327154 1.491 193 193 195
-0.174002 0.344176 1.13 3 4 0
-0.103168 -0.0173226 1.205 132 127 123
0.382553 0.012689 0.767 94 89 69
1.28758 -1.06805 2.831 119 115 104
-0.513029 0.306711 1.595 8 13 3
0.503538 -0.345585 1.575 163 167 160
0.0801353 0.298632 0.815 99 99 93
-0.967783 0.327116 2.181 95 96 90
0.110014 0.150328 0.862 109 108 110
0.227804 0.067288 0.841 170 167 164
-0.95498 -0.672206 1.978 114 123 116
-0.468812 -0.112797 1.48 8 9 3
0.299915 0.101428 0.669 180 191 191
-0.119973 0.296701 1.059 0 6 6
-0.728514 -0.599103 2.22 117 114 109
0.0358854 0.093141 0.984 100 95 91
0.144685 -0.601866 2.743 120 113 107
0.395482 -0.00615158 0.986 166 166 168
-0.620874 -0.697215 3.086 27 27 21
-0.847127 0.419761 1.997 107 110 109
-0.10824 -0.508263 2.818 123 115 112
0.291293 0.209338 0.627 151 161 164
1.17707 -1.09823 2.911 107 103 92
-0.700419 0.486099 1.842 90 91 82
0.192209 -0.293984 1.587 190 187 182
-0.142941 -0.544794 2.967 79 75 68
0.294207 0.191807 0.64 160 168 167
0.232758 0.11568 0.763 145 141 144
-0.283542 -0.120421 1.547 11 17 15
-0.0445222 0.0364925 1.112 89 81 80
-0.310966 0.575028 1.509 30 32 23
-0.995677 0.281703 2.303 91 91 85
-0.073521 0.27677 1.036 5 12 6
0.330719 -0.153963 1.299 169 169 169
0.256481 0.247692 0.65 91 103 95
0.460567 -0.847613 2.818 120 115 111
0.450536 -0.620608 2.871 109 103 105
0.0405493 -0.74074 2.649 135 126 121
-0.0321951 -0.0271328 1.124 170 164 170
0.230222 0.0047814 0.928 17 21 16
0.0771077 0.296145 0.887 129 127 119
0.236765 -0.147054 1.294 189 188 190
0.513348 -0.0789578 1.036 144 157 144
-1.02625 -0.456021 2.004 107 115 116
-0.493493 0.585905 1.599 84 84 78
-1.03914 -0.519533 1.985 107 118 114
-0.469115 -0.865358 2.43 50 57 63
0.271141 0.102367 0.69 59 73 95
-0.670438 0.531967 1.719 81 81 81
0.353022 0.0330905 0.808 139 150 148
0.203549 0.137994 0.756 157 157 157
-0.55159 -0.645929 2.499 15 15 15
0.119132 -0.109935 1.232 79 75 76
0.620637 -0.321436 1.487 155 158 157
-1.0034 0.331879 2.189 103 105 96
0.486981 -0.335321 1.563 178 179 175
-0.98973 -0.499913 2.078 116 116 116
-0.999735 -0.219461 2.181 104 104 100
-0.407123 0.589255 1.587 32 37 27
-0.198006 0.252173 1.09 5 12 6
-1.0333 -0.310753 2.057 105 108 109
-0.11169 0.349231 1.046 2 5 6
-0.88029 -0.140294 2.22 99 99 95
-0.696234 0.542686 1.7 103 104 93
0.253882 0.19761 0.674 152 161 152
0.277326 -0.135842 1.249 193 192 192
-0.468802 0.524198 1.659 0 6 4
-0.470305 0.3396 1.591 0 6 4
0.241 0.205203 0.681 145 153 150
-0.913436 0.401073 2.051 105 107 98
0.207393 0.264771 0.739 68 68 62
-0.137995 -0.142809 1.333 186 182 185
-0.230199 -0.0892122 1.449 69 65 58
-0.835518 -0.720776 2.024 124 125 119
-0.369925 -0.192032 1.442 7 14 6
-1.14661 0.341326 2.204 101 105 98
-0.0660342 0.212754 1.079 6 9 8
0.319666 -0.0839847 1.126 162 159 154
0.140488 0.0363375 0.924 194 193 195
0.0595867 -0.625899 2.731 128 120 117
-0.704199 -0.368911 2.064 109 109 103
-0.422619 0.0915086 1.513 3 6 5
-0.503809 0.429314 1.607 3 7 2
-0.305242 0.573503 1.505 30 32 21
-0.440385 -0.519555 3.198 49 47 39
-0.278841 -0.0402736 1.563 12 11 11
-0.159123 0.272454 1.079 6 6 6
-0.37017 -0.276133 1.416 9 12 13
-0.744386 -0.475471 2.151 115 110 108
0.264534 -0.676459 2.831 121 113 110
-0.00278552 0.110193 1.072 75 70 68
-1.01792 0.288068 2.294 93 95 86
0.937084 -0.494125 1.831 176 182 180
0.420855 -0.886627 2.768 117 105 105
-0.432601 0.227376 1.567 5 5 5
0.366702 -0.180354 1.322 196 192 193
-0.379367 0.429542 1.579 0 5 3
0.207897 0.225229 0.724 72 74 65
0.617923 -0.78558 2.911 104 100 93
0.235797 -0.682524 2.818 123 114 109
-0.458349 -0.261655 1.425 20 19 21
0.293258 -0.132738 1.239 191 190 192
0.521067 -0.116138 1.234 129 138 120
0.884901 -1.01363 3.117 84 82 72
-0.0260273 -0.0685766 1.176 192 186 188
0.100673 0.261563 0.799 111 107 100
0.878514 -0.729587 2.805 43 27 20
0.0935489 -0.0433622 1.118 114 114 118
0.47672 -0.0504277 1.005 183 186 185
0.348189 0.035433 0.901 137 135 144
0.62381 -0.182921 1.357 147 159 151
0.102736 0.238589 0.837 101 98 93
-0.0483659 -0.0861692 1.208 192 188 191
0.139431 0.00185976 0.98 186 180 182
0.317129 0.13957 0.664 58 64 62
-0.795037 -0.726216 2.03 125 125 125
0.0203726 0.300754 1.009 10 10 4
-0.864594 -0.442683 2.128 113 111 101
0.0469062 0.180475 0.98 86 75 66
0.88184 -1.13861 3.071 97 93 82
-0.735474 -0.521084 2.166 116 112 101
-0.0324809 0.209825 1.073 15 15 17
0.0402682 -0.0169151 1.057 185 181 184
0.24836 0.211069 0.668 130 133 134
-0.223168 0.173382 1.156 10 10 10
0.831158 -0.738209 2.911 22 15 9
0.216126 -0.847373 2.743 118 109 112
0.427695 -0.331914 1.524 155 157 141
-0.463427 -0.0686471 1.463 6 6 6
0.240901 0.0912038 0.717 57 75 102
0.307487 0.0862674 0.696 190 198 199
-0.475216 -0.0665834 1.47 5 11 11
0.265411 -0.139089 1.26 194 193 195
-0.399607 -0.222075 1.439 4 8 1
0.470419 -1.07131 2.768 133 129 122
0.183183 0.0961818 0.819 184 183 183
-0.919469 0.263156 2.338 92 90 80
-1.12622 0.146211 2.294 105 110 98
-0.641636 0.567394 1.659 95 96 92
-0.385627 -0.24722 1.422 9 9 13
-0.49749 0.0842889 1.516 13 18 23
-0.133762 0.361151 1.087 6 5 7
0.119279 0.231209 0.793 122 121 121
0.175574 0.322829 0.84 35 39 32
-0.544835 0.599679 1.567 81 83 74
-0.412671 -0.087034 1.452 1 8 2
-0.555971 -0.739998 2.253 122 119 114
0.274877 -0.0664144 1.108 147 146 157
-0.440731 0.0793549 1.516 3 7 2
0.329405 0.0462002 0.856 27 29 35
0.608446 -0.989278 2.911 121 117 110
-0.442804 0.224826 1.567 2 5 4
0.141356 0.071988 0.848 175 171 174
-0.0510756 0.176083 1.137 2 8 6
-0.402691 -0.749474 2.561 38 30 29
-0.450981 0.41007 1.624 0 5 3
0.121262 0.201814 0.815 144 144 144
0.393002 -0.830333 2.731 129 119 119
0.282275 0.0492724 0.861 26 26 30
0.211625 0.040702 0.888 173 176 175
0.110941 0.0524198 0.916 190 189 191
-0.45913 -0.789506 2.44 31 31 33
0.327234 0.0158819 0.96 151 157 157
-0.662462 -0.656013 2.181 125 123 115
0.120082 0.203389 0.816 144 144 146
0.204144 0.119067 0.777 184 183 185
0.0264884 0.363904 0.935 23 19 12
-0.137791 0.342055 1.077 4 4 4
0.331736 0.0112419 0.964 144 147 148
-1.0909 0.391503 2.071 98 105 97
0.0958908 0.270075 0.825 113 114 103
0.294456 0.130816 0.692 62 61 61
-0.18187 0.214726 1.089 10 9 11
0.384247 -0.0141743 0.986 86 81 77
-0.303868 -0.161498 1.463 23 23 23
-1.02582 -0.601391 1.978 112 120 109
-0.389512 -0.124238 1.445 8 9 5
-0.0203677 0.0371654 1.079 125 117 116
-0.161084 -0.818088 2.78 42 38 31
-0.149784 0.22596 1.075 10 10 12
0.112558 0.145781 0.86 112 109 106
0.369473 0.0196411 0.852 58 58 52
-0.115891 0.124892 1.215 6 9 8
0.17692 0.13151 0.791 169 169 171
-0.132777 0.258407 1.079 3 6 5
-0.438078 -0.286842 1.412 7 15 12
0.403919 -0.193824 1.283 143 140 135
0.300537 0.205619 0.625 155 170 169
-0.676858 0.533209 1.714 80 81 75
-0.135182 0.00642501 1.247 95 91 84
0.322504 -0.180477 1.372 155 155 157
0.162286 0.0728488 0.842 168 164 169
-0.677523 0.596563 1.579 106 110 103
-0.0674666 -0.0620614 1.198 144 137 146
0.0441172 0.195008 0.989 57 48 55
-0.0520189 0.156722 1.158 1 7 5
0.396821 -0.11996 1.137 141 145 140
0.291538 0.224515 0.621 144 156 148
-0.0663403 0.0942512 1.178 60 52 49
-0.777883 -0.718776 2.037 126 127 118
0.246049 0.0967671 0.715 75 83 82
-0.150904 -0.619399 2.844 47 46 48
0.134509 0.167634 0.823 128 128 128
-0.042925 0.138949 1.167 12 12 12
0.508911 -0.928477 2.884 113 102 97
0.212942 -0.149554 1.316 133 127 133
-0.251455 0.172836 1.165 8 16 17
-0.298481 -0.67381 3.026 7 10 11
0.199375 0.248735 0.745 76 77 68
0.0970006 -0.169979 1.342 104 99 111
0.400711 -0.00782693 0.995 136 142 140
-0.868058 -0.189887 2.128 103 101 91
-0.970813 -0.178736 2.204 98 99 88
1.26685 -1.09181 2.857 105 109 104
-0.942453 -0.734349 1.972 119 125 123
0.28231 0.125673 0.701 59 63 58
0.029633 0.179012 1.046 38 37 37
0.286737 0.118691 0.687 55 55 49
0.0754826 0.293347 0.958 80 80 74
-0.781053 0.551443 1.71 101 112 108
-0.389158 0.521498 1.642 0 8 7
-0.0299332 0.0724228 1.108 74 66 63
-0.0612992 0.279923 1.029 6 9 8
0.308106 -0.0276865 0.954 9 13 8
-0.294601 -0.0972578 1.539 9 16 8
-0.525768 0.596097 1.571 82 83 79
0.298764 -0.209904 1.452 165 168 169
-0.803847 0.399704 2.044 102 103 97
0.24758 0.229989 0.663 99 108 101
0.115831 -0.872016 2.695 137 129 126
0.506623 -0.756039 2.925 112 108 101
0.381049 -0.191834 1.327 193 193 193
-0.149031 -0.932669 2.572 81 72 75
0.351707 -0.152067 1.283 193 193 195
-0.440785 -0.170553 1.459 2 8 6
-0.836004 0.572305 1.612 96 107 105
-0.993113 -0.432282 2.078 106 111 101
0.202321 -0.0425089 1.096 111 110 117
0.194621 -0.0886457 1.215 91 87 90
-0.070256 0.193638 1.09 5 13 10
-1.07815 0.15428 2.303 129 135 133
0.506287 -0.0372325 1.002 185 191 189
-0.0356323 -0.111005 1.244 191 190 192
-0.440891 -0.852198 2.449 35 38 39
-0.73748 0.419853 1.923 97 98 89
0.438492 -0.721975 2.884 115 108 100
1.2796 -0.924856 2.844 121 118 113
-1.01296 -0.63358 1.929 116 124 121
0.0398039 0.200833 1.002 16 16 16
-0.0338129 0.388404 1.06 21 14 6
0.308612 0.0378002 0.923 186 189 188
-0.0874758 0.0846459 1.205 77 69 68
0.0401117 0.314386 0.97 41 12 0
-0.893228 -0.26915 2.181 107 100 94
-0.960227 -0.528323 2.044 112 113 109
-0.246861 0.327796 1.227 9 12 13
0.392482 -0.167455 1.273 143 150 144
-0.720805 0.534764 1.719 100 107 99
0.752981 -0.841173 3.117 90 83 75
0.301647 0.0276112 0.934 176 179 178
-0.736143 0.602229 1.567 103 110 104
0.331879 -0.0107762 0.969 24 31 37
0.724743 -0.380499 1.571 163 167 162
0.473642 -0.758492 2.898 113 108 106
0.392982 -0.0949789 1.126 135 136 132
0.290964 -0.856638 2.911 128 118 118
-0.0410989 0.214462 1.07 11 14 13
-0.662793 0.501226 1.789 65 69 62
-0.225634 -0.58788 3.04 13 13 17
0.241854 -0.53257 2.731 116 106 106
-0.671723 -0.692832 2.099 127 123 114
0.179277 0.191425 0.768 77 74 69
0.0705279 0.135599 0.914 97 87 85
0.201854 0.177687 0.732 143 149 151
-0.160901 -0.987026 2.561 36 36 36
-0.469111 0.119141 1.52 5 6 0
-0.0114912 -0.654121 2.719 130 122 119
-0.34688 -0.096197 1.484 2 9 3
0.133989 -0.240881 1.513 200 196 199
1.30511 -0.999047 2.78 124 98 96
-0.75472 -0.641417 2.121 126 121 117
0.119728 -0.824779 2.684 117 107 107
0.345097 0.0376522 0.767 125 107 96
-0.777643 -0.221457 2.099 101 99 89
-0.932021 0.205437 2.42 107 105 97
-1.05877 -0.300382 2.01 103 106 90
1.01982 -0.768114 2.731 110 109 109
0.223473 0.0799147 0.83 196 196 196
0.0797583 0.210227 0.935 85 77 74
0.0289787 -0.483314 2.78 111 102 107
0.00621285 -0.601025 2.719 128 120 117
0.366133 0.028802 0.764 93 84 67
-0.372272 -0.215498 1.442 7 15 12
0.103443 -0.961223 2.604 145 137 134
0.673889 -0.319017 1.487 166 171 161
0.480162 -0.161404 1.227 161 161 161
0.429094 -0.167057 1.196 193 192 192
0.243191 0.105586 0.753 137 137 133
-0.427292 -0.240278 1.422 6 9 8
0.256209 0.247394 0.652 86 97 93
-0.254485 0.244443 1.128 1 4 3
0.435903 -0.716048 2.898 114 107 101
0.31127 0.13756 0.67 62 62 58
0.303969 0.171 0.652 148 159 159
0.0478986 0.315888 0.937 41 19 11
-0.221831 -0.146509 1.456 150 144 148
0.112885 0.310746 0.812 110 118 119
0.235918 -0.058456 1.165 97 96 96
-0.967213 0.489134 1.865 100 107 101
-0.275701 -0.957304 2.582 18 37 66
-0.940145 -0.556833 2.051 116 117 113
-1.03726 -0.32285 2.092 100 108 105
0.111158 0.173771 0.86 109 109 103
1.26015 -0.955749 2.939 92 93 84
0.212823 0.192872 0.709 114 108 110
-0.160771 0.0886959 1.324 14 10 13
-0.797432 -0.184251 2.143 102 98 91
-0.783813 0.557422 1.686 97 109 99
-0.0541238 -0.14128 1.299 186 185 187
-0.097346 0.15573 1.137 15 21 19
0.726072 -0.668886 3.026 70 64 68
0.176404 0.162436 0.761 127 124 121
0.24256 0.252 0.667 123 126 125
0.288113 0.149049 0.693 84 85 74
0.444993 -0.220622 1.281 172 174 165
-0.906161 -0.501553 2.128 115 115 109
0.832013 -0.799888 2.982 51 38 27
0.915253 -1.02277 2.953 61 53 39
-0.169637 -0.172439 1.416 183 179 184
0.202152 0.272295 0.76 65 73 62
-0.83817 0.462966 1.882 111 112 108
-0.569131 -0.723129 3.133 24 25 21
-0.874349 -0.768262 1.985 128 124 125
0.320252 0.122027 0.64 62 74 92
-0.907508 -0.510319 2.107 114 115 109
0.480506 -0.71926 2.911 113 106 98
0.31256 0.0248344 0.944 180 180 182
0.387042 -0.00484141 0.776 91 81 69
-0.931646 -0.672164 1.997 117 122 112
0.240625 -0.580325 2.768 124 116 115
-0.506736 -0.807659 2.459 38 40 46
-0.728052 0.567394 1.659 107 108 104
0.0956746 0.0590835 0.927 196 195 197
-1.04241 -0.306924 2.01 102 106 101
0.0916261 0.147029 0.902 89 81 78
-0.789606 -0.0100948 2.189 100 96 85
-0.53409 -0.699034 2.402 9 9 11
-0.225792 0.00528051 1.498 40 40 40
0.204578 -0.54429 2.768 115 107 104
-0.440706 0.346494 1.587 2 5 4
-0.612245 0.552606 1.705 73 74 70
0.784703 -0.902749 3.102 101 94 84
0.24557 0.15071 0.717 140 143 142
0.0692161 0.298024 0.897 153 153 153
0.231791 0.233673 0.68 97 106 97
0.404707 -0.0259988 1.009 162 165 164
0.110141 0.135054 0.863 112 109 104
-0.979108 -0.367876 2.136 110 111 100
