ply
format ascii 1.0
comment Created by Open3D
element vertex 1352
property double x
property double y
property double z
property uchar red
property uchar green
property uchar blue
end_header
0.331075 -0.0585822 0.927 17 18 14
0.00810028 0.0205332 1.13 83 79 70
0.219991 0.174781 0.745 97 93 86
-0.822684 -0.255217 2.312 118 118 122
-0.638356 0.472368 1.686 114 118 113
0.31814 0.0569009 0.697 195 205 212
-0.403861 -0.577409 3.117 56 56 50
0.273098 0.183353 0.67 158 173 170
-0.161128 -0.10764 1.509 62 57 53
0.206838 0.000244699 0.905 201 201 203
-0.712724 -0.713327 2.099 126 122 125
0.274419 0.0705153 0.758 195 198 199
0.622219 -0.915599 2.844 123 118 114
0.452391 -0.36682 1.612 193 192 192
0.585673 -0.313363 1.387 159 163 158
-0.745864 0.556751 1.48 114 120 118
-0.48452 -0.778921 2.228 130 125 121
-0.380214 0.0862349 1.551 4 10 8
-0.917184 -0.687324 1.966 124 125 121
-0.162763 0.132877 1.116 10 9 11
-0.289419 -0.904666 3.198 23 23 19
0.339969 -0.200556 1.286 197 196 198
0.169779 -0.053378 0.999 202 201 201
-0.928788 -0.0328626 2.286 101 99 89
-0.110775 -0.00182509 1.345 6 8 14
-0.433695 0.486401 1.659 80 87 79
0.194835 0.0821458 0.812 176 176 178
-0.200416 0.0136367 1.359 5 15 20
0.431121 -0.0131105 0.912 94 95 89
-0.153627 -0.0696325 1.484 54 52 44
0.138992 0.225323 0.795 105 102 99
0.180017 -0.0103869 0.934 200 199 201
-0.310478 0.424691 1.65 10 19 12
0.264275 0.242231 0.667 68 79 75
0.103938 0.0751059 0.92 166 160 164
-0.350977 0.143225 1.567 2 5 4
0.295681 0.112899 0.714 96 98 89
-0.764584 0.467325 1.668 112 117 107
0.301073 0.0669705 0.684 147 153 155
-0.385808 0.156167 1.595 4 8 3
-0.872856 0.0619808 2.356 100 98 86
-0.0995901 0.174447 1.081 11 14 13
-0.383122 -0.654864 3.198 56 56 52
0.216426 0.166729 0.758 87 88 82
-0.562916 0.476722 1.682 105 107 98
-0.0917156 0.149567 1.092 16 16 16
-0.690864 -0.343683 2.181 114 105 100
0.145464 -0.269932 1.432 197 193 194
0.194074 0.230069 0.798 70 79 70
-0.609712 -0.506806 2.121 122 113 108
-0.00486863 0.0190583 1.152 75 67 66
0.166855 -0.171667 1.229 111 102 109
-0.664979 -0.672274 2.057 127 124 121
0.619494 -0.18843 1.234 192 198 198
-0.169445 0.0534444 1.359 4 11 17
-0.656495 -0.508623 2.173 121 114 106
-0.845436 0.420775 1.769 109 120 116
-0.509169 0.51564 1.583 91 96 86
-0.718687 -0.323371 2.212 108 103 99
0.0303602 0.0946713 1.137 40 40 44
-0.64224 -0.7518 2.092 136 129 121
0.520637 -0.667328 2.871 119 110 105
0.41064 0.00457015 0.887 27 34 38
-0.374888 0.115469 1.571 2 5 4
-0.416446 0.258686 1.603 5 6 2
-0.878253 -0.657331 1.972 117 123 121
0.350402 -0.0370402 0.955 7 11 6
-0.808452 0.439108 1.739 113 116 115
-0.695367 -0.601484 2.151 120 117 112
0.180894 -0.776734 2.684 136 128 127
-0.281701 -0.272832 1.435 5 12 6
-0.784396 -0.402635 2.136 115 113 105
-0.519345 0.563706 1.473 106 110 105
0.330252 0.0279272 0.851 20 28 25
0.0590827 0.0809764 1.055 69 59 57
0.132215 0.241979 0.879 102 98 91
0.292732 -0.132688 1.22 92 91 93
0.264962 0.259209 0.666 79 89 77
-0.2471 -0.129741 1.509 5 5 5
-0.0858154 -0.725636 2.996 15 18 17
1.01496 -0.756802 2.66 23 15 3
0.269687 0.239326 0.659 77 80 83
-0.112505 0.464962 1.366 6 9 8
0.333597 0.100525 0.656 66 67 63
-0.232191 -0.12359 1.524 6 7 3
0.182193 0.0452827 0.839 175 169 173
-0.871039 0.304469 2.03 113 117 110
-0.0177963 -0.711557 3.04 11 14 15
0.469282 -0.295944 1.39 191 194 193
0.291333 0.244427 0.636 74 86 78
-0.616298 -0.16299 2.051 109 100 95
-0.779942 -0.122144 2.286 100 97 94
0.0886533 0.182627 0.983 51 51 47
0.111905 -0.0406149 1.005 182 176 178
-0.439378 -0.831028 3.117 34 34 30
-0.820472 -0.737558 1.972 124 128 123
0.304679 0.213398 0.621 102 115 112
-0.335514 -0.1499 1.466 4 7 6
-0.453624 0.225076 1.624 11 16 21
-0.0521655 0.428196 1.252 12 9 6
0.538549 -0.865957 2.818 129 122 112
0.359111 0.0447184 0.72 196 207 218
-0.341476 -0.915074 3.198 25 25 19
-0.430565 0.499922 1.607 86 86 88
0.195315 0.0810235 0.814 174 177 178
0.509565 -0.380262 1.539 180 180 176
0.0810629 0.26877 0.988 57 35 25
0.433653 -0.262706 1.336 196 196 192
0.180249 0.0232297 0.883 203 202 204
0.275036 0.0860474 0.743 150 151 147
-0.352932 0.3326 1.673 0 4 0
-0.844261 0.449531 1.714 107 114 108
0.0767727 0.309273 0.9 65 38 30
0.125821 0.186674 0.855 111 111 107
-0.202628 0.000367454 1.359 8 19 30
-0.0730134 0.284739 1.053 5 11 9
0.125488 0.0676978 0.882 150 140 140
-0.246001 -0.217734 1.473 8 8 8
-0.432809 -0.783099 2.261 129 127 119
0.0944736 0.0177531 0.977 175 170 166
-0.393027 -0.71148 2.244 128 121 115
-0.0331166 0.128477 1.094 14 13 17
-0.709376 0.436279 1.739 103 111 98
-0.958178 -0.0740416 2.294 106 102 93
-0.668362 0.206334 2.143 104 97 89
-0.0508267 0.223473 1.055 9 13 8
-0.485997 0.312128 1.71 58 56 46
-0.737745 -0.0296907 2.329 144 140 131
0.188998 -0.164049 1.217 96 92 95
-0.285643 -0.0755161 1.505 3 6 5
-0.218595 0.341697 1.362 12 13 9
0.153079 0.171443 0.822 147 144 141
0.222651 0.270326 0.798 54 62 61
0.0600297 0.124262 1.104 46 44 34
-0.88792 -0.352168 2.212 112 109 106
-0.0967182 0.368787 1.198 7 7 3
0.270143 0.140703 0.702 157 165 164
0.0509658 0.386412 0.997 22 20 10
0.0419882 -0.691142 2.743 131 123 122
0.443769 -0.0258053 0.942 158 171 166
0.421754 -0.947265 2.66 124 116 115
-0.929305 -0.536851 2.064 116 116 110
0.381433 -0.289055 1.47 110 109 109
0.184579 -0.324474 1.524 201 195 197
-0.0658821 0.111324 1.137 4 10 8
0.248863 0.204094 0.7 90 92 83
-0.68268 -0.420561 2.212 114 110 103
0.223586 0.304899 0.851 31 31 31
-0.0470078 -0.176431 1.278 195 194 196
0.203452 0.0462032 0.831 162 161 161
0.0869397 0.0661479 0.964 101 99 89
0.240364 -0.0628795 0.995 201 201 203
-0.890396 -0.41274 2.099 111 112 108
-0.392264 -0.150616 1.473 6 13 7
0.203669 -0.161136 1.21 90 86 89
-0.139207 0.30512 1.178 0 5 5
-0.4616 -0.627505 3.165 56 56 52
-0.235086 0.485034 1.543 23 31 18
-0.744362 -0.465388 2.121 115 112 107
0.252762 0.288432 0.738 73 62 68
-0.467198 0.553772 1.498 108 114 112
-0.600116 -0.559054 2.136 116 116 110
-0.143224 -0.224081 1.452 155 149 151
0.57584 -0.990062 2.755 122 114 111
0.291333 0.243393 0.636 73 84 80
0.0491023 0.0504056 1.062 89 81 78
0.0973545 0.187295 0.974 88 79 74
0.23978 0.257728 0.75 82 88 71
-0.268596 -0.899461 3.198 19 20 14
1.06879 -1.1088 2.939 76 73 59
-1.05784 -0.0760795 2.244 104 103 103
-0.169422 -0.897087 2.844 22 22 26
0.153789 -0.150666 1.205 109 108 112
-0.0788829 0.0970027 1.165 8 8 8
0.425021 -0.201398 1.265 203 202 202
0.00189529 -0.839306 2.884 7 13 11
-0.277956 0.519526 1.587 34 36 25
0.377052 0.0273037 0.832 30 30 32
0.900832 -0.989135 2.953 104 105 99
-0.932665 -0.536851 2.064 114 116 107
-0.0959547 0.0812599 1.213 7 10 11
-0.704199 0.292774 2.064 108 104 93
-0.830153 -0.627138 2.085 123 123 117
0.46503 -0.0579636 0.994 185 193 192
0.247528 -0.826956 2.649 136 132 125
-0.0381592 -0.707259 3.086 13 13 13
-0.544914 0.397527 1.794 60 58 48
0.342146 -0.0870439 0.958 18 18 20
-0.0918484 -0.250061 1.425 190 189 193
0.328274 -0.0258875 0.945 15 19 14
-0.13622 -0.0176053 1.381 7 19 33
-0.0730134 0.288166 1.053 4 7 6
0.392009 -0.111731 1.059 192 196 191
0.295991 0.138507 0.68 151 157 157
0.204728 0.218487 0.789 63 67 60
-0.977474 -0.160069 2.244 100 102 93
0.00255461 0.131296 1.118 11 17 15
-1.14489 0.172343 2.294 105 112 106
0.655751 -0.230595 1.302 154 163 154
0.0722083 -0.00135559 0.999 157 151 153
-0.57471 0.524616 1.579 107 111 106
-0.133602 -0.210639 1.425 161 155 159
-0.341971 -0.175782 1.463 8 9 5
-0.792149 0.0749175 2.402 115 114 99
-0.0683223 0.305606 1.06 0 5 3
-0.680211 -0.444146 2.204 112 110 100
-0.267458 -0.0906904 1.513 3 7 2
-0.834477 -0.123053 2.303 103 101 93
0.0670848 0.196141 1.02 3 6 7
0.240186 0.140183 0.729 146 147 143
-0.21769 -0.78391 3.215 22 20 12
0.567809 -0.322769 1.439 143 149 151
-0.0881233 0.132639 1.114 9 12 13
0.559954 -0.682671 2.857 117 110 104
-0.0803823 0.151859 1.083 10 13 12
0.00200766 -0.695182 3.055 11 14 15
0.0987776 -0.0605877 1.039 198 189 194
0.265125 -0.270778 1.449 206 202 205
-0.463729 0.467961 1.71 68 69 65
0.619287 -0.290316 1.333 129 135 135
0.214341 0.143954 0.755 92 91 91
0.283905 -0.0325463 0.916 8 18 25
-0.0599751 -0.732239 2.925 31 35 30
-0.627332 0.425086 1.763 86 87 83
-0.969434 -0.520203 2.078 110 117 111
-0.126204 0.283105 1.114 2 8 6
-0.379234 0.083495 1.547 4 10 8
0.224229 0.115685 0.747 175 171 174
-0.807288 -0.63586 2.114 121 118 115
-1.06078 0.123325 2.356 113 114 105
0.270085 -0.0987888 1.149 98 104 102
-0.784325 0.406473 1.821 119 119 115
0.624055 -0.320134 1.387 190 196 194
-0.28655 -0.900141 2.768 34 34 34
-0.1217 0.542732 1.449 21 25 18
0.104442 0.254094 0.981 81 77 66
-0.880941 0.238608 2.151 116 117 106
0.285652 0.0968176 0.733 154 154 150
-0.695367 -0.478971 2.151 114 109 105
0.0477305 0.167449 1.07 3 6 7
-0.891141 0.416191 1.774 109 118 111
-0.321195 -0.157057 1.466 10 10 4
0.654932 -0.384171 1.477 195 202 196
-0.903909 -0.220152 2.261 107 102 98
0.671576 -0.870542 2.818 120 115 113
0.335169 -0.23355 1.369 204 203 210
0.293815 -0.117629 1.169 91 91 91
0.305006 0.179104 0.643 164 171 177
-0.0872725 0.186761 1.081 3 6 9
0.0456449 -0.0308209 1.062 144 137 131
0.113154 0.203679 0.947 87 80 72
-0.831935 -0.185798 2.338 109 112 113
-0.836311 -0.0187453 2.383 148 141 135
-0.183353 -0.876776 2.996 3 7 2
-0.105936 0.236642 1.092 6 9 8
-0.151864 0.134693 1.116 6 12 14
0.241676 0.172104 0.709 102 102 96
-0.98024 0.127159 2.356 104 104 98
-1.04948 -0.455331 2.03 114 118 111
-0.369167 -0.00205713 1.516 4 7 6
-0.925606 -0.644224 1.991 123 123 117
-0.0718726 -0.805454 2.831 8 14 16
0.0687598 0.141594 1.072 14 10 13
-0.673249 0.425086 1.763 114 111 106
-0.215413 0.572448 1.477 33 35 26
0.24968 0.236275 0.729 80 81 77
-0.937706 -0.510258 2.121 112 112 106
0.595412 -0.742081 2.871 132 128 121
-0.0328442 0.134483 1.085 6 12 14
0.223923 -0.137402 1.192 95 95 97
0.101205 0.269007 0.847 165 172 166
0.761432 -0.74886 2.953 108 103 99
0.932005 -1.10576 2.857 117 119 108
-0.247773 -0.837011 3.198 18 19 15
-0.281342 0.327646 1.535 0 3 2
1.30286 -0.840694 2.638 77 69 68
-0.239731 -0.132196 1.509 6 9 8
-0.0313609 0.232936 1.036 5 11 11
-0.966725 -0.164378 2.253 105 102 97
0.13417 0.0423369 0.892 193 192 194
0.41527 -0.00267689 0.897 22 27 32
-0.447027 0.465179 1.71 37 41 36
0.0254863 -0.0244708 1.087 144 138 140
0.144893 0.206954 0.799 123 132 125
-1.00652 -0.501556 2.057 110 117 109
-0.61857 -0.690479 2.189 123 123 117
0.138462 0.266809 0.807 124 128 123
0.14064 0.101682 0.878 97 89 86
-0.0742858 0.00642501 1.247 80 72 71
-0.674181 -0.133787 2.173 104 97 89
0.423303 -0.107064 1.064 178 180 171
0.0910439 -0.218581 1.319 113 106 115
0.0251745 0.273122 1.004 44 15 3
-0.805836 0.502637 1.599 111 118 112
-0.804409 -0.592273 2.143 121 116 114
-0.189208 0.171934 1.122 8 14 12
0.288998 0.208471 0.64 137 148 148
0.210954 0.123453 0.765 173 173 175
0.245557 0.102588 0.749 160 163 164
-0.286474 0.473516 1.563 34 34 28
-0.107858 0.546503 1.422 20 20 22
0.2576 0.122878 0.718 173 176 177
0.299264 0.173916 0.651 174 182 179
0.200975 0.0284523 0.867 203 202 206
0.845373 -0.960855 2.911 106 101 99
-0.676623 -0.444146 2.204 113 111 101
-0.442445 0.482196 1.682 51 58 52
0.22551 -0.130258 1.18 98 98 98
-0.0978304 0.243054 1.081 3 6 5
-0.374016 -0.78717 3.165 38 42 37
1.09634 -1.12634 2.898 70 63 72
0.120034 -0.0887191 1.094 121 120 127
-0.944042 -0.154468 2.269 101 103 94
-1.04 0.281739 2.057 101 112 110
-0.726961 0.496069 1.603 103 109 107
0.386494 -0.0245301 0.952 140 144 137
0.459644 -0.199369 1.215 127 135 124
-0.181868 -0.13232 1.539 23 26 25
0.315915 0.09535 0.68 53 57 50
0.463365 -0.323442 1.442 136 137 126
-0.0805043 -0.0260852 1.249 102 95 89
-0.103872 0.237764 1.089 6 10 5
-0.162579 0.488488 1.456 19 20 14
-0.00453053 0.309066 1.072 2 3 0
0.115528 0.265819 0.812 103 103 99
-0.640363 0.272621 2.064 109 102 94
0.233386 0.154631 0.73 167 173 173
-0.0563314 -0.136386 1.254 168 162 166
-0.772456 -0.701783 2.085 123 122 122
0.494857 -0.137722 1.116 141 149 138
-1.11054 -0.221054 2.128 112 116 111
0.15815 0.030311 0.88 183 182 184
-1.11939 0.165523 2.303 101 109 98
0.227736 0.103805 0.767 181 181 183
0.670198 -0.266836 1.357 155 167 157
0.246292 0.147875 0.709 148 147 149
0.732477 -0.352333 1.445 150 163 148
1.16617 -1.03998 2.805 71 46 28
-1.11917 -0.132864 2.158 122 122 118
0.50462 -0.113228 1.09 193 196 195
-0.971285 -0.732729 1.985 118 127 118
-0.943436 -0.678584 1.941 113 127 118
-0.528539 0.514361 1.587 102 104 95
0.213374 -0.0705963 1.037 120 122 128
-0.0176828 0.116361 1.132 11 17 17
0.269938 0.247152 0.657 72 80 77
-0.130661 0.115024 1.137 6 7 3
-0.200166 0.12994 1.122 10 11 7
0.691095 -0.258383 1.359 179 189 192
0.109453 0.260993 0.826 115 114 118
-0.159816 0.110436 1.147 8 11 12
0.468576 -0.936995 2.731 138 130 129
-1.01319 -0.639334 1.966 115 122 114
-0.616304 0.432847 1.748 90 91 85
-0.0510484 -0.169792 1.275 183 179 182
-0.0954493 -0.0205797 1.286 90 82 79
-0.0465915 0.00624983 1.213 60 51 56
0.663832 -0.773601 2.884 101 94 88
-0.1379 0.241476 1.106 3 7 2
-0.948951 0.188459 2.22 118 116 104
0.348828 -0.101869 1.064 201 201 205
0.291892 -0.0458114 0.913 21 17 18
0.131722 0.237861 0.798 108 103 101
-1.02234 -0.557359 1.959 117 117 111
0.59075 -0.236379 1.254 135 149 140
0.305202 -0.00563999 0.904 150 156 156
0.231495 0.119902 0.743 172 172 172
0.282559 0.185705 0.659 153 166 161
0.257359 0.0628075 0.785 193 193 195
0.315335 0.0794158 0.658 79 99 133
0.115831 -0.740446 2.695 136 126 124
-0.80687 -0.755896 1.978 127 127 123
0.228732 0.105608 0.762 182 182 184
0.076701 0.0762943 0.994 94 89 87
-0.101341 0.545598 1.396 25 26 20
-0.479257 0.403411 1.696 34 35 22
-0.124859 -0.862772 2.884 4 7 6
-0.243509 0.550362 1.502 32 33 29
-0.769525 -0.445803 2.143 114 111 108
-0.32733 0.56688 1.494 62 63 52
0.0058564 0.316782 1.057 4 5 1
0.539515 -0.18626 1.182 184 188 183
-1.0031 -0.189496 2.204 102 103 92
-0.904383 -0.680925 1.966 119 125 123
-0.993112 0.237944 2.114 116 117 104
-0.369167 0.0250802 1.516 1 7 5
-0.407641 0.136613 1.579 1 7 5
0.115623 0.145884 0.942 92 88 81
0.336356 -0.171387 1.227 193 192 194
0.731524 -0.397518 1.491 178 178 178
-0.651891 0.486711 1.624 115 116 110
-0.365037 0.166549 1.595 4 4 6
0.000665059 0.257183 1.012 4 5 1
-0.876209 -0.528748 2.228 111 112 103
-0.434634 0.0683902 1.547 12 12 12
-0.908783 0.405134 1.815 105 113 110
-0.649664 0.500035 1.599 109 113 108
-1.17562 0.0455956 2.303 105 102 97
0.259037 0.203697 0.676 111 117 117
0.331639 0.0813724 0.648 187 199 203
0.0312458 0.188683 1.043 1 7 5
-0.46695 0.524514 1.571 86 87 81
0.177288 -0.0229808 0.952 179 175 176
0.314638 -0.880304 2.707 138 130 127
0.271456 0.0406467 0.828 177 177 173
-0.0397246 0.106961 1.13 20 23 24
-0.101912 0.164802 1.087 15 16 12
0.227732 0.0549995 0.821 201 201 203
0.11665 0.218892 0.914 97 90 82
0.240791 -0.658546 2.719 139 132 124
0.371292 -0.715458 2.768 116 106 104
-0.0201982 -0.0740018 1.171 151 145 149
0.302276 0.15214 0.667 170 183 180
0.0842686 -0.238742 1.348 183 179 182
-1.02968 0.0833976 2.312 116 116 110
-0.202953 0.53005 1.528 26 26 20
0.730018 -0.439886 1.555 156 163 155
-0.221143 -0.775086 3.266 21 21 15
-0.799442 0.336407 1.929 117 117 113
-0.360866 -0.899031 2.684 16 13 8
0.0437094 0.0140465 1.057 115 106 101
0.0124375 0.304251 1.032 19 15 8
0.217796 -0.286205 1.48 213 209 214
0.233066 0.203058 0.729 80 81 72
-1.05004 -0.531683 2.057 117 114 109
-0.732589 -0.709188 2.107 124 125 121
0.100525 0.261791 0.974 94 90 83
0.0950176 0.331412 0.866 22 13 8
-0.445288 0.374534 1.642 6 10 5
-0.49984 0.400006 1.729 53 51 43
-1.19437 0.131794 2.303 104 111 105
-0.583446 0.496069 1.603 109 114 104
-0.00292064 0.404539 1.124 17 16 16
0.127703 -0.0318889 0.988 157 154 151
-0.532692 -0.717258 2.173 127 125 117
-0.28634 0.54247 1.535 37 35 27
-0.29338 -0.270497 1.435 7 10 13
-0.325604 0.0498818 1.52 2 5 4
0.31863 0.021151 0.857 25 29 24
-0.00435303 0.203092 1.03 6 9 10
0.867857 -0.955749 2.939 95 94 94
0.186214 0.120021 0.809 143 142 142
-0.866771 -0.289921 2.204 108 106 98
0.506439 -0.865957 2.818 127 124 121
0.169013 -0.1924 1.26 145 122 119
-0.181899 0.553772 1.498 26 27 18
0.0493952 0.0137143 1.032 116 107 110
0.164934 0.179874 0.783 140 144 137
-1.1591 -0.0139003 2.228 84 84 84
-0.883192 0.391449 1.848 109 121 113
0.386107 -0.131159 1.122 178 182 175
-0.179994 -0.0483125 1.425 16 31 57
-0.373121 0.363846 1.642 0 5 3
-0.685866 0.434695 1.744 112 112 108
0.0645198 0.274848 0.981 66 20 0
0.137625 0.0892235 0.868 107 97 95
0.10675 -0.0796586 1.068 143 132 138
-0.174851 0.168593 1.112 7 10 9
-0.823811 -0.668026 2.044 123 122 124
-0.158165 -0.741723 3.283 16 17 13
0.258611 -0.264226 1.439 205 204 206
-1.04033 -0.521821 2.071 107 116 107
-0.707565 0.472754 1.668 114 112 102
0.282357 -0.0893678 1.102 100 106 108
-0.249585 -0.26425 1.452 7 10 11
-0.662462 -0.506946 2.181 121 114 106
-0.820989 -0.692257 2.037 125 125 121
-1.14314 0.00429073 2.261 112 116 111
0.00740223 -0.223572 1.336 196 190 196
-0.0492025 0.301301 1.057 0 4 0
1.07558 -0.778446 2.66 57 58 52
0.143915 0.15189 0.855 121 126 114
0.284324 0.126569 0.706 131 140 133
1.42655 -0.999008 2.898 79 76 71
-0.292224 -0.390364 1.396 22 25 26
0.0946568 0.249195 1.013 53 54 45
0.458319 -0.074363 0.997 130 138 135
0.68493 -0.35087 1.439 195 199 194
0.0948604 0.193431 0.981 90 79 72
-0.0764809 -0.791633 2.831 11 17 15
0.208437 -0.0056899 0.912 203 203 207
-0.684429 0.45364 1.719 112 114 105
-0.279365 0.0587684 1.435 2 5 4
0.341963 -0.0588981 0.932 15 15 17
-0.334679 0.487943 1.637 37 37 31
0.05973 -0.234969 1.339 168 159 164
1.09108 -0.745107 2.604 53 33 36
0.000749834 -0.072106 1.141 143 134 141
0.000695946 0.296701 1.059 4 5 1
-0.0873615 0.454288 1.322 7 7 1
0.268363 0.0951471 0.748 136 136 140
0.220215 -0.772366 2.684 136 128 125
-1.14593 0.214325 2.189 105 112 106
0.457231 -0.18936 1.154 123 124 111
0.227558 0.110634 0.754 176 176 180
-0.982585 -0.319212 2.136 105 110 100
1.09271 -0.946184 2.939 49 43 30
-0.397609 -0.134836 1.484 10 11 7
-0.433621 -0.633729 2.499 118 111 101
-0.962393 0.329024 1.941 107 108 102
0.608534 -0.364993 1.487 150 157 149
0.389818 0.0210029 0.851 34 40 42
0.325055 -0.10838 1.132 88 88 90
-0.845427 0.490785 1.62 113 120 114
0.438617 -0.117632 1.098 189 189 189
0.70092 -0.878574 2.844 118 115 110
-0.700693 0.484093 1.633 106 113 107
0.285581 0.118376 0.712 105 111 109
-0.317124 -0.768214 3.215 25 33 22
-0.714821 0.540275 1.543 102 113 111
-0.405268 -0.86502 2.66 16 22 22
0.287577 -0.0643375 0.923 32 30 44
0.486783 -0.347199 1.463 134 137 136
-1.07905 -0.111393 2.22 102 107 95
0.337858 0.0518176 0.705 198 206 207
0.0968994 -0.0554084 1.037 189 180 187
0.039684 -0.107197 1.139 191 190 192
-0.879525 0.0894973 2.374 96 96 92
-0.508099 -0.676195 2.236 126 122 113
0.061921 -0.01131 1.017 147 132 131
-0.811377 0.334305 1.935 120 117 114
-0.234819 0.543104 1.509 34 36 25
-0.0413049 0.439399 1.232 13 8 4
0.135977 -0.778446 2.66 136 128 125
0.141272 0.132186 0.891 111 109 99
0.268222 -0.113167 1.182 96 99 100
-1.00693 0.0601393 2.286 117 118 109
0.129495 -0.141992 1.198 115 114 118
0.312779 0.0663831 0.678 194 204 211
0.0837182 -0.247999 1.375 196 195 197
-0.159335 0.0717831 1.33 12 13 9
-0.235928 -0.281879 1.47 7 13 13
-1.1016 -0.12584 2.158 111 113 104
-0.269978 -0.179381 1.473 4 10 8
0.011523 -0.214958 1.31 191 185 191
0.192668 0.295173 0.843 44 49 39
0.197803 0.324388 0.83 14 20 20
-0.258878 0.057335 1.4 18 17 24
-0.694306 0.488361 1.612 109 117 114
0.487964 -0.711962 2.844 131 119 117
0.10902 0.10863 0.925 95 87 84
-0.029474 0.243084 1.029 8 12 7
-0.637912 -0.455947 2.158 115 111 104
0.139858 -0.0333272 0.983 157 147 147
0.231547 0.243474 0.755 77 79 70
0.272016 0.0878437 0.748 152 151 158
-0.744962 0.540275 1.543 103 110 102
1.26474 -1.10213 2.884 83 73 71
0.322681 -0.228788 1.354 201 201 205
-0.0478854 -0.0483338 1.196 112 107 105
0.0133534 -0.00691273 1.108 95 83 83
0.0297814 -0.668724 2.857 72 71 73
-0.839164 0.501286 1.603 99 117 113
0.229984 -0.0117411 0.921 204 204 208
-0.103968 0.225566 1.09 2 5 4
-0.0228418 0.121762 1.114 18 21 20
-0.35291 -0.92871 3.071 26 21 19
-0.407976 0.0502756 1.532 1 7 5
-0.834609 0.405153 1.789 110 118 115
-0.427715 0.334417 1.616 3 6 7
-0.393468 -0.82367 2.356 15 20 27
-0.281876 -0.12392 1.498 2 8 6
0.00770602 0.372908 1.075 25 16 7
0.248029 0.218633 0.714 79 86 80
-0.714758 -0.796787 2.085 129 129 123
-0.989671 -0.43633 2.114 114 117 101
-0.834763 0.445024 1.729 111 118 110
0.0731665 0.121034 1.06 71 63 62
0.0969084 0.0421747 0.954 140 134 138
0.300398 0.130607 0.685 131 141 127
-0.889321 -0.54842 2.057 110 114 107
-0.000987133 0.227009 1.017 6 12 10
0.839916 -0.898837 2.925 98 94 85
0.176077 0.196366 0.793 65 69 64
-0.363946 0.516907 1.579 48 48 42
-0.92646 -0.37746 2.151 120 112 111
0.252936 0.23538 0.705 82 86 81
-0.561869 -0.729377 2.136 134 127 121
-0.868557 -0.215899 2.294 102 102 96
-0.0646653 0.118348 1.116 8 14 12
0.198521 0.226617 0.795 69 76 70
-1.12684 -0.115733 2.166 116 121 111
-1.17752 0.0953809 2.329 104 99 95
0.438357 -0.231947 1.286 201 201 197
0.174078 -0.288028 1.477 211 207 210
-0.0126702 0.0656075 1.18 11 11 11
-0.886209 0.354773 1.893 108 112 107
0.466763 -0.301765 1.396 197 196 196
0.436078 -0.933415 2.695 153 149 140
-0.230861 0.0672045 1.369 12 22 36
-0.880329 0.35979 1.887 109 113 106
-0.319899 0.245643 1.603 1 5 0
0.0550151 -0.0251775 1.043 168 163 159
0.0996037 0.242601 1.013 50 45 41
0.312717 -0.801043 2.768 135 125 123
0.0236809 0.230377 1.01 11 11 11
0.453625 -0.937801 2.695 154 150 139
-0.428297 0.482024 1.691 41 49 38
0.405842 -0.126825 1.116 198 198 194
0.255231 0.148188 0.705 177 182 187
0.211552 0.211188 0.781 62 59 54
-0.090769 -0.974111 2.582 30 59 85
0.117901 -0.912242 2.55 145 142 137
-0.4384 0.412537 1.677 19 19 13
-0.0909598 0.232929 1.083 4 8 3
0.499421 -0.191569 1.156 192 195 196
-0.732502 0.547918 1.502 111 118 124
-0.862921 0.268015 2.107 117 118 109
-0.849693 0.399227 1.815 112 116 111
-0.45182 -0.772128 2.844 29 31 37
-0.75139 0.51564 1.583 105 109 104
0.133953 -0.0878924 1.106 122 124 130
-0.424437 0.55525 1.502 91 95 90
0.120559 0.0667132 0.888 122 117 115
0.0858381 0.309939 0.873 131 127 130
-1.00972 -0.652893 1.978 116 125 116
0.559954 -0.724515 2.857 125 118 112
-0.0665377 -0.122101 1.254 166 160 164
-0.404406 0.207029 1.607 0 6 4
-0.1592 0.387159 1.366 4 8 3
-0.729499 -0.667775 2.128 125 120 116
-0.105569 0.330131 1.126 3 7 2
-0.353664 0.514337 1.579 41 39 31
0.138707 -0.294015 1.459 207 203 204
-0.572093 0.540553 1.551 109 114 104
-1.05339 -0.474777 2.057 108 115 107
0.0654357 0.282572 0.948 65 22 0
0.295126 0.193451 0.642 164 177 172
-0.0417876 -0.200035 1.31 198 197 199
-0.890359 -0.424599 2.107 109 110 106
-0.541237 0.422217 1.763 57 54 51
0.18768 0.127129 0.804 137 131 133
-0.572405 0.55916 1.48 106 110 103
0.273562 0.212193 0.658 91 98 92
-0.111812 -0.818741 2.911 8 11 10
-0.0348016 0.451131 1.215 16 13 10
0.465207 -0.10253 1.053 180 191 189
-0.935773 0.161143 2.294 105 103 95
-0.651963 -0.259288 2.158 109 102 96
-0.0546693 -0.0670065 1.217 107 102 100
0.09526 -0.027449 1.002 153 137 144
-0.830524 0.313614 2.004 119 119 113
0.0843964 -0.768913 2.672 138 130 129
0.0396053 0.272841 0.997 53 16 2
-0.104598 0.0685447 1.27 9 12 11
-0.029391 -0.140576 1.237 182 176 180
-0.197911 0.313208 1.299 7 13 13
0.508888 -0.323606 1.412 155 159 152
-0.196231 -0.0459936 1.425 15 33 58
-0.0853154 -0.0755254 1.26 152 149 144
0.233225 0.220878 0.737 80 81 70
-0.505482 0.465179 1.71 80 78 66
-0.594384 0.543543 1.524 111 121 109
-0.595021 0.443209 1.744 85 86 77
0.239196 0.102998 0.752 182 178 179
-0.636751 -0.556332 2.166 120 116 107
0.18089 0.0612256 0.833 165 164 164
-0.378737 -0.0510248 1.505 3 6 5
0.276919 -0.270778 1.449 204 203 205
-0.235124 -0.209135 1.48 8 11 10
0.309647 -0.281879 1.47 154 154 150
0.535065 -0.122682 1.128 197 200 199
-0.409012 0.463478 1.714 0 8 5
-0.229381 0.0884021 1.387 5 14 24
-0.0819935 0.192039 1.081 4 10 8
-0.933957 -0.659632 1.941 118 127 120
0.0538844 0.299999 0.935 32 17 7
-0.08454 -0.275021 1.459 195 191 192
-0.681792 0.50138 1.595 115 116 110
-0.455506 -0.807926 2.228 136 129 123
-0.373933 0.107525 1.567 6 9 8
-0.0888516 -0.72607 3.102 14 17 20
0.248217 0.200374 0.695 98 101 102
-0.458144 0.496231 1.612 88 87 87
-0.227435 -0.247168 1.477 7 10 9
-0.775492 -0.299251 2.22 111 106 102
0.231291 0.278605 0.792 58 54 57
0.221522 -0.00870562 0.917 203 203 205
0.171464 0.263825 0.814 103 107 102
-0.398253 -0.849184 2.793 25 24 24
0.328523 0.138281 0.663 102 102 96
0.562036 -0.748987 2.844 108 94 90
0.0384747 0.180553 1.055 3 6 5
-0.523798 -0.65049 2.151 128 121 111
-0.326684 0.38405 1.637 0 5 5
-0.0810074 0.288795 1.068 8 11 12
0.316217 0.173501 0.634 160 171 169
-0.145574 0.184002 1.096 8 8 8
0.606461 -0.701268 2.857 113 108 104
-0.230492 0.116 1.316 11 12 6
-0.735922 0.310353 2.004 106 107 98
-0.0948346 0.230252 1.087 6 10 5
0.29476 -0.936854 2.572 141 136 132
-0.894551 0.421019 1.758 113 120 114
0.349794 -0.316369 1.509 172 167 165
0.395062 -0.00884802 0.932 187 190 191
0.194396 0.282842 0.827 51 49 37
0.504147 -0.682671 2.857 121 111 109
0.127621 0.124241 0.918 93 86 80
-0.632991 0.274242 2.051 107 100 92
0.569255 -0.747761 2.857 118 109 104
0.197061 0.184026 0.779 78 82 75
-0.563947 0.338295 1.887 98 94 83
-0.494211 0.447838 1.729 51 52 43
0.253469 0.221367 0.697 93 95 84
-0.315084 0.450447 1.646 27 29 20
-0.790629 0.53637 1.539 104 119 116
0.290789 0.0543901 0.74 169 180 180
0.241037 0.0434463 0.83 163 160 157
-0.708768 0.561309 1.473 109 117 118
0.256882 0.126032 0.716 171 177 177
-0.892941 -0.537304 2.189 115 116 107
0.208859 0.0727165 0.81 182 181 181
0.180554 0.146771 0.79 168 168 170
-0.315477 0.570331 1.484 54 62 49
0.0725604 0.179103 1.027 6 9 8
-0.341877 0.292411 1.646 0 5 5
0.14521 0.194821 0.808 110 107 104
-0.972337 -0.713868 1.917 122 126 121
-0.0808266 0.0554372 1.254 8 14 14
0.178746 0.110572 0.817 132 129 126
-0.107617 -0.0235011 1.333 18 17 28
-0.906235 -0.347307 2.204 113 110 105
-0.689638 -0.637402 2.166 122 117 113
0.274366 -0.175741 1.273 91 91 87
0.0756979 0.273251 0.981 52 16 0
0.0990805 0.16117 0.96 87 83 76
0.239893 0.16867 0.714 120 119 121
-0.742792 0.544544 1.513 114 125 125
0.194548 -0.257698 1.416 209 205 210
-0.299806 -0.887283 2.469 9 8 10
-0.200416 0.060079 1.359 9 21 39
-0.401279 0.537474 1.535 90 88 80
-0.0118112 0.347569 1.1 22 17 15
-1.11355 -0.274642 2.114 116 116 116
-0.0186528 -0.218732 1.333 204 202 209
-0.374718 0.34349 1.673 1 5 0
-0.884358 0.37601 1.876 115 119 114
-0.567936 0.388693 1.821 64 60 53
-0.666012 -0.254953 2.181 109 102 96
1.12026 -1.04462 2.793 67 48 33
-1.09272 -0.356024 2.107 110 117 111
-0.818432 -0.587233 2.064 121 118 113
-0.0683948 0.501681 1.289 11 10 10
-0.690442 0.0153289 2.261 116 112 101
-0.826728 0.401073 1.81 115 116 112
-0.788869 -0.678969 2.057 126 123 120
0.287003 -0.0857468 1.079 109 109 111
-0.0229768 -0.708818 3.071 11 14 15
-0.378791 0.537474 1.535 84 84 84
0.00597522 -0.905707 2.615 13 13 17
-0.51169 -0.729159 2.22 129 125 118
-1.13961 0.0726406 2.329 113 111 103
-0.778454 -0.649669 2.092 124 121 116
-0.0181202 -0.014788 1.16 97 89 86
0.924867 -1.03719 2.953 116 109 103
-0.393712 -0.833871 2.269 126 122 113
0.121407 0.296926 0.825 94 98 91
0.277992 -0.218239 1.33 143 141 148
-0.337728 -0.275569 1.425 2 8 10
-0.102827 -0.741759 2.925 7 13 13
0.135898 0.0664697 0.866 171 167 170
-0.444749 0.124079 1.583 10 11 7
0.110941 0.104592 0.916 97 87 85
0.452064 -0.986223 2.66 137 133 126
-0.0966911 -0.797067 2.884 12 13 9
-0.701515 -0.563734 2.181 113 113 107
0.345909 -0.12481 1.165 175 169 171
0.119586 0.137486 0.937 92 88 81
-0.925962 -0.266311 2.158 105 106 97
0.307744 0.0554162 0.707 194 204 207
-0.971978 -0.440467 2.151 114 116 107
0.303511 0.0851518 0.687 56 50 56
0.379192 -0.781007 2.793 130 122 119
0.442826 -0.0881275 1.025 147 155 140
0.100653 0.234609 1.007 66 59 49
0.793249 -0.866112 2.911 111 108 105
-0.67698 0.348964 1.929 101 99 89
1.3367 -1.12793 2.939 82 73 64
-0.896027 -0.202469 2.269 105 102 97
0.0930954 -0.699341 2.672 129 123 125
0.239101 -0.360452 1.607 124 116 115
-0.0475902 -0.132738 1.239 168 162 166
-0.279 -0.1838 1.47 4 10 12
-1.06871 -0.356024 2.107 107 112 102
0.0358863 0.37406 1.03 14 10 11
-1.02707 -0.463976 2.099 109 108 108
-0.615188 -0.463461 2.128 118 113 109
0.312458 0.0974496 0.687 62 65 64
0.173063 0.0217927 0.883 201 200 202
0.275204 -0.215588 1.327 98 97 104
-0.123799 0.474152 1.393 3 4 0
-0.39948 -0.735049 2.392 60 64 59
-0.406174 -0.177825 1.48 6 9 10
0.694823 -0.82215 2.857 115 112 107
-0.8515 -0.0790444 2.449 103 100 97
-0.811393 -0.247692 2.312 115 115 115
0.310168 0.0419434 0.827 187 191 186
0.279242 -0.0649882 0.978 195 195 197
-0.970655 -0.57467 1.997 111 119 108
-0.245553 -0.943861 2.449 61 57 62
-0.420744 -0.679834 2.236 125 118 110
0.214263 0.105158 0.777 175 175 171
0.140284 -0.036638 0.986 148 139 144
-0.966263 -0.506622 2.064 113 118 108
0.0985642 0.270704 0.848 169 173 166
-0.810089 0.32242 1.978 121 118 115
-0.434528 0.496231 1.612 89 89 85
-1.14862 0.0230188 2.294 112 114 103
0.337111 -0.00880056 0.927 151 156 161
-0.0314731 -0.0413934 1.165 123 114 117
-0.341345 -0.0168259 1.513 4 8 3
-0.878275 -0.541674 2.136 118 113 109
-0.965139 0.0310697 2.338 117 114 111
-0.9041 -0.501551 2.173 111 112 106
-1.03274 -0.0690519 2.253 98 101 102
0.0419882 -0.695605 2.743 130 122 121
-0.10434 -0.0146685 1.319 11 13 23
-0.309941 0.550558 1.516 36 38 25
0.497265 -0.907229 2.818 130 125 121
-0.425692 -0.00702808 1.524 22 16 22
-0.365037 0.187314 1.595 2 5 4
-0.423385 -0.854933 3.149 28 28 22
-0.824942 -0.166132 2.329 98 95 92
0.348922 0.0309131 0.82 25 28 27
-0.935828 -0.531931 2.071 115 116 110
-0.569316 0.420259 1.779 72 74 65
0.47396 -0.068938 0.989 143 150 142
0.578663 -0.286342 1.305 168 176 165
-0.47364 -0.862311 2.228 135 132 118
0.222071 0.106578 0.769 180 180 184
-0.472563 0.260486 1.682 54 49 47
0.112187 0.0537928 0.914 137 131 133
0.339145 0.0417756 0.73 195 205 212
0.114347 0.271439 0.813 87 84 81
-0.939267 0.383338 1.882 109 113 108
0.176467 0.286185 0.825 57 52 60
0.263978 0.237514 0.669 82 88 90
-0.0963323 0.0327508 1.327 5 11 9
-0.20484 0.0468098 1.359 11 26 50
-0.787873 -0.413063 2.136 115 112 107
-0.864036 -0.259703 2.253 109 105 98
-1.06285 -0.417754 2.024 114 116 105
-0.734026 -0.343721 2.204 111 106 102
-0.286373 -0.256486 1.435 6 12 10
0.115066 0.225925 0.963 77 70 62
0.254306 0.224899 0.687 100 100 100
-0.0771224 0.113373 1.139 6 9 10
0.938334 -0.984036 2.996 107 105 97
-0.279149 -0.330526 1.422 15 19 12
-0.470571 0.571783 1.463 109 112 113
-0.710765 -0.0555934 2.303 105 100 96
0.467745 -0.102335 1.051 187 196 189
-0.652958 -0.63239 2.173 122 117 113
-0.743355 -0.49809 2.128 115 111 104
0.306306 0.0959551 0.709 65 66 60
0.137665 0.20109 0.834 108 103 101
0.230513 0.322902 0.851 27 24 19
-1.00999 -0.604141 1.966 113 122 115
0.0754336 0.355913 0.938 26 15 10
0.231233 0.245674 0.758 80 82 71
0.519275 -0.269481 1.316 149 164 150
0.0158957 0.10999 1.162 2 8 8
-0.551438 -0.722425 2.136 130 126 119
0.169817 -0.9489 2.582 149 142 134
-0.169445 0.0180598 1.359 12 27 51
-0.786405 -0.249497 2.294 107 109 100
-0.193107 -0.896278 2.996 3 6 5
0.26735 0.188275 0.672 124 132 133
-0.789762 -0.0148674 2.383 132 129 126
-0.315705 0.0951508 1.532 3 4 0
-0.22976 -0.859277 3.165 10 10 12
1.01103 -0.810927 2.818 17 16 18
-0.688582 0.337414 1.953 101 102 93
0.0863084 0.0890279 0.957 111 102 97
0.177126 0.160379 0.775 156 153 150
0.924422 -0.815178 2.967 80 81 70
0.25654 0.171984 0.69 159 166 170
-0.0233051 0.193919 1.053 7 11 6
-0.820027 0.194927 2.253 106 104 96
0.110202 0.312636 0.842 13 10 7
0.882586 -1.08608 2.818 122 116 118
-0.337673 -0.367646 1.396 15 17 23
0.25036 0.21237 0.701 87 92 78
0.181469 0.14493 0.794 153 156 159
0.0616166 0.0430919 1.012 129 119 117
-0.363672 0.0425729 1.524 3 7 2
0.19782 0.198733 0.782 81 81 75
-0.664979 0.278392 2.057 109 105 96
-0.698499 -0.231442 2.228 108 101 95
0.219902 0.155827 0.753 98 96 88
0.320379 0.0841256 0.653 43 71 115
0.08865 -0.283933 1.456 207 202 210
-0.122183 -0.677266 3.181 17 20 19
0.664313 -0.240045 1.319 149 158 151
-0.362441 0.182123 1.595 1 4 3
-0.808439 0.500035 1.599 112 115 114
-0.55531 -0.787005 2.151 132 125 117
-0.171311 0.359896 1.339 1 4 3
0.0847576 0.27158 0.975 32 19 23
0.546936 -0.201752 1.194 186 192 192
-0.789905 0.231607 2.151 111 106 102
0.133327 0.113771 0.906 92 88 81
-0.131282 -0.0622262 1.425 35 34 36
0.220247 0.153985 0.75 99 97 87
-0.30573 0.130054 1.532 4 5 1
-1.09997 -0.0460303 2.204 115 120 110
-0.0197604 -0.174636 1.265 198 194 197
1.11117 -0.740136 2.572 61 47 43
0.47731 -0.356715 1.524 143 146 147
-0.40272 -0.128451 1.494 7 10 11
-0.677424 -0.73232 2.085 129 124 122
-0.345875 0.523179 1.567 43 40 35
-0.614834 -0.709996 2.151 126 126 120
-0.362955 -0.922958 2.911 23 21 11
-0.743868 0.419077 1.774 119 120 109
0.146572 0.209535 0.794 116 116 110
0.253507 -0.172169 1.262 94 93 93
-0.0632107 -0.0376674 1.229 108 100 97
0.224884 -0.0426631 0.977 170 165 161
0.00073209 0.411817 1.114 19 15 8
-0.00289466 0.130826 1.114 11 11 13
0.0826678 -0.930924 2.489 90 75 74
-0.592825 -0.706649 2.173 130 123 117
0.424709 -0.353383 1.587 197 196 198
-0.827138 -0.668026 2.044 123 122 124
0.301493 0.0931461 0.714 63 69 69
0.397076 -0.0151067 0.944 164 175 175
-0.362738 0.320748 1.668 1 4 3
-0.7467 0.509167 1.595 105 109 104
0.275214 0.0997446 0.737 138 138 138
0.200865 0.19797 0.779 76 76 70
-0.973821 -0.149114 2.244 101 103 92
-1.02011 -0.531931 2.071 116 118 107
0.156355 0.10774 0.847 106 94 92
0.105112 0.0236437 0.958 162 158 159
-0.0533377 0.0464451 1.232 26 25 27
0.283793 -0.801011 2.707 136 126 126
0.206539 0.32938 0.891 21 25 20
0.0221576 -0.979037 2.519 31 21 21
-0.195716 -0.774561 3.198 18 19 10
-1.02705 -0.479451 2.092 113 113 107
0.392187 0.00894061 0.891 190 198 197
-0.444584 -0.724515 2.857 35 31 32
-0.0135523 0.139413 1.096 10 13 14
0.193312 -0.283221 1.477 212 208 213
-0.738511 0.211437 2.196 111 107 100
0.0779356 0.181069 1.01 4 7 6
0.0108775 -0.876899 2.78 12 13 9
-0.170563 -0.958541 2.519 86 86 90
1.11958 -1.06691 2.78 59 43 38
0.16014 -0.0588966 1.01 176 175 175
-0.728422 -0.623303 2.166 121 119 111
-0.158619 0.342262 1.289 2 5 4
-0.286763 -0.157807 1.473 7 6 6
-0.016176 0.404769 1.156 23 14 5
0.0184425 0.425613 1.089 23 13 11
0.142035 -0.160746 1.222 103 102 104
1.08718 -0.739744 2.615 51 31 32
0.198397 0.243878 0.805 55 55 49
-0.09734 -0.284851 1.473 122 114 111
-0.208461 -0.760429 3.318 20 21 17
0.212147 -0.810643 2.638 141 133 130
-0.145718 0.0746811 1.305 11 14 15
0.275599 0.0590502 0.786 196 196 198
0.261724 -0.168061 1.262 95 94 94
-0.91495 -0.190717 2.261 104 101 96
0.275145 0.0394417 0.831 176 175 175
-0.439617 -0.667382 2.582 119 110 103
0.188614 0.0988346 0.808 119 119 113
-0.803847 -0.604899 2.114 122 119 114
-0.362105 -0.11333 1.487 8 9 5
-0.228599 -0.88568 3.149 8 11 10
-0.713753 -0.762014 2.092 125 125 119
0.112662 0.260432 0.82 100 96 99
0.0527549 -0.00475917 1.032 138 128 128
0.306498 -0.211177 1.313 197 196 196
0.156323 -0.84928 2.638 144 136 135
0.197495 -0.219723 1.313 95 132 151
0.307231 0.240527 0.618 79 82 85
0.551339 -0.272737 1.281 164 166 157
0.232655 0.221477 0.739 81 82 71
0.11191 0.11152 0.924 94 90 83
0.285682 -0.643387 2.768 123 118 116
0.56124 -0.297503 1.366 156 161 151
-0.709914 -0.396077 2.196 116 112 105
0.0477079 -0.0882103 1.11 173 167 169
0.307734 0.0600441 0.694 194 204 207
-0.713711 -0.655045 2.143 122 118 119
0.271017 -0.0216773 0.898 29 36 30
0.136535 0.155145 0.898 98 96 84
0.167222 0.0272909 0.875 173 172 176
0.334672 0.110467 0.671 63 70 74
0.242587 0.297561 0.791 32 38 38
-0.361715 -0.292882 1.419 6 12 10
-0.802195 -0.211613 2.329 119 118 118
-0.983943 0.311579 1.991 103 108 98
-1.10257 0.149589 2.347 111 112 106
-1.03547 -0.220266 2.189 103 105 96
0.0705048 0.132872 1.072 43 41 33
-0.696614 0.548015 1.509 107 121 110
-0.0765349 -0.916752 2.672 4 9 14
0.173118 0.16647 0.774 147 143 144
-1.04834 0.091237 2.32 115 115 109
-0.922817 0.313871 1.985 107 114 106
-0.209727 0.0269653 1.362 1 13 17
-0.777079 -0.325788 2.204 112 107 105
0.346857 0.0537284 0.7 195 206 215
0.23361 0.164643 0.727 166 169 168
-0.914305 -0.0766237 2.374 103 101 93
-0.0259462 0.263051 1.022 3 7 2
-1.13371 -0.0102746 2.228 112 116 111
0.235721 0.176872 0.719 92 91 91
-0.517277 0.489408 1.633 105 106 93
-0.535803 -0.784078 2.143 134 130 123
-0.356513 -0.0676705 1.494 3 6 5
-1.09198 -0.358088 2.099 107 115 112
0.575924 -0.786012 2.844 123 116 108
-0.226395 0.552806 1.502 33 34 28
-0.863589 -0.649669 2.092 125 123 115
0.234665 0.221173 0.734 79 81 70
-1.21032 0.109734 2.312 102 103 97
-0.68833 -0.515696 2.173 115 116 105
0.0707941 -0.00788199 1.002 152 148 149
0.189796 0.204881 0.791 74 76 65
-0.396281 0.0578679 1.535 3 7 2
0.309198 0.13639 0.675 151 154 155
1.13813 -0.689626 2.383 82 48 26
0.484485 -0.399113 1.659 181 182 178
0.377955 0.0247436 0.837 31 30 30
0.326162 0.0707332 0.667 196 206 209
0.212444 0.149263 0.757 92 87 85
-0.281811 -0.915135 2.857 18 20 11
0.314344 -0.991194 2.561 162 159 143
-0.683756 0.479951 1.637 115 117 106
-0.727374 -0.762014 2.092 133 129 122
-0.121568 -0.668709 3.165 19 19 19
-0.501286 0.409628 1.734 53 51 43
-0.525338 -0.648071 2.143 127 120 110
-0.00341954 -0.213801 1.316 199 195 200
0.0429574 0.301147 0.963 28 17 12
0.107668 0.26456 0.833 117 119 125
0.294014 0.0419434 0.827 185 186 182
0.021483 0.395065 1.064 12 12 6
-0.961333 0.0577026 2.338 109 109 103
0.0237278 0.22754 1.012 7 10 9
-0.729917 0.446311 1.734 119 120 116
-0.475301 0.260486 1.682 88 84 77
-0.212096 0.116875 1.137 17 20 21
1.26869 -0.765877 2.519 49 73 85
-0.189548 -0.942797 2.499 75 70 78
0.627309 -0.415324 1.539 151 159 146
0.14977 -0.00431185 0.935 192 188 191
0.112047 0.00810438 0.964 165 159 163
-1.12619 -0.157446 2.158 114 119 109
0.308555 0.0583682 0.701 196 208 210
0.575012 -0.272099 1.278 157 167 155
-0.200466 -0.0791567 1.528 5 13 14
-0.79185 -0.411516 2.128 115 112 109
-0.928388 -0.622341 2.004 116 120 115
0.152479 0.168245 0.826 136 137 133
0.154171 -0.00430724 0.934 193 189 192
-0.0783456 -0.0747462 1.247 153 150 147
0.242868 0.100551 0.752 174 174 178
0.230766 0.205365 0.733 77 77 71
-0.0348589 0.428108 1.217 14 10 11
-0.682167 0.391688 1.794 117 117 113
0.387984 0.0155021 0.783 192 202 209
0.455769 -0.344302 1.535 138 134 137
0.289236 0.0928575 0.73 111 102 109
-0.730777 -0.575811 2.173 122 115 109
-0.516902 -0.833473 2.181 135 131 124
0.573748 -0.2574 1.257 161 169 158
0.202055 -0.00271569 0.91 202 202 204
-0.207645 -0.890814 2.572 15 16 12
-0.612548 -0.738742 2.143 129 127 119
0.112684 -0.0474852 1.012 201 195 197
0.0775498 0.103306 1.005 92 86 73
-0.849326 -0.492565 2.196 118 115 110
-0.82813 0.145211 2.338 103 101 89
0.274358 -0.0324752 0.914 11 18 12
0.919387 -0.887237 2.982 90 90 84
-0.11762 0.206875 1.085 8 11 10
-0.0388789 0.210136 1.057 6 7 3
0.221346 0.0230192 0.875 209 208 217
-1.01083 0.0302724 2.278 129 130 124
-0.883392 -0.0710737 2.449 105 100 96
-0.619127 0.375628 1.859 87 83 72
-0.383973 0.0201461 1.516 1 8 2
-0.686272 -0.263013 2.189 106 102 95
-0.42687 -0.655049 2.329 125 116 109
-0.151942 -0.180674 1.445 79 77 69
0.216235 0.0659626 0.808 187 187 189
0.40789 -0.246376 1.33 162 168 166
-0.654348 0.40753 1.774 109 110 106
-0.320308 -0.117932 1.484 4 7 6
0.0482045 0.329947 0.974 21 22 13
0.313115 0.0489934 0.714 195 208 207
-0.871561 -0.29151 2.189 110 107 102
-0.708913 -0.46208 2.204 120 113 105
-0.344735 -0.600767 3.133 56 56 52
0.239118 0.136181 0.733 156 153 150
0.221521 0.18253 0.742 89 90 81
-0.50281 -0.718553 2.278 129 125 116
0.13783 -0.158497 1.22 107 107 109
-0.876507 -0.380092 2.166 111 112 103
0.0810195 0.282353 0.932 60 19 0
0.182512 0.267129 0.816 64 70 68
-0.120607 0.304557 1.147 0 4 0
0.157242 0.171365 0.809 130 124 126
0.108525 0.272109 0.819 89 86 81
0.536701 -0.771008 2.857 121 114 108
-0.128577 0.0530118 1.348 24 24 28
-0.837577 0.442211 1.729 109 120 116
-0.0401769 -0.974524 2.572 9 19 26
-1.06194 -0.309044 2.114 110 114 107
0.497223 -0.711962 2.844 126 114 114
0.178225 -0.229456 1.345 116 113 127
0.284172 0.250094 0.648 75 81 79
0.141047 0.0634307 0.863 183 179 180
-0.424384 -0.850853 2.236 133 128 124
-0.0257839 0.0932111 1.165 9 12 11
-0.00495738 -0.0951257 1.173 177 173 176
-0.0276099 0.261388 1.022 2 9 3
1.18918 -0.710092 2.44 47 29 9
0.421678 -0.0465104 0.958 111 115 129
-0.31768 0.524616 1.579 39 39 33
0.0289717 -0.0420823 1.085 165 159 163
-0.439378 -0.820883 3.117 37 38 32
0.203697 0.227911 0.795 60 63 62
0.253021 -0.0222808 0.923 124 119 127
0.327758 0.0779878 0.655 193 203 210
0.27442 0.0182975 0.854 102 109 117
0.301769 0.192073 0.634 156 168 170
-0.393436 -0.0240844 1.505 6 7 3
-0.0276803 -0.0508726 1.165 124 121 118
0.0517326 0.211071 1.012 2 5 4
0.0746414 -0.141518 1.194 129 120 125
0.237912 -0.887916 2.638 142 132 132
0.198756 0.28795 0.834 48 49 43
0.0977543 0.0114051 0.978 179 170 173
0.00420624 0.355414 1.075 27 15 13
-0.864093 -0.630531 2.085 121 116 112
0.671307 -0.340499 1.425 194 194 194
0.101253 0.250843 1.013 65 66 53
-0.113269 -0.211953 1.403 153 149 150
-0.0661566 0.199075 1.081 1 8 2
0.648316 -0.775657 2.857 111 103 100
0.278367 0.0964075 0.739 146 146 148
-0.332258 0.205469 1.575 1 4 3
1.08901 -0.893471 2.818 41 31 29
-0.204 -0.792321 3.165 18 19 13
0.207918 0.159138 0.763 116 111 109
-0.18118 -0.028842 1.381 16 33 63
0.226691 0.0794143 0.785 186 186 188
-0.782103 0.54743 1.494 99 113 104
0.280683 0.0514989 0.808 200 203 204
-0.127091 -0.913673 2.638 2 14 30
-0.366297 0.0753535 1.535 3 7 2
-0.192789 -0.0406301 1.4 17 37 61
0.554858 -0.833096 2.831 124 117 111
-0.984514 0.143596 2.312 105 106 100
-0.266566 -0.332153 1.429 8 8 10
-1.00321 -0.465833 2.092 112 113 109
-0.17387 0.0202713 1.359 12 26 48
0.0953757 0.0255184 0.97 150 141 144
-1.00344 0.321442 1.972 105 109 104
0.266283 0.0940554 0.749 133 133 137
0.586788 -0.268568 1.281 156 164 153
0.312556 0.0383644 0.837 135 141 141
0.058149 0.262989 1.009 18 11 3
-0.15212 0.3041 1.189 0 6 6
0.288353 0.230246 0.634 81 89 86
-0.423499 0.361607 1.62 4 7 6
0.230866 -0.0560626 0.989 201 201 203
-0.794146 0.0597264 2.42 115 113 103
-0.200945 -0.926874 2.489 62 62 66
0.19529 0.137145 0.772 168 168 170
0.0586907 0.179355 1.048 1 4 3
1.21129 -0.778175 2.519 49 30 17
0.395272 -0.266293 1.425 166 168 157
0.302801 0.193104 0.634 153 162 172
0.320289 0.167328 0.638 170 183 182
-0.617921 0.406286 1.794 89 90 81
-0.0506921 0.12789 1.089 16 19 22
-0.0936402 -0.862819 2.793 8 14 14
-0.0684512 0.24051 1.062 4 10 8
0.238539 0.206378 0.724 77 81 74
-0.159769 -0.186275 1.452 75 70 66
0.0143362 0.329433 1.048 9 9 9
-0.723566 -0.220152 2.261 105 101 94
-0.402881 -0.614084 3.149 53 57 52
-0.0434862 0.455274 1.237 18 10 7
0.530994 -1.008 2.755 134 129 125
0.143441 -0.853572 2.638 142 134 131
-0.849395 -0.645012 2.099 122 122 118
0.509657 -0.163088 1.141 182 183 174
0.162343 0.00324304 0.92 196 195 197
0.234807 0.229621 0.742 75 82 74
0.149354 0.193374 0.802 111 107 100
0.091106 0.176381 0.975 88 81 75
0.132153 -0.0896922 1.106 122 124 130
-0.689882 -0.197383 2.212 104 99 95
-0.13032 -0.142129 1.39 83 79 82
-0.0832883 0.309931 1.075 1 9 8
0.219688 0.254116 0.792 67 77 63
0.239084 -0.923085 2.604 137 132 128
0.997053 -1.07649 2.982 124 125 112
-0.00601211 0.219214 1.027 6 9 10
-1.01949 -0.557849 1.972 111 118 112
-0.328078 0.0424612 1.52 3 6 7
-0.445183 0.416504 1.682 37 35 27
-0.401904 -0.830364 2.479 9 15 15
-0.801521 -0.38132 2.173 116 109 101
-0.950338 0.347878 1.923 112 115 114
-0.19527 0.0752818 1.354 11 7 8
-0.17915 -0.150079 1.516 25 25 25
0.431924 -0.270053 1.351 168 167 167
-0.345953 0.203422 1.579 0 7 1
-0.105685 0.00253535 1.336 4 7 10
0.443559 -0.0732512 1.004 150 154 149
0.221319 0.0564042 0.822 193 196 197
0.310673 0.126701 0.688 96 97 91
0.499694 -0.323606 1.412 162 172 160
-0.261145 -0.124499 1.505 6 9 8
-0.535733 0.476291 1.7 82 84 75
0.216003 -0.0443889 0.98 158 150 149
0.4608 -0.170106 1.126 155 160 148
-0.298257 -0.403737 1.403 75 68 77
-0.879013 -0.44813 2.121 110 111 102
-0.374696 0.177819 1.603 0 5 3
-0.969351 -0.700099 1.905 114 122 119
-0.954775 -0.611824 1.991 116 118 109
-0.0355048 0.294978 1.059 0 3 2
0.323105 0.045091 0.726 198 205 211
-0.156358 0.566644 1.487 24 25 19
1.22608 -0.755729 2.499 74 45 31
0.378544 -0.00426573 0.925 181 185 180
-0.275681 -0.933036 3.102 19 19 13
-0.112529 0.2161 1.087 6 6 6
-1.02904 0.063161 2.261 116 116 110
0.176201 0.0454986 0.843 153 149 150
-0.657766 -0.562239 2.189 119 117 109
0.0385919 0.349752 1.013 9 12 15
0.395638 -0.00232176 0.778 95 95 91
0.341229 -0.0708791 0.93 14 22 21
-0.369997 -0.901905 2.719 20 17 14
0.452465 -0.293049 1.387 192 196 191
0.105256 0.251883 1.004 72 73 64
0.161265 0.173768 0.79 107 105 95
-0.784329 0.0749175 2.402 114 112 100
-0.618681 0.369904 1.876 91 92 81
-0.170619 -0.111482 1.528 17 16 18
0.319394 -0.0195691 0.937 17 28 28
-0.883915 0.392108 1.837 107 116 107
-0.468061 -0.741692 2.236 130 124 126
1.44222 -1.08608 2.818 93 97 90
0.270505 0.229295 0.661 127 130 133
-0.857384 0.406286 1.794 113 120 112
-0.0579419 0.330825 1.092 0 4 2
-0.457053 0.502637 1.599 79 82 81
-0.516208 0.549468 1.513 108 109 105
-0.0026556 0.223136 1.022 6 12 10
0.357899 -0.0472666 0.942 6 10 5
-0.562596 0.426741 1.758 85 86 75
-0.677539 -0.660849 2.128 124 122 114
0.247289 0.162408 0.702 151 143 140
0.324888 0.144099 0.66 152 165 164
0.263677 -0.896501 2.638 153 145 144
-0.778439 0.547285 1.487 100 114 103
0.336699 -0.790944 2.78 131 123 122
-0.72886 0.569735 1.47 112 121 112
0.364552 -0.130916 1.152 187 187 187
0.20998 0.139408 0.757 126 126 128
0.368999 0.0436072 0.721 191 198 206
0.326419 0.10407 0.672 63 66 67
0.154977 0.0732814 0.847 128 122 124
0.273913 0.179526 0.672 161 176 175
-0.793641 -0.0265011 2.383 143 145 134
-0.246427 -0.326096 1.52 113 104 107
-0.18245 0.0356995 1.357 9 20 31
0.105293 -0.00938916 0.989 189 184 182
0.0532872 0.277757 0.98 64 20 0
0.294862 0.0583682 0.701 199 204 209
-0.44337 -0.711557 3.04 58 57 57
0.982676 -0.907922 2.939 70 56 52
-0.970036 -0.114303 2.278 102 103 92
-0.0969179 0.118203 1.132 14 17 16
-0.320857 -0.41322 1.412 86 81 77
-0.532053 -0.643534 2.128 125 117 114
-0.961474 -0.310953 2.151 110 110 104
-0.0572824 0.0738475 1.189 8 14 12
0.391144 -0.194759 1.262 167 170 171
0.271595 0.07047 0.771 188 188 190
-0.342021 0.000409904 1.516 3 6 5
0.802769 -1.10535 2.844 131 122 115
-0.649278 -0.690331 2.071 127 125 117
0.0472781 0.0933806 1.1 64 61 58
0.232597 -0.178525 1.249 95 95 99
-0.708913 -0.465666 2.204 118 111 105
0.286686 0.055573 0.709 197 202 209
0.212488 0.0854932 0.794 166 160 164
0.402422 -0.0119196 0.935 184 190 190
0.442378 -0.0628163 0.994 195 201 199
-1.09279 -0.0352704 2.204 120 118 108
-0.298399 -0.375924 1.393 16 16 18
0.23015 -0.0636378 1.007 196 196 198
0.289739 0.121167 0.708 103 103 97
-0.790271 -0.631169 2.181 121 117 110
-0.841111 -0.355767 2.212 114 109 105
0.183253 -0.724917 2.719 132 128 119
-0.981919 0.212759 2.173 115 116 110
-0.0700562 0.0845225 1.176 12 18 18
-0.882863 0.446543 1.724 106 113 105
-0.148395 -0.112797 1.48 65 65 59
0.11988 0.197098 0.883 99 96 93
-0.467257 0.536886 1.555 86 90 83
0.104351 -0.065976 1.044 198 194 197
0.250501 -0.233711 1.357 102 118 137
0.135538 0.0447329 0.882 183 182 184
0.119415 -0.0719578 1.057 94 92 99
-0.742904 0.475707 1.65 102 115 112
-0.0878518 -0.100687 1.267 154 149 147
-0.91593 -0.0865414 2.329 104 96 93
-0.142897 0.575692 1.473 22 27 15
-0.334822 0.195217 1.575 0 5 3
-0.0587376 0.285429 1.043 0 3 2
0.226954 0.112788 0.752 174 174 178
0.0712887 0.256421 1.009 43 45 32
-0.756332 -0.658848 2.078 122 122 116
-0.119606 0.191336 1.087 6 7 3
-0.130935 0.259943 1.108 2 5 4
0.234005 0.103409 0.755 186 186 186
0.12197 -0.840694 2.638 140 136 129
-0.874275 -0.644103 2.085 122 120 110
-0.0168549 0.30406 1.079 10 11 5
-0.0759949 0.141197 1.096 17 18 14
-0.275014 -0.225976 1.449 6 7 3
-0.353909 -0.883864 2.54 16 15 15
-0.876209 -0.532374 2.228 111 111 105
-0.831935 -0.201017 2.338 114 114 114
-0.0416402 -0.135081 1.242 170 164 168
0.0678232 -0.892131 2.54 143 143 137
0.189336 -0.619721 2.743 131 121 121
-0.00107934 0.132401 1.112 11 11 13
-0.277971 -0.370609 1.416 16 15 15
-0.64713 0.324652 1.972 98 100 84
-1.04341 -0.391946 2.044 108 114 112
0.379802 0.0104489 0.896 190 198 197
-0.878908 -0.637615 2.064 119 119 113
0.395239 -0.13481 1.122 191 191 185
-0.422893 0.40001 1.659 2 8 6
