ply
format ascii 1.0
comment Created by Open3D
element vertex 1288
property double x
property double y
property double z
property uchar red
property uchar green
property uchar blue
end_header
-0.23288 0.383704 1.227 255 255 255
-0.538806 -0.0487329 1.116 255 255 255
-0.343677 0.180847 1.037 255 255 255
-0.237466 -0.465763 1.273 255 255 255
-0.0736342 -0.0739389 0.844 255 255 255
-0.46915 0.405959 1.466 255 255 255
-0.239531 -0.0689737 0.905 255 255 255
-0.556602 -0.0327943 1.13 255 255 255
0.335473 -0.322515 1.044 255 255 255
-0.656237 0.350348 1.547 255 255 255
-0.133339 0.0333487 0.848 255 255 255
-0.249895 -0.191442 0.95 255 255 255
-0.887714 0.354211 1.739 255 255 255
0.0632902 0.0732131 0.787 255 255 255
-0.105566 -0.387579 1.21 255 255 255
-0.507565 0.396374 1.502 255 255 255
-0.00757163 -0.268164 1.012 255 255 255
-0.157258 -0.0570142 0.858 255 255 255
-0.183464 0.182728 0.975 255 255 255
0.0726251 0.283402 0.791 255 255 255
-0.248025 0.200443 0.992 255 255 255
0.111395 -0.20853 0.972 255 255 255
-0.0667792 -0.183504 0.941 255 255 255
-0.104226 -0.159945 0.92 255 255 255
-0.501571 0.108289 1.106 255 255 255
0.336806 -0.413351 1.11 255 255 255
0.147228 0.199991 0.777 255 255 255
0.363739 -0.391354 1.104 0 0 0
-0.349321 0.027935 1 255 255 255
0.238654 -0.145145 0.77 255 255 255
-0.145064 -0.0177939 0.852 255 255 255
-0.311838 -0.00906638 0.955 255 255 255
0.150136 -0.25253 0.977 255 255 255
0.225975 0.19079 0.55 255 255 255
-0.530253 -0.213107 1.102 255 255 255
0.128952 0.280117 0.789 255 255 255
0.118399 -0.374914 1.048 255 255 255
-0.301515 0.221039 1.02 255 255 255
0.336392 -0.109466 0.822 255 255 255
0.107333 0.167622 0.81 255 255 255
-0.1086 0.0796101 0.871 255 255 255
0.386969 -0.0963605 0.813 255 255 255
0.0594224 0.128438 0.804 255 255 255
-0.0147425 0.169247 0.781 255 255 255
0.361106 -0.0162988 0.724 255 255 255
-0.125192 -0.207854 0.92 255 255 255
-0.43366 0.52036 1.459 255 255 255
0.0865444 -0.129383 0.895 255 255 255
0.489119 -0.352934 1.064 255 255 255
-0.316346 -0.126808 0.964 255 255 255
-0.476184 -0.291378 1.149 255 255 255
-0.12922 0.446471 1.192 255 255 255
-0.519583 -0.296402 1.154 255 255 255
-0.338039 -0.285476 1.015 0 0 0
-0.177096 -0.428146 1.242 255 255 255
0.211001 0.11366 0.459 255 255 255
0.0674538 -0.123281 0.893 255 255 255
-0.112227 -0.140745 0.912 255 255 255
0.467858 -0.344382 1.059 255 255 255
0.0770207 -0.113664 0.886 255 255 255
0.0639002 0.113719 0.811 255 255 255
-0.203231 -0.0243261 0.888 255 255 255
-0.0239628 0.115715 0.887 255 255 255
-0.175404 0.152879 0.957 255 255 255
0.136855 -0.0652438 0.821 255 255 255
0.224444 0.121683 0.45 255 255 255
-0.448896 -0.403685 1.217 255 255 255
-0.572751 -0.224278 1.122 255 255 255
0.211218 0.172125 0.744 255 255 255
-0.0179823 0.110129 0.877 255 255 255
-0.135323 -0.28563 0.96 255 255 255
0.416487 -0.189947 0.906 255 255 255
0.337613 -0.258475 1 255 255 255
-0.190833 -0.0677999 0.871 255 255 255
0.207433 -0.105197 0.82 255 255 255
0.00188282 -0.0158682 0.824 255 255 255
0.406076 -0.430806 1.137 255 255 255
-0.573309 -0.00341699 1.145 255 255 255
-0.174316 -0.479113 1.281 255 255 255
-0.104706 -0.106435 0.874 255 255 255
0.23351 0.115549 0.695 255 255 255
0.37312 -0.141522 0.854 0 0 0
0.120874 0.231792 0.795 255 255 255
0.142894 -0.0964403 0.825 255 255 255
-0.0598955 -0.0560839 0.844 255 255 255
-0.554448 -0.391028 1.227 255 255 255
0.0494239 -0.17205 0.937 0 0 0
0.275463 0.300175 0.812 255 255 255
-0.0756302 -0.085631 0.851 255 255 255
-0.619772 0.478603 1.563 255 255 255
0.234026 0.183643 0.732 255 255 255
0.454939 -0.365106 1.09 255 255 255
0.084708 0.127762 0.808 255 255 255
-0.779807 0.479219 1.599 255 255 255
0.156536 0.195187 0.773 255 255 255
-0.752061 0.491211 1.579 255 255 255
0.304186 0.0459557 0.686 255 255 255
-0.198309 -0.0412446 0.879 255 255 255
-0.196448 -0.339504 1.044 255 255 255
-0.103845 -0.210113 0.93 255 255 255
-0.466657 -0.0506857 1.044 255 255 255
-0.111778 0.0612357 0.852 255 255 255
-0.746236 0.252882 1.583 255 255 255
-0.131094 -0.158033 0.909 255 255 255
0.201574 -0.0224046 0.772 255 255 255
-0.423084 -0.380853 1.189 255 255 255
0.103453 0.0820476 0.762 255 255 255
0.272228 -0.298859 0.999 255 255 255
0.248317 0.0954908 0.689 255 255 255
0.20478 -0.00963767 0.756 255 255 255
-0.538817 0.0728505 1.143 255 255 255
-0.0184803 0.0627315 0.835 255 255 255
-0.281126 -0.249945 0.967 255 255 255
-0.582835 -0.44295 1.267 255 255 255
-0.139352 -0.00669419 0.851 255 255 255
0.233599 -0.00342181 0.742 255 255 255
0.0344373 0.217548 0.772 255 255 255
-0.13123 -0.441665 1.229 255 255 255
-0.371401 0.0746759 1.039 255 255 255
0.150275 -0.359676 1.01 255 255 255
0.22383 -0.0170643 0.758 255 255 255
0.539855 -0.39854 1.104 255 255 255
-0.0699961 -0.396768 1.208 255 255 255
0.0797412 0.251871 0.785 255 255 255
-0.0077512 -0.281267 1.036 255 255 255
-0.77558 0.392802 1.686 255 255 255
0.492938 -0.336329 1.05 255 255 255
-0.0358742 -0.0642192 0.861 255 255 255
-0.454357 0.45078 1.48 255 255 255
0.178343 0.216537 0.764 255 255 255
0.0922837 0.10597 0.783 255 255 255
0.210451 0.240246 0.806 255 255 255
-0.596876 0.0365854 1.173 255 255 255
-0.129511 -0.128371 0.888 255 255 255
0.20444 0.231511 0.803 255 255 255
0.458488 -0.368653 1.09 255 255 255
0.238486 0.0676868 0.703 255 255 255
-0.214767 -0.0920262 0.9 255 255 255
0.455729 -0.309671 1.024 255 255 255
0.186873 0.132783 0.734 255 255 255
0.301059 0.0648946 0.674 255 255 255
0.208985 -0.343999 1.032 255 255 255
0.0393951 0.0481433 0.796 255 255 255
-0.43158 0.534404 1.452 255 255 255
0.417386 -0.155143 0.868 255 255 255
0.353048 -0.0685307 0.768 255 255 255
-0.227997 -0.0144986 0.906 255 255 255
-0.0695949 0.0112292 0.845 255 255 255
0.238579 -0.25995 0.981 255 255 255
0.489725 -0.303645 1.015 255 255 255
-0.435155 0.066923 1.05 255 255 255
-0.44673 0.232188 1.122 255 255 255
-0.5694 -0.509507 1.322 255 255 255
-0.000755152 0.186321 0.778 255 255 255
-0.170943 0.256784 1.004 255 255 255
0.265476 -0.277393 0.992 255 255 255
0.0638214 0.120169 0.81 255 255 255
-0.178024 -0.182872 0.93 255 255 255
-0.418337 -0.350415 1.165 255 255 255
0.257031 -0.10313 0.784 255 255 255
-0.619205 0.0694162 1.213 255 255 255
0.272226 0.207804 0.729 255 255 255
0.0404443 -0.220255 0.941 255 255 255
0.391178 -0.123091 0.842 255 255 255
0.17515 0.0254888 0.74 255 255 255
0.219409 0.0191257 0.727 255 255 255
0.0853705 -0.283682 0.964 255 255 255
0.160342 -0.103538 0.839 255 255 255
-0.795196 0.497608 1.583 255 255 255
-0.491932 0.558505 1.435 255 255 255
-0.282025 -0.430702 1.215 255 255 255
0.201903 -0.080574 0.788 255 255 255
0.240734 0.0971729 0.693 255 255 255
0.333545 0.021708 0.696 255 255 255
0.036295 0.144564 0.785 255 255 255
0.204913 -0.116507 0.854 255 255 255
-0.276315 0.28976 1.098 255 255 255
-0.502445 -0.167962 1.077 255 255 255
-0.126139 -0.192044 0.916 255 255 255
0.0616092 -0.100515 0.872 255 255 255
0.263929 0.240762 0.778 255 255 255
0.117833 -0.188771 0.96 255 255 255
-0.158839 0.169163 0.97 255 255 255
0.0924039 0.299066 0.795 255 255 255
-0.211264 0.444993 1.265 255 255 255
0.11784 0.192252 0.792 255 255 255
-0.146233 -0.198006 0.93 255 255 255
0.221653 -0.270663 0.991 255 255 255
0.0925397 -0.224 0.957 255 255 255
0.118692 -0.284565 0.967 255 255 255
-0.559976 -0.319741 1.192 255 255 255
0.151754 -0.145255 0.868 255 255 255
-0.469055 0.184546 1.11 255 255 255
-0.0655248 0.132509 0.945 255 255 255
0.135698 0.00396217 0.769 255 255 255
0.274849 0.0861158 0.677 255 255 255
-0.136785 0.0660859 0.861 255 255 255
0.0122706 -0.122373 0.897 0 0 0
-0.229876 0.335703 1.171 255 255 255
-0.0231253 -0.0624533 0.856 255 255 255
-0.123677 0.0457685 0.848 255 255 255
0.359595 -0.330907 1.06 255 255 255
-0.532642 -0.392621 1.232 255 255 255
0.318562 0.072904 0.667 255 255 255
-0.0580095 0.0983713 0.9 255 255 255
-0.0300735 0.11556 0.897 255 255 255
0.180438 0.0361795 0.737 255 255 255
-0.357323 -0.497562 1.302 255 255 255
-0.378132 -0.504112 1.308 255 255 255
0.012797 0.0940969 0.836 255 255 255
-0.274689 -0.213989 0.961 255 255 255
0.243051 0.200059 0.525 255 255 255
0.236391 0.250578 0.814 255 255 255
-0.0825394 0.42772 1.137 255 255 255
0.0673714 0.24614 0.775 255 255 255
0.133227 0.0370631 0.755 255 255 255
-0.350493 0.483782 1.449 255 255 255
-0.595011 0.496535 1.532 255 255 255
-0.445964 0.543585 1.445 255 255 255
-0.163239 0.452329 1.229 255 255 255
0.138634 0.0613093 0.751 255 255 255
-0.508587 -0.436764 1.267 255 255 255
-0.0990631 0.0569422 0.85 255 255 255
-0.233197 0.109441 0.945 255 255 255
0.0426898 -0.234902 0.957 255 255 255
-0.0532147 -0.0273379 0.847 255 255 255
0.19272 0.0369731 0.729 255 255 255
-0.0825049 0.249415 0.88 255 255 255
0.00804733 0.212523 0.772 255 255 255
0.196273 0.197191 0.786 255 255 255
0.0958195 0.143106 0.813 255 255 255
0.165366 0.0778383 0.734 255 255 255
-0.55864 -0.507356 1.322 255 255 255
-0.0245473 -0.0639208 0.857 255 255 255
0.262905 0.186174 0.522 255 255 255
-0.192251 -0.0536258 0.871 255 255 255
-0.0813205 -0.433557 1.201 0 0 0
-0.0195648 0.118201 0.884 255 255 255
0.0139716 0.0807758 0.825 255 255 255
0.00413581 -0.295569 1.057 255 255 255
0.303293 0.0565364 0.679 255 255 255
0.177872 -0.0706975 0.807 255 255 255
0.130774 -0.117483 0.851 255 255 255
-0.780899 0.464752 1.612 255 255 255
-0.18435 0.260233 1.024 255 255 255
0.159053 0.264373 0.773 255 255 255
0.173727 -0.213321 0.958 255 255 255
-0.267736 -0.433183 1.222 255 255 255
-0.123791 0.174669 0.932 255 255 255
0.203817 0.0926733 0.47 255 255 255
0.449123 -0.218617 0.934 255 255 255
0.132356 -0.364661 1.024 255 255 255
0.118226 0.208703 0.786 0 0 0
0.0812254 0.00533562 0.787 255 255 255
-0.0197197 -0.149104 0.891 255 255 255
0.216331 -0.328962 1.027 255 255 255
-0.402497 0.0187525 1.032 255 255 255
-0.588126 0.0994174 1.194 255 255 255
0.297551 0.0617869 0.676 255 255 255
-0.00454274 0.195945 0.776 255 255 255
-0.221925 -0.331845 1.036 255 255 255
0.514888 -0.355057 1.06 255 255 255
-0.00953487 -0.144267 0.888 255 255 255
-0.699177 0.563706 1.473 255 255 255
0.012339 -0.16122 0.902 255 255 255
-0.330726 -0.196279 0.974 255 255 255
0.136189 0.0503101 0.751 255 255 255
-0.0857952 0.0125596 0.842 255 255 255
0.285883 -0.311085 1.007 255 255 255
-0.484548 0.128712 1.096 255 255 255
-0.0987087 0.287951 0.884 255 255 255
-0.404176 -0.184455 1.032 255 255 255
-0.195095 -0.177198 0.932 0 0 0
-0.303323 0.111372 1.004 255 255 255
0.00877701 0.0975126 0.842 255 255 255
-0.463226 -0.23072 1.092 255 255 255
0.0492656 -0.15934 0.934 255 255 255
-0.547196 -0.0945758 1.1 255 255 255
0.248715 0.118691 0.687 255 255 255
0.209365 0.0296914 0.725 255 255 255
0.323543 -0.271458 1.012 255 255 255
-0.574055 -0.112476 1.1 255 255 255
-0.00447559 -0.304745 1.059 255 255 255
0.0667866 0.308863 0.814 255 255 255
-0.871636 0.258361 1.686 255 255 255
0.0858613 0.144162 0.819 255 255 255
0.474041 -0.256747 0.963 255 255 255
-0.530399 -0.492204 1.316 255 255 255
0.408627 -0.23662 0.964 255 255 255
0.334672 0.0678816 0.671 255 255 255
-0.36793 0.0591726 1.034 255 255 255
-0.769806 0.441575 1.633 255 255 255
-0.257797 0.255224 1.073 255 255 255
0.176734 -0.144104 0.887 255 255 255
-0.404718 0.513314 1.466 255 255 255
-0.869568 0.419241 1.682 255 255 255
-0.101671 -0.198232 0.924 255 255 255
0.213708 0.0854615 0.46 255 255 255
-0.0356659 0.312262 0.856 255 255 255
-0.260835 0.249698 1.057 255 255 255
0.315144 0.00373032 0.724 255 255 255
-0.440782 0.10496 1.072 255 255 255
-0.460293 0.172456 1.102 255 255 255
0.123344 0.288006 0.786 255 255 255
0.0362805 0.248141 0.758 255 255 255
0.221677 0.0306157 0.719 255 255 255
0.315938 -0.145012 0.804 255 255 255
0.357957 -0.13964 0.851 255 255 255
0.0394128 -0.134055 0.917 255 255 255
0.195741 0.127968 0.727 255 255 255
-0.0899569 -0.281188 0.994 255 255 255
-0.566455 -0.468427 1.286 255 255 255
0.205875 0.0971929 0.466 255 255 255
-0.310396 0.353645 1.18 255 255 255
-0.0324993 0.210917 0.78 255 255 255
0.00884998 0.331814 0.849 255 255 255
0.254037 0.164788 0.511 255 255 255
0.376832 -0.278037 1.018 255 255 255
-0.449232 0.0308335 1.043 255 255 255
0.215675 0.0715235 0.707 255 255 255
-0.0980907 -0.391158 1.215 255 255 255
-0.274536 0.275455 1.077 255 255 255
-0.0273954 0.128372 0.905 255 255 255
-0.172708 0.181513 0.977 255 255 255
-0.112732 0.242202 0.941 255 255 255
-0.163166 0.214901 0.977 255 255 255
-0.0575961 -0.29251 0.994 255 255 255
0.264424 0.0554466 0.693 255 255 255
0.152287 0.260684 0.777 255 255 255
0.0639002 0.16123 0.811 255 255 255
-0.487332 -0.403665 1.229 255 255 255
0.0213363 -0.184863 0.91 255 255 255
-0.379374 0.0252726 1.024 255 255 255
0.202569 -0.110429 0.85 255 255 255
-0.429756 -0.210556 1.062 255 255 255
0.0106291 0.16838 0.777 255 255 255
0.0328919 -0.049631 0.828 255 255 255
-0.0989832 0.176749 0.927 255 255 255
0.133271 -0.239671 0.97 0 0 0
-0.0533288 0.219532 0.807 255 255 255
-0.124635 0.201232 0.95 255 255 255
-0.0776895 -0.159309 0.925 0 0 0
0.109965 -0.0165199 0.791 255 255 255
-0.0737214 -0.0038968 0.845 255 255 255
0.0222673 0.185679 0.786 255 255 255
-0.529418 -0.218883 1.104 255 255 255
-0.476039 0.513399 1.48 255 255 255
0.542699 -0.443988 1.152 255 255 255
0.034157 0.105069 0.826 255 255 255
-0.0635315 0.212393 0.82 255 255 255
-0.228523 -0.103869 0.914 255 255 255
-0.412247 0.0690893 1.057 255 255 255
-0.390859 0.125614 1.055 255 255 255
0.345142 -0.388852 1.102 255 255 255
-0.0842377 0.0460923 0.854 255 255 255
0.20395 -0.0816486 0.786 255 255 255
0.406855 -0.180102 0.901 255 255 255
-0.0467037 0.153102 0.854 255 255 255
0.0263049 0.198696 0.792 255 255 255
-0.0379136 0.147189 0.844 255 255 255
-0.0396599 -0.0455236 0.852 255 255 255
-0.0315499 0.172046 0.788 255 255 255
0.188533 -0.158284 0.902 255 255 255
-0.0169311 0.252923 0.765 255 255 255
-0.408498 -0.484037 1.283 255 255 255
-0.511496 -0.235904 1.108 255 255 255
-0.0767439 0.0305887 0.848 255 255 255
-0.166072 0.0486496 0.875 255 255 255
-0.302698 0.236903 1.024 255 255 255
0.00457098 -0.0212577 0.825 255 255 255
0.0328173 -0.331115 1.039 255 255 255
-0.0715754 0.212456 0.836 255 255 255
-0.659145 -0.445012 1.267 255 255 255
-0.184524 -0.0463785 0.868 255 255 255
0.106907 0.0327447 0.769 255 255 255
-0.50062 0.208998 1.145 255 255 255
0.184695 -0.0212305 0.775 255 255 255
-0.0622374 0.0730227 0.877 255 255 255
0.331834 -0.0175494 0.727 255 255 255
0.131531 -0.428298 1.116 255 255 255
-0.133471 -0.416175 1.213 255 255 255
-0.61937 0.120332 1.229 255 255 255
0.32541 -0.327733 1.039 255 255 255
-0.112233 -0.242643 0.963 255 255 255
-0.166577 -0.221578 0.96 255 255 255
-0.543064 0.118828 1.156 255 255 255
-0.617082 0.0552319 1.205 255 255 255
-0.244922 -0.248372 0.967 255 255 255
-0.366956 0.136839 1.036 255 255 255
0.104836 0.217899 0.801 255 255 255
0.353234 -0.0631179 0.763 255 255 255
0.157579 -0.0547342 0.804 255 255 255
0.222995 0.14039 0.712 255 255 255
-0.568709 0.0245752 1.147 255 255 255
-0.32215 0.10785 1.017 255 255 255
-0.57926 0.0692126 1.176 255 255 255
-0.533623 -0.503815 1.324 255 255 255
0.131795 -0.0112561 0.783 255 255 255
0.483614 -0.24581 0.951 255 255 255
0.532875 -0.440195 1.147 255 255 255
0.0628759 0.191111 0.798 255 255 255
-0.23477 0.00174779 0.921 255 255 255
-0.10686 -0.236459 0.957 0 0 0
0.0780639 -0.129817 0.898 255 255 255
0.291219 0.0197221 0.706 255 255 255
0.380796 -0.356814 1.081 255 255 255
-0.28398 -0.296847 0.966 255 255 255
0.298243 -0.26106 1.01 255 255 255
0.167575 -0.115252 0.855 255 255 255
-0.489719 0.203837 1.137 255 255 255
0.452653 -0.234976 0.951 255 255 255
-0.386189 -0.140658 1.007 255 255 255
-0.424181 0.497882 1.484 255 255 255
-0.148469 -0.138642 0.889 255 255 255
0.101993 -0.269445 0.958 255 255 255
0.0692933 -0.128355 0.898 255 255 255
-0.102101 -0.0953752 0.864 255 255 255
0.121444 0.220366 0.782 0 0 0
-0.259755 0.271396 1.096 255 255 255
0.127739 -0.275838 0.964 255 255 255
-0.0885778 0.191678 0.898 255 255 255
0.308312 -0.25522 1 255 255 255
-0.317756 -0.214592 0.978 255 255 255
0.168111 0.180454 0.78 255 255 255
0.223812 0.182669 0.558 255 255 255
-0.178247 -0.157859 0.908 255 255 255
0.00289155 0.237111 0.739 255 255 255
-0.321694 -0.476115 1.262 255 255 255
-0.319075 -0.287079 0.992 255 255 255
-0.470358 -0.151511 1.06 255 255 255
-0.0699148 0.270813 0.866 255 255 255
-0.416806 -0.163984 1.03 255 255 255
-0.464623 0.248681 1.139 255 255 255
0.511898 -0.389227 1.098 255 255 255
0.0648175 0.0104983 0.79 255 255 255
-0.29656 -0.237111 0.966 255 255 255
0.103476 -0.0701798 0.832 255 255 255
0.088983 0.188945 0.811 255 255 255
0.311079 0.0152551 0.712 255 255 255
-0.308317 0.0539183 0.999 255 255 255
0.348254 -0.343731 1.057 255 255 255
0.163374 -0.0437167 0.794 255 255 255
-0.5133 -0.235904 1.108 255 255 255
0.055745 0.0695473 0.789 255 255 255
-0.0316696 -0.0670214 0.861 255 255 255
0.268548 0.0519882 0.692 255 255 255
0.140897 0.211999 0.784 255 255 255
-0.0260838 0.249625 0.778 255 255 255
-0.0861118 0.0684276 0.873 255 255 255
0.0764879 -0.00493499 0.791 255 255 255
-0.598116 -0.0552979 1.139 255 255 255
-0.184593 0.210991 0.981 255 255 255
0.211964 0.0109486 0.734 255 255 255
-0.156265 0.00164722 0.868 255 255 255
-0.0265399 0.0327195 0.832 255 255 255
0.225225 0.179622 0.557 255 255 255
-0.46915 0.522857 1.466 255 255 255
-0.854977 0.435106 1.659 255 255 255
0.283672 0.0503476 0.685 255 255 255
0.234247 -0.117883 0.772 255 255 255
0.0408303 0.111654 0.825 255 255 255
-0.339387 0.538695 1.432 255 255 255
-0.141234 -0.0539689 0.854 255 255 255
-0.261826 -0.154778 0.916 255 255 255
0.14014 0.0827528 0.746 255 255 255
0.0217088 0.0703398 0.813 255 255 255
-0.111354 -0.319217 1.012 255 255 255
0.0740774 -0.196582 0.96 255 255 255
-0.661657 0.567846 1.459 255 255 255
0.193978 -0.118863 0.861 255 255 255
-0.1545 0.0798843 0.874 255 255 255
0.0830612 -0.0633339 0.831 255 255 255
-0.466764 0.405959 1.466 255 255 255
0.0533112 0.0735852 0.791 255 255 255
-0.0417769 0.140999 0.93 255 255 255
0.0380855 -0.173608 0.921 255 255 255
0.292804 -0.0731575 0.791 255 255 255
0.258622 0.164949 0.708 255 255 255
0.131062 0.181109 0.794 255 255 255
0.165619 0.00266846 0.757 255 255 255
-0.31362 -0.275632 0.98 255 255 255
0.225836 0.0544959 0.71 255 255 255
0.219753 0.0819294 0.457 255 255 255
0.206112 0.0926733 0.47 255 255 255
-0.459331 0.176362 1.104 255 255 255
0.14102 -0.285154 0.969 255 255 255
-0.19653 -0.099018 0.897 255 255 255
-0.241636 -0.331752 1.041 0 0 0
0.00802648 0.214479 0.77 255 255 255
0.1858 -0.225639 0.964 255 255 255
-0.764423 0.452756 1.616 255 255 255
-0.805217 0.254146 1.624 255 255 255
-0.139854 -0.423489 1.217 255 255 255
0.0497926 0.334864 0.864 255 255 255
0.221408 -0.304395 1.012 0 0 0
0.0176295 0.0593881 0.808 255 255 255
-0.530115 -0.083683 1.098 255 255 255
-0.0832549 0.082609 0.888 255 255 255
-0.584388 -0.134688 1.106 255 255 255
-0.551285 -0.366958 1.22 255 255 255
-0.458214 0.188159 1.11 255 255 255
-0.26522 0.118037 0.978 255 255 255
0.453022 -0.189064 0.888 255 255 255
-0.0164552 -0.217088 0.954 255 255 255
0.0776771 -0.00107199 0.79 255 255 255
-0.473869 -0.393135 1.215 255 255 255
-0.442524 0.212785 1.116 255 255 255
-0.530672 0.003941 1.118 255 255 255
-0.354561 0.0432196 1.015 255 255 255
-0.0548512 -0.0399307 0.851 255 255 255
0.0808126 0.230842 0.783 255 255 255
0.0608052 0.0733062 0.788 255 255 255
-0.505199 0.158019 1.114 255 255 255
-0.852211 0.457519 1.633 255 255 255
-0.191716 0.272633 1.046 255 255 255
-0.0663982 -0.0918133 0.857 255 255 255
-0.329797 0.0545119 1.01 255 255 255
-0.58955 -0.38586 1.217 255 255 255
0.361181 -0.15407 0.862 255 255 255
-0.256974 0.389959 1.247 255 255 255
0.171328 0.16101 0.766 255 255 255
0.376041 -0.0897243 0.801 255 255 255
-0.277949 -0.450762 1.232 255 255 255
0.231226 -0.390237 1.081 255 255 255
0.311547 -0.105197 0.82 255 255 255
0.135449 -0.0296151 0.797 255 255 255
-0.0802432 -0.110322 0.871 255 255 255
-0.205062 0.000242265 0.896 255 255 255
0.155499 -0.209298 0.961 255 255 255
0.227668 -0.136551 0.771 255 255 255
0.0420921 0.0677434 0.798 255 255 255
0.289306 -0.159603 0.792 255 255 255
0.269962 0.0695002 0.687 255 255 255
0.271803 0.0682827 0.686 255 255 255
0.0937967 -0.190737 0.97 255 255 255
0.252069 0.128753 0.687 0 0 0
0.0506065 -0.0859329 0.854 255 255 255
-0.143137 0.209599 0.96 255 255 255
0.17828 0.133507 0.738 255 255 255
-0.160219 -0.491205 1.302 255 255 255
-0.541825 -0.0927858 1.1 255 255 255
-0.233206 -0.424289 1.208 255 255 255
0.180904 -0.226972 0.963 255 255 255
-0.335267 0.233331 1.053 255 255 255
-0.0520498 -0.284633 1.012 255 255 255
-0.248802 -0.0463132 0.923 255 255 255
0.103626 -0.391712 1.09 255 255 255
0.158463 -0.22314 0.96 255 255 255
-0.622929 -0.475276 1.299 255 255 255
-0.423117 -0.479862 1.283 255 255 255
0.0093522 0.290655 0.776 255 255 255
-0.0242599 0.124457 0.898 255 255 255
-0.303747 -0.116177 0.954 255 255 255
0.0117408 0.216139 0.767 255 255 255
-0.0324828 -0.187707 0.924 255 255 255
-0.20397 0.164803 0.945 0 0 0
-0.00326266 0.212523 0.772 255 255 255
-0.0971587 0.200236 0.924 255 255 255
-0.119477 0.093109 0.878 255 255 255
-0.0749179 -0.13911 0.892 255 255 255
0.251615 0.174632 0.518 255 255 255
-0.0232011 0.277028 0.81 255 255 255
-0.527975 0.0148837 1.12 255 255 255
-0.195136 -0.172857 0.925 0 0 0
-0.631724 0.0296904 1.203 255 255 255
-0.272246 0.197214 0.992 0 0 0
0.0235467 0.183121 0.786 255 255 255
-0.30934 0.155231 1.013 255 255 255
0.224716 0.199588 0.761 255 255 255
-0.116288 0.201711 0.945 255 255 255
-0.546221 -0.369548 1.222 255 255 255
0.0541873 -0.0194082 0.804 255 255 255
-0.773582 0.512495 1.535 255 255 255
-0.0647215 0.289718 0.872 255 255 255
-0.597439 -0.345608 1.201 255 255 255
0.130354 0.289085 0.782 255 255 255
0.171713 0.0123416 0.746 255 255 255
0.263507 0.0199735 0.715 255 255 255
-0.456633 -0.428527 1.249 255 255 255
0.0481608 0.0594259 0.791 255 255 255
-0.183598 0.118523 0.92 255 255 255
-0.424647 0.233738 1.112 255 255 255
-0.748981 0.556037 1.491 255 255 255
0.310387 -0.429859 1.106 255 255 255
-0.168601 -0.429128 1.239 255 255 255
-0.438056 -0.190644 1.057 255 255 255
-0.332664 -0.421274 1.205 255 255 255
0.406869 -0.382371 1.104 255 255 255
0.0295325 -0.375865 1.106 255 255 255
-0.0825394 0.429571 1.137 255 255 255
0.273048 0.0906563 0.678 255 255 255
0.0753275 0.0509182 0.779 255 255 255
-0.108707 -0.032541 0.839 255 255 255
0.224125 0.171153 0.568 255 255 255
-0.0474802 -0.285223 1.02 255 255 255
-0.659055 0.514998 1.513 255 255 255
0.266642 0.198535 0.521 255 255 255
-0.606054 0.469628 1.567 255 255 255
-0.179286 0.291593 1.053 255 255 255
0.240387 0.103789 0.692 255 255 255
0.0588178 -0.135548 0.917 255 255 255
0.203663 -0.031522 0.78 255 255 255
-0.178146 -0.212653 0.955 255 255 255
0.236419 -0.15996 0.775 255 255 255
-0.241123 0.0978581 0.952 255 255 255
0.215486 0.132651 0.714 255 255 255
0.189914 -0.220245 0.961 255 255 255
-0.0124958 -0.153798 0.893 255 255 255
0.144554 0.100284 0.75 255 255 255
-0.639175 0.543766 1.484 255 255 255
-0.067582 0.156835 0.891 255 255 255
-0.676554 0.497675 1.559 255 255 255
0.114049 0.116238 0.775 255 255 255
-0.542494 0.0522067 1.139 255 255 255
0.364816 -0.0914823 0.805 255 255 255
0.0605045 0.182705 0.801 255 255 255
0.221741 0.171455 0.569 255 255 255
0.161758 -0.179754 0.892 255 255 255
-0.120773 -0.0466348 0.847 255 255 255
0.477338 -0.27732 0.986 255 255 255
-0.807852 0.472591 1.603 255 255 255
-0.429802 -0.130334 1.029 255 255 255
0.0878502 -0.320979 0.992 255 255 255
-0.315 0.0840968 1.01 255 255 255
-0.462109 -0.147083 1.053 255 255 255
0.0181967 0.0965861 0.834 255 255 255
0.0428419 0.244209 0.765 255 255 255
-0.575099 -0.191587 1.102 255 255 255
-0.0222272 0.194682 0.776 255 255 255
0.108414 0.0845277 0.762 255 255 255
0.249877 -0.230106 0.963 255 255 255
-0.154139 -0.077097 0.864 255 255 255
-0.138057 0.101682 0.878 255 255 255
-0.149543 -0.279672 0.961 255 255 255
-0.273693 -0.208166 0.963 255 255 255
-0.85561 0.431364 1.655 255 255 255
0.284335 -0.407589 1.124 255 255 255
-0.397406 -0.280962 1.087 255 255 255
0.00433274 0.200005 0.782 255 255 255
-0.17879 -0.188218 0.934 255 255 255
-0.0304438 -0.101233 0.866 255 255 255
0.112283 0.0908469 0.763 255 255 255
0.0460269 -0.154117 0.93 255 255 255
-0.0117253 -0.326681 1.092 255 255 255
0.238538 0.235559 0.799 255 255 255
-0.482662 -0.188116 1.072 255 255 255
-0.340899 0.19396 1.044 255 255 255
0.144893 -0.038791 0.799 255 255 255
0.00814115 0.184498 0.781 255 255 255
-0.349695 0.193366 1.05 255 255 255
-0.0104306 -0.363032 1.145 255 255 255
0.266636 0.304237 0.834 255 255 255
-0.509916 -0.508124 1.324 255 255 255
0.196523 -0.0804718 0.787 255 255 255
0.198811 -0.158284 0.902 255 255 255
0.453284 -0.197477 0.9 255 255 255
0.00722168 -0.0118023 0.821 255 255 255
0.140891 0.0380382 0.75 255 255 255
0.115249 0.0791499 0.758 255 255 255
0.147228 0.220222 0.777 255 255 255
-0.178567 0.342349 1.124 255 255 255
0.397314 -0.182576 0.906 255 255 255
-0.29903 -0.404504 1.196 255 255 255
-0.894551 0.332333 1.758 255 255 255
-0.426267 0.114 1.075 255 255 255
-0.00818515 -0.33262 1.094 255 255 255
0.546449 -0.443988 1.152 255 255 255
0.054162 -0.13213 0.914 255 255 255
0.37429 -0.315223 1.048 255 255 255
-0.261768 0.129046 0.977 255 255 255
-0.372116 -0.260602 1.041 255 255 255
-0.219458 0.486238 1.327 255 255 255
0.0380058 0.12195 0.822 255 255 255
0.211001 0.114407 0.459 255 255 255
-0.033143 -0.287154 1.039 255 255 255
0.183526 -0.0690404 0.803 255 255 255
0.2443 0.217548 0.772 255 255 255
-0.498012 -0.1659 1.075 255 255 255
-0.783846 0.547918 1.502 255 255 255
0.330905 -0.112551 0.825 255 255 255
-0.038055 0.0932151 0.879 255 255 255
-0.586328 -0.300768 1.171 255 255 255
-0.448179 -0.265709 1.112 255 255 255
0.0382547 -0.239509 0.963 255 255 255
0.473306 -0.280339 0.991 255 255 255
0.142535 0.248678 0.779 255 255 255
-0.107085 -0.0297393 0.837 255 255 255
-0.0413417 -0.361379 1.176 255 255 255
0.510375 -0.323218 1.03 255 255 255
-0.110815 0.171852 0.925 255 255 255
-0.529516 0.154151 1.139 255 255 255
0.195351 -0.410092 1.087 255 255 255
-0.64985 -0.427181 1.257 255 255 255
-0.0433042 -0.216226 0.964 0 0 0
0.428372 -0.340357 1.068 255 255 255
0.209515 0.164732 0.738 255 255 255
0.363731 -0.331532 1.062 0 0 0
-0.0435737 -0.234936 0.97 255 255 255
-0.231245 -0.154271 0.913 255 255 255
0.0698055 0.181855 0.803 255 255 255
-0.359801 0.074029 1.03 255 255 255
-0.770091 0.343415 1.686 255 255 255
-0.0962758 -0.160171 0.93 255 255 255
0.21245 0.200737 0.775 255 255 255
-0.0683809 -0.0383647 0.847 0 0 0
0.308811 -0.24202 0.986 255 255 255
0.0624031 0.290204 0.792 255 255 255
0.0211907 0.220523 0.748 255 255 255
0.17791 -0.342753 0.999 255 255 255
0.0336964 0.155863 0.784 255 255 255
0.12184 -0.20431 0.967 255 255 255
0.259911 0.149049 0.693 255 255 255
0.172688 0.21321 0.761 255 255 255
0.120722 -0.021751 0.794 255 255 255
0.128751 0.227419 0.78 255 255 255
-0.678408 0.551934 1.48 255 255 255
-0.129581 -0.21768 0.93 255 255 255
0.0977031 0.29167 0.796 255 255 255
0.275537 -0.41451 1.118 255 255 255
0.0941958 -0.252296 0.958 255 255 255
-0.231457 -0.0499934 0.908 255 255 255
-0.00615008 0.00423525 0.822 255 255 255
0.194985 0.178535 0.761 255 255 255
-0.176014 0.0389917 0.882 255 255 255
-0.106102 0.0248323 0.84 0 0 0
-0.307853 0.360928 1.185 255 255 255
0.0026917 -0.444424 1.178 255 255 255
-0.28644 -0.250462 0.969 255 255 255
-0.415693 -0.0740538 1.015 255 255 255
-0.0102261 0.0621304 0.827 255 255 255
0.426085 -0.229365 0.947 255 255 255
-0.435649 0.542456 1.442 255 255 255
0.185668 -0.277169 0.997 255 255 255
0.0424444 -0.132708 0.918 255 255 255
0.414613 -0.123279 0.834 255 255 255
-0.064093 -0.0190228 0.845 255 255 255
-0.0564347 0.27262 0.854 255 255 255
-0.24487 0.291652 1.126 255 255 255
0.282282 -0.0747271 0.794 255 255 255
0.398106 -0.136388 0.848 255 255 255
-0.186309 0.0527922 0.897 255 255 255
-0.0486178 0.0942756 0.889 255 255 255
-0.869713 0.44509 1.646 255 255 255
0.254958 -0.199891 0.854 0 0 0
0.234751 0.0521116 0.709 255 255 255
0.000539539 0.0616797 0.821 255 255 255
0.00305588 0.199749 0.781 255 255 255
-0.078764 -0.459035 1.222 255 255 255
-0.146233 -0.196493 0.93 255 255 255
-0.300761 -0.380748 1.165 255 255 255
-0.169191 -0.255975 0.966 0 0 0
-0.282408 -0.241827 0.966 255 255 255
-0.501512 -0.130913 1.075 255 255 255
0.185761 0.0816031 0.725 255 255 255
0.160466 -0.153897 0.877 255 255 255
0.286682 0.0329867 0.695 255 255 255
0.207629 0.0831862 0.477 255 255 255
-0.129503 0.0431099 0.85 255 255 255
0.217183 0.193124 0.562 255 255 255
0.0274674 0.125383 0.827 255 255 255
0.225788 0.107055 0.444 255 255 255
0.0272109 0.161621 0.781 255 255 255
-0.847514 0.45764 1.624 255 255 255
0.030415 0.115587 0.834 255 255 255
0.21052 0.152046 0.729 255 255 255
0.143624 0.175497 0.792 255 255 255
-0.412785 0.0477148 1.041 255 255 255
0.256674 0.209743 0.753 255 255 255
-0.425127 0.14806 1.081 255 255 255
-0.428004 -0.259733 1.102 255 255 255
0.079742 0.190265 0.811 255 255 255
-0.527366 -0.204812 1.096 255 255 255
-0.151134 0.0767753 0.871 255 255 255
-0.219889 0.150848 0.954 255 255 255
-0.411546 -0.0328249 1.017 255 255 255
0.161673 -0.0332958 0.792 255 255 255
0.225836 0.0556513 0.71 255 255 255
-0.654326 0.539052 1.491 255 255 255
0.154226 -0.157637 0.874 255 255 255
0.11958 0.110476 0.77 255 255 255
-0.527022 -0.417332 1.252 255 255 255
-0.799036 0.434057 1.655 255 255 255
0.140601 0.104638 0.755 255 255 255
-0.0695949 0.000228476 0.845 255 255 255
-0.000866775 -0.10003 0.893 255 255 255
0.216792 -0.140142 0.777 255 255 255
0.04894 0.254745 0.763 255 255 255
-0.283264 0.10348 0.991 255 255 255
-0.644459 0.36993 1.599 255 255 255
-0.310858 -0.168607 0.952 255 255 255
0.194126 0.0553402 0.721 255 255 255
-0.0194762 0.126258 0.88 255 255 255
0.129246 0.286906 0.783 255 255 255
-0.311388 0.0177712 0.978 255 255 255
0.258036 0.0699048 0.691 255 255 255
0.142661 -0.412998 1.09 255 255 255
0.456839 -0.204114 0.91 255 255 255
-0.55382 -0.402917 1.239 255 255 255
-0.343037 0.128714 1.025 255 255 255
0.12503 0.106024 0.765 255 255 255
-0.658035 -0.427181 1.257 255 255 255
-0.128451 0.305799 1.004 255 255 255
0.143431 -0.272701 0.964 255 255 255
0.333995 -0.049006 0.756 255 255 255
-0.335331 0.384972 1.244 255 255 255
0.169092 0.288085 0.756 255 255 255
0.116431 -0.11418 0.868 255 255 255
-0.314181 0.141088 1.018 255 255 255
0.157386 0.247379 0.771 255 255 255
0.360822 -0.0296226 0.733 255 255 255
-0.620516 0.437985 1.591 255 255 255
-0.233684 0.202439 0.986 255 255 255
0.349705 -0.263884 1.002 255 255 255
0.233594 -0.0955167 0.774 255 255 255
-0.0216811 -0.0553586 0.854 255 255 255
-0.318408 0.494418 1.432 255 255 255
-0.172168 0.227418 0.983 255 255 255
0.120633 0.154221 0.802 255 255 255
-0.522704 -0.116775 1.09 255 255 255
-0.0793684 -0.119645 0.877 255 255 255
0.226297 0.0848472 0.445 255 255 255
-0.584213 0.485034 1.543 255 255 255
-0.0130228 0.221358 0.755 255 255 255
-0.912226 0.353199 1.748 255 255 255
-0.578121 0.562758 1.452 255 255 255
0.0620092 0.0501604 0.787 255 255 255
0.271595 -0.0499784 0.771 255 255 255
-0.431251 -0.220848 1.07 255 255 255
-0.422584 0.139007 1.079 255 255 255
-0.329095 0.116239 1.018 255 255 255
-0.447039 -0.070392 1.034 255 255 255
0.169293 -0.131583 0.871 255 255 255
-0.0487307 0.0152818 0.841 255 255 255
0.216998 -0.0171093 0.76 255 255 255
-0.230196 -0.284619 0.978 255 255 255
-1.19268 -0.882452 2.329 255 255 255
0.248631 0.0825123 0.693 255 255 255
0.326929 -0.00216061 0.724 255 255 255
0.178039 0.0445749 0.737 255 255 255
0.210975 -0.0690404 0.803 255 255 255
-0.106197 -0.0938604 0.863 255 255 255
-0.190264 -0.141035 0.895 255 255 255
0.0663764 0.134503 0.809 255 255 255
-0.294653 -0.0575662 0.935 255 255 255
-0.488837 -0.351554 1.208 0 0 0
-0.0807331 -0.276375 1 255 255 255
-0.254525 0.227232 1.018 255 255 255
-0.257515 -0.215325 0.967 0 0 0
0.246949 0.00139482 0.735 255 255 255
-0.0993831 -0.0586217 0.841 255 255 255
-0.274689 0.209145 0.995 255 255 255
0.343816 -0.0957679 0.808 255 255 255
0.310261 -0.397809 1.112 255 255 255
0.185801 0.195663 0.785 255 255 255
0.0219224 0.0830563 0.821 255 255 255
0.368705 -0.0513304 0.754 255 255 255
0.281565 -0.0457948 0.764 255 255 255
0.0874809 -0.201787 0.97 255 255 255
0.160942 0.154333 0.77 255 255 255
-0.28366 -0.170263 0.944 255 255 255
0.342164 -0.0822719 0.792 255 255 255
-0.841475 0.256924 1.659 255 255 255
-0.0309586 0.153678 0.806 255 255 255
0.198809 -0.0564237 0.791 255 255 255
0.101681 -0.0418059 0.807 255 255 255
-0.0317501 0.164104 0.793 255 255 255
0.0973966 0.0228517 0.773 255 255 255
0.0920049 0.0703786 0.77 255 255 255
-0.129201 -0.413177 1.21 255 255 255
0.0294407 -0.0699013 0.845 255 255 255
0.233311 0.186806 0.536 255 255 255
-0.0322949 -0.128354 0.878 255 255 255
0.272693 -0.167134 0.785 255 255 255
-0.0807131 -0.229628 0.961 0 0 0
-0.00477105 0.0360297 0.815 255 255 255
0.197553 -0.0842068 0.786 255 255 255
-0.621283 0.558349 1.459 255 255 255
-0.465629 -0.206519 1.077 255 255 255
-0.244252 -0.44547 1.234 255 255 255
-0.644495 -0.463159 1.283 255 255 255
0.150786 0.178684 0.789 255 255 255
-0.0609361 0.179251 0.821 255 255 255
0.21173 0.0353941 0.721 255 255 255
0.483767 -0.376483 1.087 255 255 255
-0.5133 0.0525889 1.108 255 255 255
-0.388483 -0.222278 1.044 255 255 255
-0.0585216 -0.00526566 0.844 255 255 255
-0.551741 -0.456183 1.281 255 255 255
-0.447736 -0.254353 1.102 255 255 255
0.0642575 -0.118389 0.889 255 255 255
-0.00996437 -0.19758 0.928 255 255 255
0.39453 -0.267678 1.004 255 255 255
-0.302473 -0.0182947 0.95 255 255 255
0.0261775 -0.32931 1.044 255 255 255
-0.0501793 0.301817 0.866 255 255 255
-0.196764 0.192839 0.978 255 255 255
-0.0700466 0.188875 0.834 255 255 255
0.0965114 0.0141007 0.776 255 255 255
-0.403002 0.00865083 1.029 255 255 255
-0.0172236 0.0740428 0.84 255 255 255
0.264244 0.185714 0.717 255 255 255
-0.206295 0.347849 1.167 255 255 255
-0.127667 0.031931 0.847 255 255 255
0.1271 0.00772646 0.77 255 255 255
0.0184524 0.192319 0.787 255 255 255
-0.26061 -0.201478 0.961 255 255 255
-0.340528 -0.0701908 0.984 255 255 255
0.289693 -0.0367034 0.756 255 255 255
0.238325 -0.159547 0.773 255 255 255
-0.299607 -0.0625295 0.941 255 255 255
-0.0776742 0.263359 0.874 255 255 255
0.0939149 0.231638 0.808 255 255 255
0.0909455 -0.0312223 0.805 255 255 255
-0.00284269 -0.33618 1.094 255 255 255
0.221438 -0.101334 0.78 255 255 255
-0.486814 -0.269054 1.126 255 255 255
-0.504498 -0.0138828 1.089 255 255 255
-0.538551 -0.219676 1.108 255 255 255
0.295937 0.0470035 0.685 255 255 255
-0.684393 0.469271 1.583 255 255 255
0.000534938 0.0505566 0.814 255 255 255
-0.197368 -0.293474 0.981 255 255 255
0.207355 -0.105838 0.825 255 255 255
0.229814 -0.0955167 0.774 255 255 255
-0.592057 0.515828 1.487 255 255 255
0.22388 0.00970098 0.73 255 255 255
-0.146799 0.101798 0.879 0 0 0
0.132289 -0.112263 0.843 255 255 255
0.243191 0.150399 0.486 255 255 255
0.54032 -0.43494 1.143 255 255 255
0.204398 -0.142822 0.888 255 255 255
0.0467382 -0.0222167 0.811 255 255 255
-0.354458 -0.221613 1.01 255 255 255
0.51404 -0.327839 1.034 255 255 255
-0.0657857 0.113391 0.927 255 255 255
0.114414 0.245313 0.823 255 255 255
0.0471993 0.102846 0.819 255 255 255
-0.154674 0.0609029 0.867 255 255 255
-0.361391 -0.236581 1.025 255 255 255
-0.398098 -0.00139087 1.025 255 255 255
-0.00075224 0.154073 0.775 255 255 255
-0.384812 -0.124887 1.012 255 255 255
-0.625208 0.0696451 1.217 255 255 255
0.392095 -0.196941 0.925 255 255 255
-0.495264 0.166183 1.108 255 255 255
0.450565 -0.222368 0.937 255 255 255
-0.362179 0.114478 1.032 255 255 255
0.0653753 -0.253878 0.97 255 255 255
-0.109191 0.17317 0.924 255 255 255
-0.439052 -0.151891 1.039 255 255 255
-0.107085 0.0192953 0.837 255 255 255
0.338245 -0.00447955 0.718 255 255 255
-0.826117 0.495032 1.583 255 255 255
-0.189384 0.19822 0.981 255 255 255
0.0250696 -0.403566 1.149 255 255 255
0.400604 -0.43628 1.132 255 255 255
-0.24641 0.200443 0.992 255 255 255
0.00976196 0.0278999 0.81 255 255 255
-0.446735 -0.489319 1.297 255 255 255
-0.204676 -0.0156556 0.888 255 255 255
-0.53267 -0.1851 1.085 255 255 255
0.0161187 -0.3133 1.053 255 255 255
0.24283 0.159413 0.709 255 255 255
-0.303176 0.184522 1.02 255 255 255
0.0488285 -0.119587 0.898 255 255 255
-0.108406 -0.313804 1 0 0 0
0.218323 0.27566 0.806 255 255 255
0.0197862 0.23293 0.741 255 255 255
0.281601 0.061046 0.68 255 255 255
0.0117371 -0.0737692 0.858 255 255 255
0.0841839 0.294235 0.803 255 255 255
0.22361 0.120311 0.703 255 255 255
0.330269 -0.00215166 0.721 255 255 255
0.180454 0.0158978 0.742 255 255 255
0.0488858 0.229274 0.782 255 255 255
-0.506269 -0.308391 1.171 255 255 255
-0.558966 -0.40428 1.237 255 255 255
0.00687863 0.205095 0.782 255 255 255
-0.208061 0.400038 1.222 255 255 255
-0.464737 0.109157 1.079 255 255 255
-0.189228 -0.248074 0.972 255 255 255
0.10909 0.199198 0.794 255 255 255
-0.156461 -0.508124 1.324 255 255 255
-0.0917781 -0.442713 1.21 255 255 255
0.200981 -0.00224119 0.751 255 255 255
0.431468 -0.374933 1.098 255 255 255
0.121336 -0.277119 0.963 255 255 255
-0.179802 0.217377 0.981 0 0 0
0.0168505 -0.258802 0.995 255 255 255
-0.102058 0.122212 0.914 255 255 255
0.389123 -0.104622 0.826 255 255 255
0.228174 0.0700447 0.462 255 255 255
0.205234 0.213989 0.801 255 255 255
-0.59602 -0.512644 1.319 255 255 255
0.220288 0.12601 0.466 255 255 255
-0.0506954 -0.075937 0.851 255 255 255
-0.143137 -0.295003 0.96 255 255 255
0.0965455 0.167208 0.808 255 255 255
-0.448179 -0.263899 1.112 255 255 255
-0.0698072 -0.149311 0.901 255 255 255
0.162359 -0.296135 0.974 255 255 255
0.0116824 -0.0664765 0.854 255 255 255
-0.403665 -0.138881 1.018 255 255 255
-0.42682 -0.451727 1.257 255 255 255
0.382553 -0.281903 1.02 255 255 255
-0.203132 -0.287802 0.978 255 255 255
-0.293778 0.0226611 0.983 255 255 255
0.111014 -0.332332 0.997 255 255 255
-0.647061 0.359522 1.599 255 255 255
-0.457444 0.487953 1.498 255 255 255
0.289438 -0.36358 1.075 255 255 255
0.00677307 0.214479 0.77 255 255 255
-0.553166 -0.21685 1.112 255 255 255
-0.292259 -0.0258053 0.942 255 255 255
0.246762 -0.0822719 0.792 255 255 255
-1.21543 -0.893822 2.329 255 255 255
-0.582405 -0.0759744 1.116 255 255 255
0.128941 -0.141058 0.886 255 255 255
0.159917 -0.147681 0.874 255 255 255
-0.479619 -0.195276 1.073 255 255 255
0.0636119 0.21003 0.791 255 255 255
-0.6353 -0.366469 1.225 255 255 255
0.200049 0.161012 0.743 255 255 255
0.18952 0.0324931 0.735 255 255 255
-0.388388 -0.152699 1 255 255 255
0.387934 -0.432426 1.122 255 255 255
-0.39356 0.246427 1.096 255 255 255
0.195897 -0.422157 1.1 255 255 255
-0.460873 0.0818207 1.066 255 255 255
0.222175 0.094772 0.444 255 255 255
-0.436559 -0.327581 1.158 255 255 255
0.167313 -0.176504 0.883 255 255 255
-0.099267 0.0957223 0.889 255 255 255
-0.118813 -0.201207 0.917 255 255 255
0.393398 -0.194591 0.921 255 255 255
-0.622549 0.453815 1.583 255 255 255
0.263139 -0.108647 0.787 255 255 255
-0.204704 0.343282 1.158 255 255 255
-0.1545 -0.0879454 0.874 255 255 255
-0.358188 0.535417 1.442 255 255 255
-0.0289997 -0.216439 0.958 255 255 255
-0.231712 -0.0959049 0.909 255 255 255
0.493102 -0.309066 1.022 255 255 255
-0.262915 -0.238265 0.958 255 255 255
-0.0762914 -0.0326962 0.843 255 255 255
0.270714 -0.0789993 0.798 255 255 255
-0.145064 -0.0358182 0.852 255 255 255
-0.300636 -0.258347 0.969 255 255 255
0.169512 -0.0842456 0.811 255 255 255
0.169836 -0.0501772 0.794 255 255 255
-0.492212 -0.118115 1.07 255 255 255
-0.555317 0.147927 1.178 255 255 255
-0.785043 0.538193 1.509 255 255 255
-0.203066 -0.165934 0.92 255 255 255
0.093205 -0.0628766 0.825 255 255 255
-0.439503 -0.458466 1.27 255 255 255
-0.125947 0.158045 0.96 255 255 255
0.183478 0.0548431 0.73 0 0 0
0.177226 -0.0264786 0.781 255 255 255
0.382851 -0.141522 0.854 255 255 255
-0.78018 0.364772 1.696 255 255 255
0.147426 0.070613 0.746 255 255 255
0.068413 0.175103 0.802 255 255 255
-0.566083 -0.340876 1.205 255 255 255
0.371879 -0.130868 0.848 255 255 255
-0.489031 -0.324203 1.18 255 255 255
0.015166 0.0720154 0.817 255 255 255
0.103887 -0.00489132 0.784 255 255 255
0.0498259 -0.34361 1.041 255 255 255
0.244539 0.131751 0.691 255 255 255
0.353711 -0.0832442 0.789 255 255 255
-0.0869686 -0.182552 0.944 255 255 255
-0.220118 -0.13911 0.892 255 255 255
-0.479506 -0.465246 1.283 255 255 255
0.0979818 0.224025 0.809 255 255 255
-0.549706 -0.0559973 1.116 255 255 255
0.0288136 0.124037 0.827 255 255 255
0.208305 0.108195 0.458 255 255 255
-0.0577665 0.18832 0.814 255 255 255
-0.730353 0.4558 1.599 255 255 255
-0.157258 -0.0249005 0.858 255 255 255
0.173259 -0.0735966 0.81 255 255 255
0.155077 0.197447 0.772 255 255 255
0.0493184 -0.185377 0.935 255 255 255
-0.30419 -0.415967 1.201 255 255 255
-0.379712 0.239096 1.087 255 255 255
0.0452942 -0.0607752 0.833 255 255 255
0.311158 -0.280243 1.02 255 255 255
-0.42973 0.0494089 1.041 255 255 255
0.229262 0.170864 0.558 255 255 255
0.166334 0.0825036 0.733 255 255 255
-0.0177721 0.141346 0.803 255 255 255
-0.0372194 -0.223655 0.969 0 0 0
-0.192343 -0.301999 0.988 255 255 255
-0.0666306 -0.0935341 0.86 255 255 255
-0.221352 -0.0347906 0.897 255 255 255
0.0869815 -0.0476421 0.817 255 255 255
-0.474188 0.0312474 1.057 255 255 255
-0.418483 0.00698309 1.03 255 255 255
-0.210527 -0.453334 1.273 0 0 0
-0.366641 -0.195457 0.994 255 255 255
-0.069842 0.0236889 0.848 255 255 255
-0.577634 -0.29354 1.165 255 255 255
-0.115488 -0.296232 0.964 255 255 255
0.132974 0.244476 0.79 255 255 255
0.171516 -0.0839339 0.808 255 255 255
-0.217852 0.110969 0.932 255 255 255
-0.203074 0.482425 1.305 255 255 255
-0.116344 0.00837869 0.835 255 255 255
0.227627 0.199389 0.537 255 255 255
-0.463519 0.496375 1.494 255 255 255
-0.102694 -0.306451 0.992 255 255 255
-0.0574939 0.152657 0.892 255 255 255
-0.28698 0.194698 1.004 255 255 255
0.232741 -0.00952294 0.747 255 255 255
-0.412287 0.100903 1.066 255 255 255
-0.172684 -0.450649 1.254 255 255 255
-0.198831 -0.0652634 0.875 255 255 255
-0.183754 0.0975527 0.906 255 255 255
0.363571 -0.0486819 0.751 255 255 255
0.255007 0.273073 0.81 255 255 255
-0.100275 0.185399 0.925 255 255 255
-0.00612764 0.0308754 0.819 255 255 255
-0.429799 -0.0364191 1.025 255 255 255
0.149179 0.226929 0.774 0 0 0
-0.339144 -0.00292459 0.98 255 255 255
-0.287125 -0.279555 0.966 255 255 255
0.220516 0.207037 0.541 255 255 255
-0.470358 -0.156686 1.06 255 255 255
0.541295 -0.392085 1.096 255 255 255
0.211697 -0.284299 1.005 255 255 255
0.280214 0.0879278 0.674 255 255 255
0.0435685 0.272092 0.756 255 255 255
-0.222994 0.161715 0.954 255 255 255
0.265435 -0.05276 0.775 255 255 255
-0.118503 -0.281821 0.963 0 0 0
0.218099 0.112645 0.449 255 255 255
-0.166288 0.443787 1.222 255 255 255
0.100014 -0.172066 0.954 255 255 255
0.191926 0.045091 0.726 255 255 255
-0.117129 -0.136568 0.904 255 255 255
0.133043 0.263855 0.806 255 255 255
-0.088775 0.1013 0.9 255 255 255
0.192952 0.101099 0.721 255 255 255
0.362911 -0.0223737 0.73 255 255 255
-0.641856 0.359522 1.599 255 255 255
-0.135085 -0.168194 0.916 255 255 255
-0.368617 -0.448133 1.247 0 0 0
-0.506271 -0.0174272 1.089 255 255 255
-0.763543 0.556037 1.491 255 255 255
0.338714 -0.017477 0.724 255 255 255
-0.484013 0.0562708 1.075 255 255 255
-0.00305576 -0.443669 1.176 255 255 255
0.238549 0.0417865 0.71 255 255 255
0.219496 -0.188578 0.879 0 0 0
-0.38669 0.168215 1.053 255 255 255
0.530495 -0.420798 1.13 255 255 255
-0.146345 -0.510426 1.33 255 255 255
0.0872103 -0.202736 0.967 255 255 255
0.0947572 0.0529732 0.772 255 255 255
-0.198116 -0.00265899 0.891 255 255 255
-0.722842 0.429889 1.629 255 255 255
-0.228754 0.307453 1.137 255 255 255
0.135703 0.296572 0.762 255 255 255
0.134957 -0.13412 0.86 255 255 255
0.287154 0.0438505 0.688 255 255 255
0.330059 -0.330692 1.043 255 255 255
0.33724 -0.0489412 0.755 255 255 255
0.00505302 -0.179332 0.912 255 255 255
0.0127147 -0.313895 1.055 255 255 255
0.109655 0.0671674 0.762 255 255 255
0.239736 0.185227 0.529 255 255 255
-0.0122439 -0.112253 0.875 255 255 255
0.0856914 0.02563 0.781 255 255 255
-0.298579 0.0210614 0.983 255 255 255
-0.331336 0.209652 1.046 255 255 255
-0.298716 0.53498 1.416 255 255 255
0.360421 -0.0384387 0.742 255 255 255
0.320162 -0.179678 0.825 0 0 0
-0.627372 0.110332 1.229 255 255 255
-0.0598245 0.0331521 0.843 255 255 255
0.123989 -0.00742399 0.782 255 255 255
-0.618806 -0.366958 1.22 255 255 255
-0.616695 0.153145 1.252 255 255 255
0.456978 -0.299454 1.012 255 255 255
-0.0220967 -0.198006 0.93 255 255 255
-0.244524 0.18329 0.978 0 0 0
-0.439466 0.0495513 1.044 255 255 255
0.0274089 -0.420103 1.169 255 255 255
-0.0803128 -0.0189553 0.842 255 255 255
-0.0348731 -0.114574 0.871 255 255 255
-0.303747 -0.114625 0.954 255 255 255
-0.271339 -0.0538233 0.923 255 255 255
-0.023826 -0.358967 1.162 255 255 255
-0.0120593 0.265288 0.772 255 255 255
0.227646 -0.268507 0.989 255 255 255
-0.259645 0.0621428 0.975 255 255 255
-0.0945581 0.166369 0.928 255 255 255
-0.0240105 -0.407482 1.171 255 255 255
-0.301312 0.0454689 0.992 255 255 255
-0.364691 0.166778 1.044 255 255 255
0.399157 -0.10107 0.819 255 255 255
-0.571317 -0.0438276 1.13 255 255 255
-0.604838 -0.40866 1.232 255 255 255
-0.563801 -0.142128 1.094 255 255 255
-0.163339 -0.183196 0.924 255 255 255
0.0187555 0.220523 0.748 255 255 255
-0.0362367 0.0165712 0.837 255 255 255
-0.195722 0.0353936 0.9 255 255 255
0.238323 0.164717 0.524 255 255 255
-0.200848 -0.260961 0.967 0 0 0
0.376217 -0.335143 1.068 255 255 255
0.213077 0.232498 0.811 255 255 255
0.235173 -0.0107386 0.747 255 255 255
0.117301 -0.108029 0.864 255 255 255
0.0863658 -0.021888 0.799 255 255 255
0.168901 0.243931 0.772 255 255 255
0.0987501 -0.0191668 0.794 255 255 255
0.0696887 -0.344665 1.034 255 255 255
-0.0668502 0.127489 0.942 255 255 255
0.133479 -0.0217236 0.793 255 255 255
-0.448927 0.48665 1.494 255 255 255
-0.368727 0.0934542 1.041 255 255 255
0.0770897 -0.0507937 0.825 255 255 255
0.281601 0.0643657 0.68 255 255 255
-0.559654 0.493942 1.524 255 255 255
-0.0977766 -0.478168 1.262 255 255 255
0.261566 0.283694 0.814 255 255 255
-0.167271 -0.263288 0.964 0 0 0
-0.0758153 0.264681 0.869 255 255 255
-0.197548 -0.114818 0.895 255 255 255
-0.145604 -0.251259 0.966 255 255 255
-0.373114 -0.0870797 0.994 255 255 255
0.293494 -0.290841 1.005 255 255 255
-0.149048 0.413172 1.18 255 255 255
0.0961175 -0.324862 0.994 255 255 255
0.21367 0.106777 0.452 255 255 255
-0.504274 -0.251217 1.12 255 255 255
-0.458914 -0.461354 1.278 255 255 255
0.0247946 0.177778 0.785 255 255 255
-0.0369465 0.425314 1.102 255 255 255
0.261894 -0.137984 0.772 255 255 255
0.237569 0.162861 0.714 255 255 255
-0.465674 0.16887 1.102 255 255 255
0.263171 -0.219995 0.927 255 255 255
-0.0314121 0.0752768 0.854 255 255 255
-0.158261 0.465339 1.237 255 255 255
0.296392 -0.0240458 0.745 255 255 255
-0.13182 -0.399332 1.198 255 255 255
0.0425515 -0.331277 1.029 255 255 255
0.224125 0.177624 0.568 255 255 255
-0.592598 -0.0604844 1.132 255 255 255
-0.0937477 -0.42696 1.21 255 255 255
-0.37307 0.0336374 1.025 255 255 255
0.326073 -0.0128701 0.73 0 0 0
-0.436098 -0.0115213 1.036 255 255 255
-0.270558 -0.208166 0.963 255 255 255
0.252341 0.196744 0.523 255 255 255
-0.190221 -0.00120497 0.888 255 255 255
-0.260178 0.0781693 0.977 255 255 255
-0.0418658 -0.111483 0.869 255 255 255
-0.203548 -0.243737 0.98 255 255 255
0.260369 -0.28679 0.991 255 255 255
-0.74788 0.560671 1.484 255 255 255
-0.00944897 -0.12435 0.88 255 255 255
-0.135778 0.276249 0.986 255 255 255
0.439326 -0.208532 0.923 255 255 255
-0.305203 -0.423235 1.205 255 255 255
0.219029 -0.157112 0.799 255 255 255
-0.285425 0.359405 1.18 255 255 255
-0.458703 0.0604888 1.057 255 255 255
0.271475 0.0584053 0.688 255 255 255
-0.525441 -0.198734 1.092 255 255 255
-0.186681 -0.224767 0.967 255 255 255
-0.546337 -0.461071 1.283 255 255 255
0.190205 -0.195229 0.91 255 255 255
-0.149653 -0.21589 0.942 255 255 255
0.223928 0.122774 0.704 255 255 255
0.241751 0.147761 0.48 255 255 255
-0.126078 -0.287491 0.961 255 255 255
0.136417 -0.170214 0.927 255 255 255
-0.421791 0.0305674 1.034 255 255 255
-0.278238 -0.0391394 0.931 255 255 255
0.00305197 0.204571 0.78 255 255 255
0.256957 0.183626 0.522 255 255 255
0.255327 -0.251137 0.984 255 255 255
-0.145682 -0.1833 0.917 255 255 255
-0.474372 -0.258936 1.114 255 255 255
