ply
format ascii 1.0
comment Created by Open3D
element vertex 1282
property double x
property double y
property double z
property uchar red
property uchar green
property uchar blue
end_header
0.345326 0.00612032 0.728 255 255 255
0.267138 0.220215 0.573 255 255 255
-0.125756 0.118338 0.538 255 255 255
0.194203 0.0845893 0.665 255 255 255
0.0772712 0.0759637 0.638 255 255 255
-0.210668 0.141455 0.45 255 255 255
-0.184073 0.0276615 0.47 255 255 255
-0.217509 0.0315402 0.449 255 255 255
-0.147734 -0.013466 0.464 255 255 255
0.204446 0.0494528 0.704 0 0 0
-0.123863 -0.0300758 0.664 255 255 255
-0.0891357 -0.142986 0.371 255 255 255
-0.0155628 -0.0961359 0.759 255 255 255
0.0724875 0.0552644 0.651 255 255 255
-0.116284 0.111417 0.547 255 255 255
0.19861 -0.251484 0.869 255 255 255
-0.144907 -0.0310883 0.446 255 255 255
-0.176824 0.146253 0.488 255 255 255
-0.150798 0.0103057 0.481 0 0 0
0.0656472 -0.219716 0.715 255 255 255
0.014553 -0.24187 0.667 255 255 255
-0.0433456 0.0932932 0.584 255 255 255
-0.148922 0.178225 0.48 255 255 255
0.0743122 0.0013246 0.698 255 255 255
0.140657 -0.187842 0.736 255 255 255
0.0944697 0.122619 0.602 255 255 255
0.24432 -0.080502 0.886 255 255 255
0.273171 -0.103989 0.821 255 255 255
0.135793 0.0518863 0.676 255 255 255
-0.124447 0.0254095 0.501 255 255 255
0.0667176 -0.0172356 0.714 255 255 255
-0.133132 0.156478 0.503 255 255 255
0.167201 0.124468 0.621 255 255 255
-0.114713 0.109837 0.548 255 255 255
0.108686 -0.235734 0.665 255 255 255
0.00378491 0.176285 0.528 255 255 255
-0.169726 -0.0219273 0.437 255 255 255
-0.0767331 0.146253 0.488 255 255 255
-0.104354 0.0166001 0.631 255 255 255
0.237468 0.0708153 0.7 255 255 255
0.140657 -0.191435 0.736 255 255 255
0.279848 -0.197868 0.756 255 255 255
-0.116108 -0.065867 0.436 255 255 255
-0.157531 -0.203729 0.83 255 255 255
0.336556 0.0199675 0.759 255 255 255
-0.121839 -0.129271 0.375 255 255 255
0.040687 -0.266353 0.706 255 255 255
-0.156829 -0.054722 0.416 255 255 255
0.0780662 -0.197722 0.691 255 255 255
-0.0916429 0.0921457 0.571 255 255 255
-0.219423 0.138847 0.444 255 255 255
0.248108 -0.20779 0.809 255 255 255
-0.174468 -0.0276145 0.426 255 255 255
0.0437414 -0.0751385 0.759 255 255 255
-0.056816 0.101389 0.576 255 255 255
-0.172229 0.0138647 0.469 0 0 0
0.055217 -0.0414376 0.731 255 255 255
0.0833739 0.137479 0.586 255 255 255
-0.12582 -0.076618 0.421 255 255 255
0.0208791 -0.171307 0.737 255 255 255
0.124394 0.0907827 0.64 255 255 255
0.0761178 0.191681 0.535 255 255 255
0.0543318 0.0795013 0.625 255 255 255
0.0629803 0.0919815 0.62 255 255 255
-0.172754 -0.128258 0.33 255 255 255
0.174299 0.0376726 0.698 255 255 255
0.110736 0.16933 0.565 255 255 255
-0.118833 -0.0668231 0.433 255 255 255
-0.172387 -0.0142661 0.442 255 255 255
-0.20255 0.0647382 0.559 255 255 255
0.319679 -0.0344241 0.76 255 255 255
0.0269322 -0.10923 0.773 0 0 0
-0.213773 0.0954262 0.48 255 255 255
0.235875 0.193035 0.581 255 255 255
0.301119 -0.173243 0.73 255 255 255
-0.0075377 -0.189446 0.702 255 255 255
0.188731 0.0883832 0.661 255 255 255
0.332874 -0.0869504 0.714 255 255 255
-0.168392 -0.118798 0.343 255 255 255
-0.132921 -0.115237 0.377 255 255 255
-0.124163 0.180497 0.484 255 255 255
-0.148318 -0.111288 0.368 255 255 255
-0.197625 0.143555 0.452 0 0 0
0.30876 -0.0306018 0.789 255 255 255
0.257401 -0.194332 0.797 255 255 255
-0.109358 0.0471861 0.602 255 255 255
0.134173 -0.134681 0.782 255 255 255
0.0790444 0.163858 0.562 255 255 255
-0.145578 -0.0707851 0.411 255 255 255
-0.185753 -0.0551098 0.39 255 255 255
-0.188283 -0.0381164 0.405 255 255 255
0.32944 -0.227943 0.652 255 255 255
-0.0876926 0.0422002 0.615 255 255 255
0.176535 -0.30975 0.886 255 255 255
0.296489 -0.115418 0.764 255 255 255
-0.160642 0.0173144 0.48 255 255 255
0.250273 -0.101576 0.857 255 255 255
0.178966 0.101565 0.649 255 255 255
0.00720698 0.0945565 0.598 255 255 255
0.00163833 -0.0418107 0.717 255 255 255
-0.0670784 -0.0161494 0.669 255 255 255
-0.170792 0.159167 0.461 255 255 255
-0.141185 -0.128429 0.359 255 255 255
0.0781406 -0.231788 0.663 255 255 255
0.0535423 0.140956 0.573 255 255 255
-0.00429458 0.121586 0.574 255 255 255
0.106218 0.0978087 0.625 0 0 0
-0.178613 0.143074 0.48 255 255 255
0.110526 -0.186208 0.69 255 255 255
-0.169752 0.0667048 0.568 255 255 255
-0.106423 -0.13258 0.381 255 255 255
0.313451 -0.252771 0.67 255 255 255
0.327513 -0.191192 0.672 255 255 255
-0.0801395 0.127682 0.526 255 255 255
-0.184297 0.14951 0.45 0 0 0
-0.0873977 0.137369 0.499 255 255 255
0.0262941 -0.0385241 0.721 255 255 255
0.325235 -0.138629 0.705 255 255 255
0.328025 0.0554237 0.789 255 255 255
-0.169237 0.0399668 0.48 255 255 255
-0.145732 0.0362356 0.493 255 255 255
-0.00245122 0.110587 0.58 255 255 255
0.0466386 -0.0808176 0.766 255 255 255
-0.204532 -0.0107706 0.418 255 255 255
-0.107166 0.132407 0.508 255 255 255
0.205326 -0.147647 0.918 255 255 255
-0.0134212 -0.0403038 0.711 255 255 255
0.335508 -0.0143084 0.743 255 255 255
-0.116479 -0.0867475 0.417 255 255 255
-0.0858293 0.0835026 0.582 255 255 255
0.33185 0.105899 0.792 255 255 255
-0.200725 -0.012189 0.42 255 255 255
0.0405636 -0.0617116 0.746 255 255 255
-0.150698 -0.119915 0.358 255 255 255
-0.14814 0.160588 0.493 255 255 255
-0.178325 -0.0287287 0.422 255 255 255
-0.155706 -0.00740934 0.463 255 255 255
-0.139825 -0.039072 0.446 255 255 255
-0.24466 0.0854433 0.519 255 255 255
0.0936775 -0.0332464 0.734 255 255 255
0.0039449 -0.18751 0.712 255 255 255
-0.239172 0.0729475 0.539 255 255 255
0.259348 -0.179216 0.799 255 255 255
-0.0979798 0.154671 0.487 255 255 255
0.220201 0.117915 0.646 255 255 255
0.141945 0.0892541 0.644 0 0 0
0.0671335 -0.125297 0.787 255 255 255
0.127672 0.16297 0.575 255 255 255
0.0555791 -0.281259 0.752 255 255 255
-0.136764 0.103405 0.547 255 255 255
-0.081471 0.00962104 0.645 255 255 255
0.0713375 -0.111774 0.791 255 255 255
0.0227415 -0.0396423 0.72 255 255 255
0.343522 -0.083025 0.691 255 255 255
-0.124365 -0.280036 0.752 255 255 255
-0.17181 0.16853 0.448 255 255 255
-0.0535346 -0.235706 0.65 255 255 255
0.245699 -0.031658 0.891 255 255 255
-0.18053 -0.033736 0.416 255 255 255
0.0277887 -0.243683 0.672 0 0 0
-0.126147 0.0144542 0.627 255 255 255
0.151569 0.104705 0.636 255 255 255
0.288355 0.0320441 0.85 255 255 255
0.286553 0.206139 0.586 255 255 255
-0.0192621 -0.165728 0.713 255 255 255
-0.235781 0.131642 0.449 255 255 255
-0.149674 0.0723779 0.569 255 255 255
-0.0339587 0.0335007 0.64 255 255 255
0.282559 -0.0507937 0.825 255 255 255
0.209328 -0.251606 0.855 255 255 255
0.209128 -0.0910403 0.935 255 255 255
0.00252374 0.0390106 0.645 255 255 255
0.106102 -0.0127114 0.721 255 255 255
0.0209412 -0.254446 0.663 255 255 255
-0.131034 0.123712 0.531 255 255 255
0.342754 -0.0539596 0.708 255 255 255
-0.0125915 -0.062764 0.73 255 255 255
0.249744 -0.169017 0.832 255 255 255
-0.219204 0.120442 0.465 255 255 255
-0.0471943 -0.158606 0.697 255 255 255
0.100808 -0.242151 0.656 255 255 255
-0.204561 0.0518883 0.461 255 255 255
0.0266677 -0.0168977 0.7 255 255 255
0.260234 0.142037 0.641 255 255 255
0.137501 0.0499066 0.679 255 255 255
-0.160908 -0.279775 0.729 255 255 255
0.077608 -0.0694171 0.764 255 255 255
0.294765 -0.228256 0.709 255 255 255
0.106391 0.182501 0.552 255 255 255
-0.117143 0.0632047 0.587 255 255 255
0.209943 -0.193181 0.887 255 255 255
0.237393 0.122309 0.647 255 255 255
-0.0797063 0.0356524 0.623 255 255 255
-0.107431 -0.134611 0.378 255 255 255
-0.16868 -0.0843372 0.376 255 255 255
0.00044162 -0.218531 0.672 0 0 0
0.0971578 0.204074 0.531 255 255 255
0.127228 0.163335 0.573 255 255 255
0.0751799 0.0524862 0.656 255 255 255
-0.0169646 -0.164799 0.714 255 255 255
0.316945 0.0014935 0.787 255 255 255
0.270182 0.135546 0.655 255 255 255
-0.108185 0.0350229 0.612 255 255 255
0.200949 0.158602 0.601 255 255 255
0.222743 -0.134755 0.892 255 255 255
-0.194305 -0.00548174 0.43 255 255 255
0.0837013 0.0374185 0.673 255 255 255
-0.00668649 -0.13597 0.734 255 255 255
0.187753 0.0551265 0.689 255 255 255
-0.165779 0.101203 0.54 255 255 255
-0.199236 0.0198495 0.449 255 255 255
0.0282724 0.176339 0.536 255 255 255
-0.181514 -0.100149 0.35 255 255 255
-0.103493 0.110237 0.55 255 255 255
0.130008 0.0889769 0.642 0 0 0
-0.135921 -0.00613191 0.481 255 255 255
-0.146238 0.0361621 0.492 255 255 255
0.23219 -0.0650549 0.912 255 255 255
-0.0202842 0.111893 0.577 255 255 255
0.233154 0.0870062 0.684 255 255 255
0.305244 -0.127448 0.74 255 255 255
0.103705 0.0183364 0.697 255 255 255
0.300175 0.198988 0.596 255 255 255
0.221627 0.122218 0.641 255 255 255
-0.0301639 -0.222326 0.648 255 255 255
-0.145356 -0.134688 0.348 255 255 255
-0.121811 0.152772 0.507 255 255 255
0.00903886 -0.135272 0.75 255 255 255
-0.135178 -0.0519138 0.438 255 255 255
0.197005 0.165733 0.595 255 255 255
-0.0518039 0.146135 0.534 255 255 255
-0.16849 0.128614 0.516 255 255 255
-0.176099 0.148026 0.486 255 255 255
-0.127275 0.00334239 0.493 255 255 255
-0.177389 0.142424 0.494 255 255 255
-0.11874 0.0553517 0.595 255 255 255
-0.072603 0.0760093 0.59 255 255 255
0.321218 -0.178089 0.689 255 255 255
-0.0647074 -0.0591472 0.715 255 255 255
-0.165359 -0.0654718 0.399 255 255 255
0.260123 -0.154947 0.822 255 255 255
-0.179578 -0.0847074 0.367 255 255 255
0.254154 -0.25208 0.783 255 255 255
-0.0549639 0.0370782 0.63 255 255 255
0.304326 0.150504 0.646 255 255 255
0.324087 0.083056 0.808 255 255 255
0.00884603 -0.155081 0.734 255 255 255
-0.105762 0.174761 0.49 255 255 255
-0.151742 -0.0813217 0.394 255 255 255
0.323493 -0.238585 0.655 255 255 255
0.25514 -0.22605 0.79 255 255 255
-0.0415862 0.0917054 0.586 255 255 255
0.171725 0.184418 0.569 255 255 255
0.15932 0.133057 0.614 255 255 255
0.0526363 -0.289553 0.745 255 255 255
0.0562745 -0.0543548 0.745 255 255 255
0.259955 -0.266586 0.759 255 255 255
-0.0550464 0.131479 0.549 255 255 255
0.345146 -0.0786407 0.692 255 255 255
0.343277 -0.0683533 0.702 255 255 255
-0.111798 0.0244216 0.621 255 255 255
-0.150918 -0.00372861 0.474 255 255 255
-0.025078 -0.081353 0.748 255 255 255
0.0812321 0.174417 0.552 255 255 255
-0.162063 -0.0788205 0.388 255 255 255
0.0271412 -0.151912 0.779 255 255 255
-0.109932 0.0967496 0.56 255 255 255
-0.102736 0.176861 0.487 255 255 255
-0.15324 -0.0726863 0.403 255 255 255
0.343649 -0.101846 0.689 255 255 255
0.272246 -0.248218 0.752 255 255 255
0.162409 0.210841 0.544 255 255 255
-0.260076 0.0766142 0.528 255 255 255
-0.189897 0.124578 0.475 255 255 255
0.0926514 0.194351 0.54 255 255 255
-0.117582 -0.0522531 0.447 255 255 255
0.301917 -0.00633234 0.805 255 255 255
0.147644 -0.0202991 0.741 255 255 255
0.00627525 0.0902907 0.602 255 255 255
0.281734 -0.27518 0.714 255 255 255
-0.138456 -0.132775 0.355 255 255 255
0.184306 0.14205 0.614 255 255 255
-0.166457 0.0267434 0.481 255 255 255
-0.0604904 0.118197 0.558 255 255 255
0.0154258 -0.0274214 0.707 255 255 255
0.319355 -0.0794929 0.742 255 255 255
0.062117 -0.155672 0.805 255 255 255
0.328592 -0.145362 0.688 255 255 255
0.355111 0.0580812 0.741 255 255 255
0.286173 -0.185313 0.75 255 255 255
-0.0892611 0.0246182 0.626 255 255 255
-0.145815 0.136963 0.519 255 255 255
0.0413622 -0.27015 0.698 255 255 255
-0.209269 0.0777327 0.548 255 255 255
-0.14295 -0.11929 0.365 255 255 255
-0.113505 -0.103109 0.404 255 255 255
0.124757 0.0139974 0.707 255 255 255
-0.143437 -0.277893 0.743 255 255 255
0.145061 0.023136 0.705 255 255 255
-0.193002 0.0633691 0.563 255 255 255
-0.123129 0.0300432 0.612 255 255 255
0.22812 0.167962 0.603 255 255 255
-0.132849 -0.127606 0.365 255 255 255
-0.11801 -0.0726579 0.43 255 255 255
0.233097 -0.0718397 0.904 255 255 255
-0.145604 0.0818379 0.564 255 255 255
-0.21746 0.00215369 0.418 255 255 255
0.182505 0.146598 0.608 255 255 255
-0.113418 0.0145234 0.63 255 255 255
-0.128608 -0.063962 0.428 255 255 255
0.0706424 0.151743 0.568 255 255 255
0.319888 -0.252346 0.652 255 255 255
-0.0272894 0.1934 0.499 255 255 255
0.340538 -0.0033803 0.733 255 255 255
0.266537 0.158579 0.624 255 255 255
-0.134304 0.0920285 0.559 255 255 255
0.0613732 -0.011298 0.706 255 255 255
0.269942 0.21518 0.577 255 255 255
0.232594 0.0500851 0.713 255 255 255
0.00916534 -0.233145 0.67 255 255 255
0.191279 -0.130968 0.96 255 255 255
0.237395 -0.137874 0.866 255 255 255
0.288222 -0.0412453 0.822 255 255 255
0.28392 -0.16455 0.767 255 255 255
0.12432 -0.106418 0.809 0 0 0
0.313777 0.178028 0.621 255 255 255
-0.0246773 0.117029 0.57 255 255 255
0.173583 0.0278823 0.709 255 255 255
-0.0218554 0.120527 0.569 255 255 255
0.117685 -0.197419 0.706 255 255 255
0.0407206 -0.175673 0.772 255 255 255
-0.0230329 -0.0188198 0.687 255 255 255
0.092962 0.185299 0.547 255 255 255
-0.207487 0.0930445 0.519 255 255 255
0.268868 0.132753 0.657 255 255 255
0.277398 0.223945 0.573 255 255 255
0.0256591 0.101199 0.597 255 255 255
0.123233 0.0674316 0.656 255 255 255
0.0566391 0.188009 0.532 255 255 255
-0.164111 0.180631 0.472 255 255 255
-0.20977 0.108252 0.478 255 255 255
-0.0700846 -0.0251561 0.677 255 255 255
0.00923168 -0.121953 0.766 255 255 255
0.0240464 -0.0433971 0.724 255 255 255
-0.0584929 0.0783258 0.593 255 255 255
-0.131513 0.131106 0.526 255 255 255
0.297578 0.136374 0.659 255 255 255
-0.203287 -0.026318 0.406 255 255 255
0.0121256 -0.186233 0.716 255 255 255
-0.0484676 -0.0418986 0.699 255 255 255
0.0573529 -0.187948 0.776 255 255 255
0.292996 -0.161975 0.755 255 255 255
0.0207627 0.159788 0.545 255 255 255
0.276252 -0.279034 0.724 255 255 255
0.298512 -0.105748 0.766 255 255 255
0.084616 -0.225315 0.663 255 255 255
0.235634 0.2159 0.569 255 255 255
-0.12773 -0.244448 0.804 255 255 255
-0.0499107 0.0672228 0.606 255 255 255
-0.15289 -0.188042 0.857 255 255 255
0.0599898 0.0597241 0.642 255 255 255
-0.22833 0.126358 0.459 255 255 255
-0.232027 0.0560063 0.446 255 255 255
0.23216 0.0199149 0.757 255 255 255
0.066527 0.196906 0.528 255 255 255
0.168086 0.202794 0.551 255 255 255
-0.195478 0.0690387 0.557 255 255 255
0.130225 0.0568773 0.67 255 255 255
0.274973 -0.185662 0.777 255 255 255
-0.0636883 -0.131665 0.73 255 255 255
-0.102871 -0.109521 0.401 255 255 255
0.252587 -0.141256 0.828 255 255 255
-0.02048 -0.154557 0.715 255 255 255
-0.0958796 -0.13196 0.381 255 255 255
-0.215512 0.0872814 0.51 255 255 255
0.332725 0.0406196 0.776 255 255 255
-0.182047 -0.00633963 0.441 255 255 255
0.322965 -0.0220273 0.759 255 255 255
0.158157 0.0418532 0.692 255 255 255
0.0689042 0.0829488 0.628 255 255 255
0.137259 0.153258 0.588 255 255 255
0.177055 0.20638 0.551 255 255 255
0.371884 0.118773 0.736 255 255 255
-0.20134 0.100955 0.525 255 255 255
0.301686 0.19804 0.599 255 255 255
0.0805483 0.010337 0.693 255 255 255
-0.0195322 -0.0586324 0.723 255 255 255
0.0598802 0.101251 0.609 255 255 255
-0.107023 -0.169476 0.796 255 255 255
0.231454 -0.305872 0.797 255 255 255
-0.148533 0.158656 0.497 255 255 255
-0.105887 0.0527995 0.599 255 255 255
-0.116513 0.131461 0.524 255 255 255
-0.228728 0.090606 0.492 255 255 255
-0.23435 0.0771897 0.538 255 255 255
-0.155005 0.156229 0.497 255 255 255
0.232581 -0.0819557 0.902 255 255 255
-0.206591 -0.0216932 0.406 255 255 255
0.157442 0.0513872 0.684 255 255 255
-0.0409853 -0.169993 0.688 255 255 255
0.148174 0.164007 0.582 255 255 255
-0.0641711 0.175301 0.466 255 255 255
-0.0930849 -0.159109 0.777 255 255 255
-0.159845 -0.0440446 0.424 255 255 255
-0.0565244 -0.196953 0.673 255 255 255
-0.150802 -0.0329673 0.442 255 255 255
-0.029291 -0.0364183 0.703 255 255 255
-0.239831 0.115655 0.461 255 255 255
0.245777 -0.225182 0.81 255 255 255
-0.111181 -0.00938725 0.653 255 255 255
0.0578699 0.16723 0.552 255 255 255
-0.0700127 0.0414004 0.618 255 255 255
0.249645 0.128428 0.646 255 255 255
0.22223 0.162074 0.603 255 255 255
-0.0645117 0.180954 0.463 255 255 255
-0.059914 0.0843635 0.588 255 255 255
-0.121185 0.0123648 0.501 255 255 255
-0.228127 0.0849494 0.516 255 255 255
-0.00290343 -0.20664 0.687 255 255 255
-0.129043 -0.130338 0.366 255 255 255
0.273305 -0.0532106 0.842 255 255 255
0.0302114 0.111723 0.591 255 255 255
-0.0901867 -0.03407 0.679 255 255 255
0.0782922 -0.197167 0.693 255 255 255
-0.142088 -0.0799003 0.403 255 255 255
-0.136215 -0.0790931 0.409 255 255 255
0.187972 0.163522 0.594 255 255 255
0.236822 -0.201842 0.839 255 255 255
-0.222032 0.1082 0.471 255 255 255
0.0503793 -0.0820641 0.766 255 255 255
0.023901 -0.000930863 0.686 255 255 255
0.0863004 0.129471 0.593 255 255 255
0.0434533 -0.261148 0.754 255 255 255
0.233461 -0.307692 0.795 255 255 255
0.27823 -0.175673 0.772 255 255 255
0.299575 0.0945577 0.753 0 0 0
-0.196589 0.104465 0.517 255 255 255
-0.0384288 0.176094 0.496 255 255 255
-0.0386034 0.178019 0.488 255 255 255
-0.105546 0.175996 0.489 255 255 255
0.317309 0.170679 0.62 255 255 255
0.283153 0.0306969 0.851 255 255 255
-0.0314207 -0.00750662 0.675 255 255 255
0.0858478 0.0762018 0.64 255 255 255
-0.206591 -0.024336 0.406 255 255 255
0.267915 -0.0496247 0.851 255 255 255
0.0165822 -0.134602 0.76 0 0 0
0.247425 -0.25819 0.79 255 255 255
-0.0869705 0.089358 0.577 255 255 255
-0.185028 -0.0471728 0.398 255 255 255
0.040794 0.0653758 0.636 255 255 255
-0.258958 0.084561 0.524 255 255 255
-0.17598 -0.0505137 0.404 255 255 255
0.00350165 0.0546799 0.632 255 255 255
0.17055 0.0289132 0.706 255 255 255
-0.173728 -0.00208906 0.453 255 255 255
0.378151 0.159234 0.746 255 255 255
0.263892 -0.15325 0.813 255 255 255
0.0837166 0.20378 0.528 255 255 255
0.0520376 0.136306 0.577 255 255 255
-0.196829 0.0431651 0.464 255 255 255
-0.0857309 -0.134087 0.38 255 255 255
-0.124397 -0.0228183 0.47 255 255 255
-0.165229 0.0109041 0.473 255 255 255
-0.174522 -0.0429019 0.413 255 255 255
-0.13881 -0.0145879 0.648 255 255 255
-0.043268 -0.143624 0.707 255 255 255
-0.0160452 0.196587 0.503 255 255 255
0.0194124 -0.0494923 0.727 255 255 255
0.341301 0.149263 0.727 255 255 255
-0.126257 -0.276604 0.756 255 255 255
0.275003 -0.19276 0.77 255 255 255
-0.0124585 -0.228591 0.66 255 255 255
0.0287107 -0.255277 0.668 0 0 0
-0.206369 0.117647 0.472 255 255 255
-0.0537016 -0.146131 0.708 255 255 255
0.286538 0.193154 0.602 255 255 255
0.0952428 0.149452 0.577 255 255 255
0.0426739 -0.0766755 0.762 255 255 255
-0.0548393 -0.133932 0.723 255 255 255
0.304873 0.0255755 0.82 255 255 255
-0.171633 -0.0571738 0.4 255 255 255
0.0775788 -0.188529 0.789 255 255 255
0.0751583 0.0191355 0.685 255 255 255
-0.0138283 0.105286 0.582 255 255 255
-0.122569 -0.108616 0.393 255 255 255
-0.131261 0.0155636 0.499 255 255 255
-0.192711 0.0288806 0.465 255 255 255
-0.146554 0.0452854 0.59 255 255 255
0.232374 -0.134222 0.879 255 255 255
0.177546 -0.00343564 0.745 255 255 255
0.244459 -0.223864 0.81 255 255 255
0.132452 -0.235227 1.012 255 255 255
0.0612503 -0.040303 0.732 255 255 255
0.0259057 -0.237732 0.68 255 255 255
-0.176434 0.15834 0.436 255 255 255
0.349067 0.0811863 0.754 255 255 255
0.355582 -0.0236308 0.697 255 255 255
-0.0272223 0.0731398 0.606 255 255 255
-0.0702975 -0.0837546 0.737 255 255 255
0.217938 0.0310841 0.73 255 255 255
-0.0468322 0.135451 0.547 255 255 255
0.186771 0.14783 0.609 255 255 255
0.230204 -0.182038 0.855 255 255 255
-0.140116 -0.00912808 0.474 255 255 255
-0.133204 -0.204539 0.856 255 255 255
0.0234671 0.160081 0.546 255 255 255
-0.136649 -0.0589484 0.427 255 255 255
-0.153147 0.012654 0.481 255 255 255
-0.158182 0.131641 0.518 255 255 255
0.070686 -0.0331105 0.731 255 255 255
0.214943 0.11371 0.646 255 255 255
0.11352 0.137423 0.594 255 255 255
0.285301 -0.0189328 0.841 255 255 255
-0.171581 0.0438724 0.48 255 255 255
0.318152 0.084893 0.813 255 255 255
-0.112941 -0.00146229 0.49 255 255 255
0.103693 -0.215124 0.682 255 255 255
0.0406496 0.163044 0.55 255 255 255
0.359838 0.0763306 0.731 255 255 255
0.153477 0.142478 0.599 255 255 255
-0.168037 -0.0982313 0.364 255 255 255
-0.0698599 0.154469 0.479 255 255 255
-0.143078 -0.0467101 0.436 255 255 255
0.35122 0.116238 0.775 255 255 255
0.0969981 -0.159153 0.823 0 0 0
-0.0847581 -0.129249 0.384 255 255 255
-0.148102 0.0606677 0.581 255 255 255
-0.150798 0.175465 0.481 255 255 255
0.292947 0.00156372 0.824 255 255 255
-0.20806 -0.0203216 0.405 255 255 255
-0.219212 0.0404878 0.451 255 255 255
0.148569 0.17701 0.569 255 255 255
0.0718906 -0.192192 0.783 255 255 255
-0.195788 -0.0638041 0.374 255 255 255
-0.193468 0.000117888 0.436 255 255 255
0.0892725 0.123188 0.6 255 255 255
0.32889 -0.0430936 0.739 255 255 255
-0.137948 0.01052 0.491 0 0 0
-0.134919 -0.129732 0.361 255 255 255
0.190314 0.202822 0.561 255 255 255
0.0104998 0.0707937 0.62 255 255 255
-0.1461 0.00326104 0.481 255 255 255
-0.166174 0.179477 0.467 255 255 255
0.174815 -0.147201 0.964 255 255 255
-0.191329 -0.0260997 0.413 255 255 255
-0.147953 -0.12539 0.357 255 255 255
0.0671563 0.0201911 0.683 255 255 255
0.341119 -0.0607865 0.707 255 255 255
-0.217651 0.00422446 0.421 255 255 255
0.0356569 -0.257235 0.676 255 255 255
0.108517 -0.143281 0.809 255 255 255
0.33636 -0.0637121 0.714 255 255 255
-0.144286 -0.282078 0.735 255 255 255
0.226265 -0.154439 0.872 255 255 255
0.0930574 0.132366 0.593 255 255 255
-0.0443225 0.135052 0.549 255 255 255
-0.189312 0.00741157 0.448 255 255 255
0.0299804 -0.0434571 0.725 255 255 255
0.240535 -0.265666 0.797 255 255 255
0.2817 0.221196 0.578 255 255 255
-0.137557 -0.000656761 0.484 255 255 255
0.0991274 -0.0358781 0.739 255 255 255
0.234359 -0.0970145 0.892 255 255 255
-0.044161 0.137231 0.547 255 255 255
-0.177629 -0.0209734 0.432 255 255 255
-0.250691 0.0849247 0.521 255 255 255
-0.137451 -0.0378096 0.667 255 255 255
-0.111328 -0.0939805 0.413 255 255 255
0.246419 -0.09921 0.873 255 255 255
-0.161981 0.0269102 0.484 255 255 255
-0.023449 0.172583 0.522 255 255 255
-0.0278378 -0.228982 0.643 255 255 255
0.136059 -0.0495246 0.764 255 255 255
0.0601182 -0.0767761 0.763 255 255 255
-0.126969 0.106076 0.547 255 255 255
-0.217097 0.00011248 0.416 255 255 255
-0.0264833 -0.143922 0.72 255 255 255
0.140093 0.0816236 0.65 255 255 255
-0.185261 0.126869 0.509 255 255 255
0.278037 0.146299 0.646 255 255 255
0.247779 -0.188159 0.821 255 255 255
-0.10301 0.129283 0.512 255 255 255
-0.213477 0.0387105 0.456 255 255 255
-0.147662 0.0561329 0.583 255 255 255
0.133696 0.183651 0.561 255 255 255
0.271243 -0.200279 0.77 255 255 255
-0.12882 -0.12284 0.374 255 255 255
0.119989 0.0742192 0.65 255 255 255
-0.162768 0.0253349 0.484 255 255 255
-0.010341 -0.22713 0.662 0 0 0
-0.114251 0.0711903 0.582 255 255 255
0.294564 -0.0850508 0.782 255 255 255
0.295108 -0.195383 0.724 255 255 255
-0.171829 -0.109262 0.35 255 255 255
-0.128107 -0.0623062 0.431 255 255 255
-0.119445 0.141504 0.511 255 255 255
-0.164706 -0.125505 0.34 255 255 255
0.190164 0.214956 0.55 255 255 255
0.354704 -0.00437973 0.702 255 255 255
0.259138 0.170624 0.609 255 255 255
0.125423 -0.0164564 0.731 255 255 255
0.307977 0.0937045 0.787 0 0 0
0.0534358 -0.0339247 0.723 255 255 255
-0.178984 0.13847 0.503 255 255 255
-0.13814 -0.0976319 0.39 255 255 255
0.354887 0.114532 0.772 255 255 255
0.0616152 -0.180494 0.782 255 255 255
-0.214196 0.163214 0.432 255 255 255
-0.00694156 -0.0903158 0.762 255 255 255
-0.185757 -0.000601126 0.443 255 255 255
0.223309 0.0454439 0.713 255 255 255
0.291791 -0.128521 0.768 255 255 255
-0.0423041 0.163011 0.524 255 255 255
-0.139194 -0.0641334 0.42 255 255 255
-0.168149 0.147408 0.5 255 255 255
0.296764 -0.164345 0.749 255 255 255
-0.141511 -0.253327 0.779 255 255 255
0.240106 0.168797 0.606 255 255 255
0.297934 0.220641 0.584 255 255 255
-0.172197 0.0162233 0.471 255 255 255
-0.0101536 0.0308509 0.65 255 255 255
0.0439696 -0.0577583 0.742 255 255 255
0.32781 -0.0444761 0.742 255 255 255
-0.124198 0.0294271 0.5 255 255 255
0.34313 -0.0359266 0.716 255 255 255
-0.175423 -0.076577 0.38 255 255 255
-0.160788 0.14313 0.505 255 255 255
0.271998 -0.178176 0.783 255 255 255
0.27973 -0.237393 0.73 255 255 255
-0.157581 -0.127351 0.345 255 255 255
0.161999 0.0894388 0.653 255 255 255
0.0973435 -0.0103073 0.717 255 255 255
-0.111677 -0.128576 0.382 255 255 255
0.287407 -0.151275 0.763 255 255 255
-0.103316 0.179662 0.486 255 255 255
0.107786 0.169948 0.564 255 255 255
0.255637 -0.191382 0.812 255 255 255
0.264142 -0.19391 0.79 255 255 255
0.101984 -0.15457 0.82 0 0 0
0.292592 0.0618299 0.823 255 255 255
0.312668 -0.103437 0.732 255 255 255
-0.0994935 -0.100955 0.74 255 255 255
-0.153105 0.00477635 0.476 255 255 255
0.0785181 -0.189819 0.695 255 255 255
0.262061 0.189625 0.591 255 255 255
0.136335 0.160611 0.58 255 255 255
-0.154716 -0.146208 0.769 255 255 255
0.122851 -0.114176 0.808 255 255 255
0.155039 0.210453 0.543 255 255 255
0.295654 -0.0235945 0.813 255 255 255
-0.239761 0.12012 0.458 255 255 255
-0.134089 -0.0694355 0.419 255 255 255
0.311108 0.00927104 0.795 255 255 255
-0.19202 0.0411642 0.467 255 255 255
-0.205179 0.107143 0.48 255 255 255
0.0934388 -0.0825057 0.782 255 255 255
0.333154 0.0444653 0.777 255 255 255
-0.106346 -0.0265291 0.468 255 255 255
0.339027 0.0286135 0.759 255 255 255
0.0219208 -0.256516 0.66 255 255 255
-0.141208 -0.279478 0.744 255 255 255
-0.0173685 -0.121139 0.731 255 255 255
0.159062 0.148079 0.598 255 255 255
0.288382 0.0125596 0.842 255 255 255
-0.122 0.0941836 0.561 255 255 255
-0.152993 0.166106 0.488 255 255 255
0.0204978 0.19663 0.516 255 255 255
-0.0661296 0.011793 0.649 255 255 255
-0.146866 -0.105472 0.375 255 255 255
0.204817 0.125446 0.631 255 255 255
0.329376 -0.140577 0.692 255 255 255
-0.125392 -0.0257675 0.468 255 255 255
-0.0490335 -0.10002 0.742 255 255 255
-0.0950878 0.135474 0.501 255 255 255
0.135255 0.000194678 0.72 255 255 255
-0.0865506 0.0441299 0.614 255 255 255
-0.0504049 0.0569332 0.612 255 255 255
0.331469 -0.131735 0.687 255 255 255
-0.143343 0.114196 0.535 255 255 255
-0.029677 0.0603126 0.616 255 255 255
-0.113301 -0.0988183 0.408 255 255 255
-0.0925407 0.00123162 0.649 255 255 255
0.0254486 -0.252016 0.668 255 255 255
-0.184593 -0.0289972 0.416 255 255 255
-0.171466 0.15735 0.469 255 255 255
0.107208 -0.0373817 0.745 255 255 255
0.10311 -0.202806 0.693 255 255 255
0.119356 0.180853 0.558 255 255 255
0.295704 -0.24234 0.703 255 255 255
-0.0497245 0.154194 0.488 255 255 255
-0.0531008 0.147239 0.505 255 255 255
-0.0290827 -0.171328 0.698 255 255 255
-0.164595 0.183299 0.469 255 255 255
0.0133839 -0.179321 0.721 255 255 255
-0.0621134 0.0694864 0.6 255 255 255
-0.0909568 0.0623384 0.597 255 255 255
-0.106831 0.184436 0.484 255 255 255
0.0882112 0.0980352 0.62 255 255 255
-0.187991 0.0781582 0.551 255 255 255
-0.139865 -0.0300305 0.663 255 255 255
0.262174 0.1326 0.651 255 255 255
-0.0409247 0.184483 0.478 255 255 255
0.191371 0.130147 0.624 255 255 255
0.327963 -0.00971416 0.762 255 255 255
0.101485 -0.0247496 0.73 255 255 255
-0.180617 0.137679 0.467 255 255 255
-0.127341 -0.0293227 0.464 255 255 255
0.133333 0.123065 0.614 255 255 255
0.29356 -0.197104 0.726 255 255 255
0.268154 -0.156397 0.802 255 255 255
-0.0601652 0.121174 0.555 255 255 255
-0.0326578 -0.124026 0.727 255 255 255
0.192224 0.0644604 0.681 255 255 255
0.137249 -0.200091 0.737 255 255 255
0.13329 0.171128 0.571 255 255 255
0.306109 -0.0979566 0.754 255 255 255
0.215583 0.205188 0.565 255 255 255
-0.193524 0.072273 0.554 255 255 255
0.20932 0.137384 0.62 255 255 255
0.114679 -0.0818564 0.788 255 255 255
-0.210192 0.166343 0.431 255 255 255
0.295913 0.151555 0.646 255 255 255
0.277855 -0.0908493 0.823 255 255 255
-0.118076 -0.267161 0.775 255 255 255
0.0500849 0.182445 0.536 255 255 255
0.118718 0.143461 0.591 255 255 255
-0.0978625 0.0352518 0.616 255 255 255
-0.192137 0.128879 0.46 255 255 255
0.0446635 -0.110774 0.775 255 255 255
-0.160085 -0.0471584 0.421 255 255 255
-0.101028 -0.212343 0.832 255 255 255
0.367882 0.110989 0.74 255 255 255
0.316185 -0.140602 0.721 255 255 255
0.121186 -0.0140002 0.727 255 255 255
-0.220664 0.0958064 0.478 255 255 255
-0.102903 -0.0887833 0.417 255 255 255
0.113208 -0.000968857 0.714 255 255 255
-0.134693 -0.270095 0.755 255 255 255
-0.13044 -0.107937 0.386 255 255 255
0.261451 -0.0394518 0.871 255 255 255
-0.156845 -0.0196067 0.449 255 255 255
-0.154886 -0.23732 0.789 255 255 255
0.147919 -0.055211 0.774 255 255 255
0.193286 -0.152932 0.932 255 255 255
0.0458568 0.128964 0.582 255 255 255
-0.010019 -0.172251 0.716 255 255 255
-0.168442 -0.0804986 0.381 255 255 255
-0.201354 0.152575 0.444 255 255 255
0.000439648 -0.222999 0.669 255 255 255
-0.0770751 -0.0797215 0.733 255 255 255
0.121836 -0.109186 0.81 255 255 255
-0.121491 -0.0474689 0.681 255 255 255
0.154297 -0.0203813 0.744 255 255 255
-0.0948109 0.164602 0.479 255 255 255
0.322599 0.0040137 0.779 255 255 255
0.22393 -0.194976 0.863 255 255 255
0.249319 -0.122733 0.849 255 255 255
0.161319 0.132058 0.614 255 255 255
0.137392 0.0287085 0.701 255 255 255
0.00541006 0.185949 0.519 255 255 255
0.0449769 -0.0751385 0.759 255 255 255
-0.127993 -0.238216 0.814 255 255 255
0.187317 -0.174362 0.925 255 255 255
-0.140335 -0.197804 0.857 255 255 255
-0.189741 -0.0491383 0.393 255 255 255
0.346547 -0.0570916 0.704 255 255 255
-0.166705 0.13902 0.508 255 255 255
0.340851 -0.154803 0.666 255 255 255
-0.178592 -0.0609777 0.391 255 255 255
0.0681193 -0.0318336 0.729 255 255 255
-0.123858 -0.0397728 0.454 255 255 255
0.16873 -0.0592183 0.777 255 255 255
-0.179829 -0.0767899 0.375 255 255 255
-0.0397309 0.10832 0.573 255 255 255
-0.148779 -0.0422583 0.434 255 255 255
0.111487 -0.21509 0.689 255 255 255
0.0258209 0.0435441 0.65 255 255 255
-0.0806302 0.0960304 0.572 255 255 255
0.21874 -0.257678 0.843 255 255 255
-0.0548154 0.16081 0.477 255 255 255
0.314855 0.149859 0.657 255 255 255
-0.147049 -0.04898 0.431 255 255 255
0.315552 0.0656078 0.82 255 255 255
0.0445098 -0.0241393 0.712 255 255 255
-0.185157 0.124041 0.511 255 255 255
0.0334216 0.143331 0.564 255 255 255
-0.166229 -0.150064 0.776 255 255 255
0.0369506 -0.111602 0.772 255 255 255
-0.00176434 -0.00202632 0.679 255 255 255
0.32125 0.0180966 0.785 255 255 255
-0.0738906 0.125624 0.543 0 0 0
-0.184478 0.0440023 0.473 255 255 255
-0.175034 -0.0919674 0.365 255 255 255
0.0706698 -0.141333 0.798 255 255 255
0.00284459 -0.0565907 0.727 255 255 255
-0.137245 -0.0355854 0.666 255 255 255
0.0322121 0.0166099 0.673 255 255 255
0.223258 -0.077434 0.918 255 255 255
-0.142076 -0.0053158 0.478 255 255 255
0.0678799 -0.204304 0.714 255 255 255
-0.135849 0.0114112 0.495 255 255 255
-0.136723 -0.102912 0.386 255 255 255
0.256388 -0.124935 0.836 255 255 255
-0.17076 0.164331 0.465 255 255 255
-0.195566 0.104425 0.521 255 255 255
0.333065 0.0976114 0.798 255 255 255
-0.0102122 0.156855 0.541 255 255 255
-0.010089 -0.0514304 0.721 255 255 255
-0.178869 -0.0843393 0.368 255 255 255
0.300952 0.145583 0.657 255 255 255
-0.234542 0.125337 0.458 255 255 255
-0.153902 -0.124207 0.352 255 255 255
-0.0620651 0.0444893 0.619 255 255 255
-0.0281162 -0.118923 0.732 255 255 255
0.0118632 -0.10573 0.775 255 255 255
0.143437 0.161165 0.582 255 255 255
-0.017398 0.0358061 0.644 255 255 255
0.296146 0.212584 0.588 255 255 255
0.313498 -0.171237 0.707 255 255 255
-0.0435682 0.0899515 0.587 255 255 255
-0.149082 -0.273528 0.741 255 255 255
0.285051 0.191512 0.603 255 255 255
0.350162 -0.0101923 0.709 255 255 255
-0.202775 0.0243954 0.452 255 255 255
-0.0686917 0.142938 0.493 255 255 255
-0.172741 -0.0992188 0.359 255 255 255
-0.247671 0.0864541 0.52 255 255 255
0.193193 0.0807434 0.669 0 0 0
0.0753777 -0.204404 0.687 255 255 255
-0.0114359 0.0152841 0.663 255 255 255
0.195606 0.0512296 0.697 255 255 255
-0.168138 -0.123117 0.338 255 255 255
0.132122 0.165489 0.574 255 255 255
0.278866 -0.144691 0.788 255 255 255
0.0589789 -0.145228 0.798 255 255 255
0.267541 0.127795 0.659 255 255 255
-0.177173 0.0193301 0.472 255 255 255
-0.174346 -0.0453695 0.411 255 255 255
-0.0996599 -0.180825 0.789 255 255 255
0.28138 -0.213746 0.747 255 255 255
0.0283239 0.0302057 0.659 255 255 255
-0.0562804 -0.0988126 0.742 255 255 255
0.318064 -0.244659 0.657 255 255 255
0.0277528 -0.166978 0.761 0 0 0
-0.0892707 0.131625 0.505 255 255 255
-0.175023 -0.0847977 0.37 255 255 255
0.220479 -0.206928 0.866 255 255 255
0.26935 -0.264949 0.744 255 255 255
-0.175561 -0.0728187 0.383 255 255 255
0.22662 0.21898 0.565 255 255 255
0.1166 0.201754 0.541 255 255 255
-0.153335 -0.127949 0.75 255 255 255
0.0887377 -0.203933 0.678 255 255 255
0.286357 -0.195147 0.741 255 255 255
0.113778 0.203379 0.536 255 255 255
-0.0914842 0.00123162 0.649 255 255 255
0.09405 0.190129 0.543 255 255 255
-0.164561 -0.124017 0.342 255 255 255
-0.221743 0.0280439 0.44 0 0 0
-0.110641 -0.228865 0.833 255 255 255
0.0343009 0.0198363 0.671 255 255 255
0.327938 -0.204044 0.664 255 255 255
-0.158097 -0.0571538 0.414 255 255 255
-0.142588 -0.0145429 0.646 255 255 255
0.108168 0.166866 0.566 255 255 255
0.0617207 0.14604 0.571 255 255 255
-0.194958 -0.0208234 0.415 255 255 255
-0.168881 -0.100048 0.362 255 255 255
-0.0940191 -0.1301 0.381 255 255 255
0.121939 -0.0963619 0.802 255 255 255
-0.112186 -0.0578236 0.699 255 255 255
0.312097 -0.165491 0.717 255 255 255
0.34226 -0.0967982 0.693 255 255 255
0.335568 -0.144812 0.675 255 255 255
-0.0283903 0.0443952 0.632 255 255 255
-0.111466 0.0132854 0.505 255 255 255
0.129382 0.0486579 0.677 255 255 255
-0.0428482 -0.17739 0.682 0 0 0
0.167109 0.00492206 0.726 255 255 255
-0.142937 -0.253892 0.773 255 255 255
0.340277 -0.156121 0.667 255 255 255
-0.0758737 0.182147 0.468 255 255 255
-0.0106463 0.129564 0.564 255 255 255
-0.181447 -0.0336549 0.415 255 255 255
0.0652084 0.0892416 0.622 255 255 255
-0.181677 0.134027 0.484 255 255 255
-0.0944844 0.0846632 0.577 255 255 255
-0.148169 -0.0141904 0.463 255 255 255
-0.166064 -0.103296 0.361 255 255 255
0.255449 -0.267098 0.764 255 255 255
-0.115348 -0.108975 0.399 255 255 255
0.0827627 0.099569 0.617 255 255 255
0.313219 -0.128404 0.725 255 255 255
-0.16196 -0.0222283 0.443 255 255 255
-0.170235 0.0964635 0.543 255 255 255
-0.147121 -0.0981158 0.382 255 255 255
-0.193451 -0.0413437 0.398 255 255 255
0.28688 -0.0878688 0.796 255 255 255
-0.206509 0.127183 0.462 255 255 255
0.354628 0.0384735 0.735 255 255 255
0.107548 0.177221 0.558 255 255 255
0.322002 -0.0669638 0.737 255 255 255
0.308079 -0.036787 0.784 255 255 255
-0.02857 0.0395012 0.636 255 255 255
0.283731 -0.197518 0.75 255 255 255
-0.134544 0.0912818 0.56 255 255 255
0.377188 0.14412 0.737 255 255 255
-0.211136 0.132962 0.451 255 255 255
0.324771 -0.187935 0.68 255 255 255
0.0727166 -0.0511942 0.752 255 255 255
0.187022 0.108118 0.644 255 255 255
-0.158337 -0.0504638 0.42 255 255 255
-0.144166 -0.0451872 0.435 255 255 255
-0.0941563 0.0303378 0.618 255 255 255
0.348332 0.107687 0.777 255 255 255
-0.159461 -0.206779 0.826 255 255 255
0.126385 0.0609643 0.667 255 255 255
0.073051 -0.167184 0.81 255 255 255
0.146747 0.118214 0.62 255 255 255
-0.148892 -0.132607 0.347 255 255 255
-0.146662 -0.0149439 0.463 255 255 255
-0.196166 0.152151 0.447 255 255 255
-0.0915149 -0.0469053 0.689 255 255 255
0.000367359 0.140241 0.559 255 255 255
0.331055 0.0434233 0.781 255 255 255
0.111458 -0.0311518 0.741 255 255 255
-0.147217 0.0515655 0.585 255 255 255
0.225934 0.0977222 0.666 255 255 255
-0.0773312 -0.133516 0.747 255 255 255
0.188154 -0.135655 0.96 255 255 255
-0.169489 0.0147215 0.472 255 255 255
0.214122 0.203709 0.566 255 255 255
-0.125507 -0.0875059 0.411 255 255 255
0.128153 -0.127381 0.792 255 255 255
0.237439 -0.171492 0.851 255 255 255
0.166839 0.189558 0.565 255 255 255
0.0985945 0.0093156 0.701 255 255 255
-0.123867 -0.090629 0.41 255 255 255
-0.0956051 -0.122384 0.39 255 255 255
0.22523 0.078444 0.687 255 255 255
0.313531 -0.144521 0.723 255 255 255
0.355556 0.0991471 0.76 255 255 255
0.303899 0.131605 0.673 255 255 255
0.0238871 0.0374836 0.655 255 255 255
0.00159491 -0.0236647 0.698 255 255 255
-0.12616 -0.22043 0.837 255 255 255
0.362603 0.0711807 0.727 255 255 255
-0.0486434 0.152226 0.528 255 255 255
-0.104266 0.138195 0.502 255 255 255
0.298887 -0.00242024 0.811 255 255 255
0.307404 -0.149075 0.728 255 255 255
-0.135589 0.0187364 0.497 255 255 255
-0.0849738 0.173718 0.472 255 255 255
-0.128909 -0.0627152 0.429 255 255 255
-0.124107 0.174761 0.49 255 255 255
-0.197934 -0.0175307 0.417 255 255 255
0.355078 0.0791109 0.746 255 255 255
-0.0497286 -0.198255 0.67 255 255 255
-0.0389003 -0.213415 0.653 255 255 255
0.0845816 0.0934404 0.623 255 255 255
-0.17774 -0.0298881 0.419 255 255 255
0.0635047 -0.300824 0.774 255 255 255
-0.174625 0.0781029 0.557 255 255 255
-0.170782 -0.0378886 0.417 255 255 255
-0.234774 0.125063 0.457 255 255 255
0.178764 0.00260853 0.74 0 0 0
-0.0273744 -0.212584 0.657 255 255 255
-0.161783 0.155774 0.493 255 255 255
-0.0110805 0.101414 0.587 255 255 255
0.332324 0.00143277 0.755 255 255 255
0.27443 -0.143772 0.79 255 255 255
-0.131961 -0.0123166 0.478 255 255 255
0.214667 0.0287475 0.731 255 255 255
-0.170726 0.162495 0.482 255 255 255
0.219031 0.0410889 0.718 255 255 255
-0.177699 -0.10889 0.347 255 255 255
0.344613 0.00375608 0.729 255 255 255
0.341062 -0.128336 0.675 255 255 255
-0.130935 0.155149 0.504 255 255 255
-0.127248 0.0978682 0.556 255 255 255
-0.230251 0.106214 0.469 255 255 255
0.247801 -0.225941 0.808 255 255 255
0.303145 0.17123 0.622 255 255 255
0.00487451 -0.211174 0.68 0 0 0
-0.119686 0.0256124 0.505 0 0 0
0.104496 -0.217813 0.68 255 255 255
-0.181222 -0.0105973 0.439 255 255 255
0.255392 -0.25713 0.779 255 255 255
-0.116297 -0.0279147 0.664 255 255 255
-0.133342 0.179339 0.483 255 255 255
0.067392 0.0763985 0.633 255 255 255
0.229527 0.131201 0.634 255 255 255
0.174174 0.0131013 0.721 255 255 255
-0.105228 0.0235241 0.624 255 255 255
-0.186337 0.0260206 0.468 255 255 255
0.0574872 -0.241058 0.745 255 255 255
-0.213762 0.118173 0.468 255 255 255
-0.0711456 0.0328726 0.628 255 255 255
0.346114 0.0720328 0.761 255 255 255
-0.155042 -0.0807025 0.391 255 255 255
0.311802 -0.211828 0.693 255 255 255
0.209951 -0.217622 0.875 255 255 255
-0.17771 0.107293 0.531 255 255 255
0.224369 0.110522 0.652 255 255 255
0.29067 0.224406 0.579 255 255 255
0.257123 0.202838 0.582 255 255 255
-0.213407 0.166968 0.429 255 255 255
0.324293 -0.190974 0.679 255 255 255
-0.00849776 0.153298 0.544 255 255 255
-0.0650694 -0.148402 0.719 255 255 255
0.375295 0.157647 0.75 255 255 255
0.0582087 0.121546 0.592 255 255 255
0.0563161 0.200231 0.521 255 255 255
-0.0597253 0.106451 0.568 255 255 255
0.209756 0.174902 0.59 255 255 255
0.00792924 0.188962 0.518 255 255 255
0.183397 0.156838 0.598 255 255 255
0.0554741 0.161817 0.555 255 255 255
-0.13919 -0.0321708 0.451 255 255 255
0.321872 -0.183429 0.688 255 255 255
-0.0108096 -0.0189568 0.692 255 255 255
0.220676 -0.169789 0.878 255 255 255
-0.12998 0.112836 0.541 255 255 255
0.312088 0.0371727 0.811 255 255 255
-0.14763 0.0934014 0.551 255 255 255
0.266215 -0.153623 0.808 255 255 255
0.10491 0.0271351 0.69 255 255 255
0.0246675 -0.207195 0.708 255 255 255
-0.134999 -0.0137852 0.475 255 255 255
-0.181899 -0.0445967 0.404 255 255 255
-0.210969 0.0402828 0.457 255 255 255
0.110847 -0.034957 0.745 255 255 255
-0.214018 0.0481452 0.454 255 255 255
-0.230976 0.0861251 0.513 255 255 255
0.184595 -0.319966 0.863 255 255 255
-0.00944532 -0.208522 0.675 255 255 255
0.344568 -0.0267167 0.719 255 255 255
0.118668 0.147015 0.586 255 255 255
-0.189964 0.126432 0.462 255 255 255
-0.0886937 0.0411994 0.615 255 255 255
-0.0178476 -0.0329863 0.703 255 255 255
0.295411 -0.206904 0.719 255 255 255
0.303291 0.0517988 0.834 255 255 255
-0.127022 -0.0751203 0.712 255 255 255
0.000379189 0.117527 0.577 255 255 255
0.169566 0.118339 0.626 255 255 255
0.236868 -0.0857848 0.896 255 255 255
0.224446 -0.120375 0.893 255 255 255
-0.0857048 0.0506246 0.608 255 255 255
0.12834 0.133929 0.6 255 255 255
-0.160574 -0.0572688 0.41 255 255 255
-0.150083 -0.0344059 0.442 255 255 255
0.0460449 0.0802607 0.623 255 255 255
0.101185 0.111892 0.613 255 255 255
0.0699756 -0.227102 0.678 255 255 255
-0.0822367 0.153401 0.483 255 255 255
0.00729134 0.0877871 0.605 255 255 255
0.189994 -0.308374 0.862 255 255 255
0.120067 0.164335 0.57 255 255 255
0.17637 -0.296952 0.878 255 255 255
-0.111176 -0.139134 0.372 255 255 255
-0.158634 0.135643 0.514 255 255 255
0.144085 -0.0472227 0.767 255 255 255
0.00715444 0.182275 0.523 255 255 255
0.0798458 0.0712162 0.642 255 255 255
-0.146636 -0.238523 0.793 255 255 255
0.326204 -0.162089 0.683 255 255 255
0.0476696 0.129688 0.581 255 255 255
0.0150715 0.175889 0.532 255 255 255
-0.113466 0.0763446 0.578 255 255 255
-0.130441 -0.00848014 0.481 255 255 255
-0.125882 -0.061186 0.433 255 255 255
0.208923 0.149066 0.61 255 255 255
0.00536568 0.0805712 0.61 255 255 255
0.291785 -0.236505 0.713 255 255 255
-0.195888 0.0986049 0.488 255 255 255
0.00362908 -0.251375 0.655 255 255 255
-0.124392 0.0802062 0.572 255 255 255
0.357279 0.0860474 0.743 255 255 255
-0.237627 0.0957326 0.47 255 255 255
-0.189133 -0.0386798 0.404 255 255 255
-0.178262 0.157992 0.437 255 255 255
-0.194805 -0.0589503 0.378 255 255 255
0.219828 -0.200574 0.869 255 255 255
0.0901556 0.077364 0.641 255 255 255
-0.172833 0.173195 0.445 255 255 255
-0.0542408 0.168341 0.472 255 255 255
-0.153948 0.167798 0.486 255 255 255
0.0515142 -0.00661703 0.697 255 255 255
0.278763 -0.181483 0.77 255 255 255
0.12011 0.0359609 0.687 255 255 255
-0.177551 0.158703 0.437 255 255 255
-0.181684 -0.0349212 0.414 255 255 255
-0.196991 -0.0404915 0.396 255 255 255
0.297126 0.13938 0.658 255 255 255
0.0501587 -0.104139 0.782 255 255 255
0.371378 0.113827 0.735 255 255 255
0.0156857 -0.240418 0.669 255 255 255
0.0824639 0.0780402 0.638 255 255 255
-0.0819435 -0.0387733 0.684 255 255 255
-0.171384 -0.0121904 0.445 255 255 255
0.109603 -0.240782 0.664 255 255 255
-0.0195221 0.0678884 0.612 255 255 255
-0.114544 -0.080763 0.721 255 255 255
0.23686 -0.18519 0.844 255 255 255
0.254121 0.111812 0.666 255 255 255
-0.140204 0.118973 0.533 255 255 255
0.121284 0.10476 0.624 255 255 255
-0.197434 0.10016 0.484 255 255 255
-0.195996 -0.0422105 0.394 255 255 255
-0.24048 0.0754387 0.538 255 255 255
0.0124187 0.0154224 0.669 255 255 255
-0.0960287 -0.112951 0.397 255 255 255
0.246669 0.185778 0.591 255 255 255
0.0433438 0.199078 0.518 255 255 255
0.178034 0.129312 0.62 255 255 255
-0.0440069 0.163246 0.514 255 255 255
-0.14539 -0.127576 0.355 255 255 255
0.294559 -0.24234 0.703 255 255 255
0.292869 0.100712 0.71 0 0 0
0.116195 0.123841 0.608 255 255 255
-0.0124363 -0.157028 0.721 255 255 255
-0.116705 -0.134419 0.766 255 255 255
0.127894 0.161378 0.576 255 255 255
0.283408 -0.15747 0.769 255 255 255
-0.0860016 0.0227973 0.632 255 255 255
0.118175 0.123841 0.608 255 255 255
-0.170891 0.15836 0.44 255 255 255
0.270885 -0.0587611 0.843 255 255 255
-0.0683929 -0.178783 0.705 0 0 0
0.0796773 -0.0776817 0.772 255 255 255
0.213308 -0.189436 0.883 255 255 255
0.097714 0.0488041 0.664 255 255 255
-0.121828 0.185641 0.481 255 255 255
0.21043 0.0205881 0.737 255 255 255
-0.0244372 0.146216 0.544 255 255 255
-0.0602684 0.0568402 0.611 255 255 255
-0.105255 -0.0164093 0.484 255 255 255
0.136607 0.134375 0.602 255 255 255
-0.154823 0.143697 0.507 255 255 255
-0.154945 -0.0878365 0.386 255 255 255
0.358006 0.089554 0.742 255 255 255
0.12977 0.163253 0.576 255 255 255
-0.153464 -0.147459 0.769 255 255 255
0.212509 0.0986899 0.658 255 255 255
-0.202093 -0.0101386 0.42 255 255 255
-0.159617 0.0339988 0.484 255 255 255
0.231003 0.210345 0.569 255 255 255
0.109409 0.0699882 0.65 255 255 255
-0.1534 0.0969965 0.546 255 255 255
-0.0270451 0.105105 0.581 255 255 255
-0.170774 -0.0628871 0.395 255 255 255
0.213217 0.194185 0.576 255 255 255
0.0137783 0.19495 0.516 255 255 255
0.231845 0.184503 0.59 255 255 255
0.14012 0.14852 0.592 255 255 255
0.331287 -0.17943 0.673 255 255 255
0.124745 0.113352 0.621 255 255 255
0.0991856 0.0385709 0.674 255 255 255
0.315402 -0.176628 0.701 255 255 255
0.0716506 0.0385137 0.673 255 255 255
-0.125483 -0.148418 0.774 255 255 255
0.0963413 0.0193589 0.693 255 255 255
0.120633 -0.0963619 0.802 255 255 255
0.0961279 0.0425758 0.668 255 255 255
0.29436 0.191479 0.606 255 255 255
-0.17836 -0.0413565 0.411 255 255 255
-0.171832 0.153861 0.47 255 255 255
0.128171 -0.241145 0.665 255 255 255
0.194785 -0.0261057 0.77 255 255 255
-0.143543 -0.122433 0.362 255 255 255
-0.0991351 0.132446 0.505 255 255 255
-0.163052 -0.0852344 0.38 255 255 255
0.0848489 -0.0306893 0.73 255 255 255
0.0139857 0.0491998 0.641 255 255 255
-0.0996677 0.0264428 0.621 255 255 255
0.0997934 0.0974957 0.623 255 255 255
0.35365 0.0654926 0.743 255 255 255
-0.136845 -0.120044 0.371 255 255 255
-0.0497943 0.156679 0.481 255 255 255
-0.194283 0.106461 0.484 255 255 255
0.172297 0.20263 0.553 255 255 255
-0.225386 0.104146 0.47 255 255 255
-0.115576 0.148883 0.505 255 255 255
0.10619 -0.0477126 0.755 255 255 255
-0.0142322 0.0859417 0.599 255 255 255
-0.190105 -0.0089805 0.43 255 255 255
0.271601 0.11667 0.669 255 255 255
0.0574874 0.161494 0.557 255 255 255
0.274104 -0.217367 0.764 255 255 255
-0.134598 -0.111825 0.38 255 255 255
0.153304 -0.162339 0.751 0 0 0
0.00734595 0.167929 0.537 255 255 255
-0.161432 -0.0807147 0.388 255 255 255
-0.202326 0.140302 0.451 255 255 255
-0.115497 0.181285 0.484 255 255 255
0.171052 0.0536918 0.685 255 255 255
-0.123138 0.160918 0.499 255 255 255
-0.140221 0.156167 0.502 255 255 255
-0.0336085 -0.136097 0.722 255 255 255
-0.126072 -0.10093 0.398 255 255 255
0.288844 -0.161173 0.757 255 255 255
0.348839 -0.0444896 0.704 255 255 255
0.223681 0.113356 0.65 255 255 255
0.273745 -0.218324 0.763 255 255 255
-0.200919 -0.0462585 0.385 255 255 255
0.258242 -0.291824 0.754 255 255 255
0.0837226 0.0556888 0.656 255 255 255
-0.117193 -0.0959666 0.41 255 255 255
0.200216 0.0837583 0.667 255 255 255
-0.0425738 0.0581184 0.614 255 255 255
-0.00496795 -0.227816 0.664 0 0 0
-0.130669 0.0531459 0.592 255 255 255
-0.134288 -0.236309 0.812 255 255 255
-0.118491 0.0223283 0.619 255 255 255
0.311548 -0.233906 0.685 255 255 255
0.35115 0.00134927 0.711 255 255 255
-0.0054019 -0.16782 0.722 255 255 255
0.168558 0.165416 0.587 255 255 255
-0.17841 -0.0579441 0.392 255 255 255
-0.149124 0.111127 0.537 255 255 255
0.187622 -0.311901 0.864 255 255 255
0.255046 0.0842785 0.689 255 255 255
0.186321 -0.015789 0.756 255 255 255
-0.215091 0.103152 0.476 255 255 255
0.174049 0.0398871 0.697 255 255 255
0.0754882 0.183944 0.543 255 255 255
-0.120276 0.143999 0.511 255 255 255
-0.1311 -0.13759 0.357 255 255 255
-0.199454 0.122255 0.472 255 255 255
-0.165447 -0.126592 0.337 255 255 255
-0.102926 -0.0983949 0.409 255 255 255
-0.226434 0.108504 0.469 255 255 255
-0.20437 0.0629188 0.559 255 255 255
-0.202527 0.122255 0.472 255 255 255
-0.0624752 0.0179901 0.644 255 255 255
0.0779906 0.165392 0.561 255 255 255
0.210721 -0.299355 0.833 255 255 255
-0.165981 -0.0975798 0.366 255 255 255
-0.040154 0.144529 0.541 255 255 255
0.29216 0.0249801 0.845 255 255 255
0.0784942 0.0456997 0.666 255 255 255
-0.156109 -0.13052 0.343 255 255 255
-0.1827 -0.102134 0.349 255 255 255
0.0618865 0.063704 0.64 255 255 255
-0.159767 -0.0848818 0.384 255 255 255
-0.13046 0.108834 0.543 255 255 255
-0.0204342 0.162037 0.532 255 255 255
0.0123259 -0.247266 0.664 255 255 255
0.279588 -0.184558 0.762 255 255 255
-0.0750235 0.113657 0.558 255 255 255
-0.0780559 -0.122497 0.754 255 255 255
0.0430104 -0.143954 0.791 255 255 255
0.333786 0.00142329 0.75 255 255 255
0.0932498 0.0697728 0.648 255 255 255
-0.000635764 -0.246046 0.655 255 255 255
0.139459 -0.181854 0.736 255 255 255
0.30103 -0.247605 0.689 255 255 255
0.178821 0.176657 0.58 255 255 255
-0.152584 -0.0720305 0.403 255 255 255
-0.124021 -0.0689983 0.429 255 255 255
-0.12727 0.118118 0.537 255 255 255
0.0519158 0.191751 0.528 255 255 255
0.0410554 0.141575 0.568 255 255 255
-0.0841442 0.162022 0.476 255 255 255
-0.121219 -0.243216 0.813 255 255 255
-0.150886 -0.12826 0.349 255 255 255
-0.113139 -0.122072 0.387 255 255 255
0.210366 0.0158764 0.741 255 255 255
-0.0893899 -0.154565 0.767 255 255 255
0.226907 0.164581 0.605 255 255 255
0.245106 -0.2082 0.821 255 255 255
-0.0501548 0.15242 0.517 255 255 255
0.171701 0.127089 0.619 255 255 255
-0.104379 0.16553 0.491 255 255 255
0.17577 0.209333 0.547 255 255 255
0.32148 -0.094189 0.725 255 255 255
0.163737 0.18746 0.567 255 255 255
0.136096 0.167648 0.575 255 255 255
-0.154979 0.00866757 0.477 255 255 255
-0.187206 0.125365 0.478 255 255 255
