ply
format ascii 1.0
comment Created by Open3D
element vertex 1347
property double x
property double y
property double z
property uchar red
property uchar green
property uchar blue
end_header
-0.0639119 -0.689001 3.117 61 59 51
0.44319 -0.23339 1.294 208 202 204
0.106754 0.0398231 1.104 80 70 70
0.134007 0.154066 1.05 1 8 0
-0.672802 0.525353 1.473 112 121 112
-0.693353 -0.286303 2.32 132 121 116
-0.111303 -1.01851 3.026 27 24 10
-0.909892 -0.668125 1.985 123 128 116
0.314842 0.196759 0.646 108 112 107
-0.944599 -0.171024 2.244 119 117 105
0.137668 -0.0290796 1.002 158 154 147
0.112107 0.161361 1.053 4 5 0
0.0498569 -0.0638682 1.16 117 109 106
-0.0591093 0.110885 1.114 11 12 6
-0.245973 -0.793254 2.269 137 128 121
-1.00354 -0.465745 2.107 121 114 104
0.737285 -0.86453 2.755 129 125 118
0.311523 0.179271 0.659 154 159 164
0.374543 -0.0854561 0.908 35 31 32
-0.836275 0.367114 1.774 115 116 112
-0.251427 0.0915058 1.599 4 5 1
-0.16439 0.520687 1.494 40 38 19
-0.220669 0.532667 1.48 76 78 60
0.343484 -0.17195 1.203 102 97 95
-0.643033 0.254917 2.03 129 122 114
0.143904 0.158121 1 11 12 3
0.0806137 -0.768214 3.215 22 20 10
-1.06274 -0.0512828 2.278 127 125 115
-1.01682 -0.419571 2.099 131 132 126
-1.10441 -0.117991 2.143 138 139 130
0.978916 -0.893471 2.818 123 114 107
0.0500097 -0.878608 2.953 9 9 3
-0.705065 -0.524692 2.181 120 117 112
-0.828317 -0.185386 2.286 114 107 97
-0.21437 -0.960302 2.953 29 25 14
-0.690864 -0.460807 2.181 123 114 105
0.0111976 0.427092 1.273 14 10 1
-0.882994 -0.598019 2.114 123 119 108
-0.149062 -0.00870955 1.396 8 15 19
-0.240792 0.5572 1.456 91 93 84
-0.86738 0.312633 1.899 119 114 112
0.100653 0.34932 1.007 22 21 6
0.845888 -0.765069 2.818 123 113 111
0.203891 0.257297 0.806 144 144 144
-0.77676 -0.487406 2.173 123 116 106
-1.10572 -0.18683 2.173 132 125 115
0.214096 0.0241079 0.863 189 188 192
-0.227935 -0.823762 3.071 63 59 48
-0.693398 -0.384128 2.189 121 112 107
-0.838226 -0.16053 2.303 114 106 94
0.216781 0.16643 0.768 142 139 136
-0.27731 -0.0931525 1.513 9 9 3
0.203572 0.131952 0.826 129 124 122
0.249231 0.176752 0.764 97 96 81
-0.757803 0.0619808 2.356 111 104 96
-0.136349 -0.257304 1.48 7 11 6
0.0824158 -0.160949 1.194 204 198 202
0.358326 -0.183368 1.227 99 96 93
0.110536 0.264895 0.951 73 27 0
-0.653751 -0.11449 2.44 155 148 138
-0.822684 -0.22888 2.312 113 106 100
0.295151 0.03835 0.808 191 191 187
-0.551498 0.318006 1.876 127 120 112
-0.354861 0.533991 1.477 115 115 111
0.240848 0.122847 0.769 169 170 166
-0.674355 0.515828 1.487 110 117 109
0.752328 -0.427802 1.47 172 177 167
0.317714 0.205421 0.637 120 119 119
0.099968 -0.725364 3.165 46 37 42
0.359177 0.0266802 0.813 191 198 202
-0.0872871 -0.803585 3.231 47 45 37
0.576303 -0.302518 1.339 205 205 201
0.0861982 0.424007 1.094 21 14 4
0.229056 0.179185 0.78 74 75 62
-0.941637 -0.0224523 2.365 126 123 109
0.118469 -0.0942319 1.096 185 176 181
0.0804141 0.0401276 1.165 29 20 23
-0.249692 -0.327453 1.439 9 10 6
-0.640788 0.450126 1.616 114 110 101
0.360201 -0.853663 2.561 150 141 132
-0.410205 0.414477 1.719 98 95 79
0.353368 0.0376856 0.794 200 204 199
0.160073 0.249347 0.81 114 114 114
0.318432 0.00698624 0.831 204 203 205
-0.223078 -0.194684 1.48 9 10 4
0.89396 -0.737981 2.768 114 107 97
-0.751928 0.52775 1.473 112 122 110
-0.546205 0.523118 1.494 118 117 102
1.21972 -0.994015 2.911 115 108 98
-0.21083 0.293328 1.607 1 5 0
-0.222234 -0.75833 2.253 124 118 105
-0.831453 0.150686 2.196 127 123 114
-0.498112 0.349016 1.815 97 83 77
0.279289 0.0726954 0.768 193 192 192
-0.0882327 -0.844179 3.266 34 30 19
-0.541088 0.22818 2.057 118 114 105
0.312673 0.0353224 0.799 195 196 192
0.147732 0.249853 0.913 120 115 111
0.0360639 -0.204743 1.273 192 186 188
-0.388381 0.347549 1.734 56 52 41
-0.467775 -0.604985 2.151 128 121 113
0.521764 -0.349121 1.502 201 202 198
-0.403765 0.52785 1.48 111 113 104
0.952862 -0.731315 2.743 112 108 99
-0.590915 -0.528133 2.166 126 117 108
0.761094 -0.835549 2.793 124 121 116
0.562485 -0.232841 1.194 132 134 125
0.580041 -0.358429 1.47 135 137 124
0.0386922 0.0122921 1.225 32 24 21
0.151261 0.152425 0.974 90 86 79
-0.937653 -0.602202 2.024 136 134 126
-0.120741 -0.0998015 1.466 19 32 43
0.196172 -0.0372729 0.961 195 191 196
0.149675 0.0878186 0.944 101 96 92
-0.0145385 0.474098 1.354 13 19 21
0.151561 -0.152327 1.158 203 199 204
0.142051 -0.0876041 1.059 203 197 199
0.219596 -0.0657191 0.989 210 204 206
-0.139133 -0.22902 1.484 6 10 3
0.340462 0.0500031 0.765 203 203 205
-0.113613 0.287568 1.327 15 16 12
0.310542 0.231113 0.648 92 97 102
-0.442347 -0.687956 2.181 130 121 116
0.0164861 0.275455 1.077 1 5 0
-0.594404 0.17026 2.128 117 108 103
0.293836 0.0775052 0.754 193 192 192
-0.297762 -0.298247 1.48 10 13 14
-1.12442 -0.0360545 2.253 127 129 113
0.177898 -0.0492234 0.981 145 132 136
-0.215737 -0.379826 1.416 9 14 4
0.228778 -0.235817 1.273 125 109 118
-0.0729631 0.094255 1.132 10 13 14
-0.820149 0.351969 1.815 119 120 111
0.116162 0.308797 0.934 27 23 16
0.334493 0.141304 0.662 163 169 167
-0.0833536 0.00701753 1.362 12 17 26
-0.944338 -0.409587 2.136 126 127 118
0.478384 -0.930844 2.638 149 139 137
-0.220096 0.232205 1.637 3 4 0
0.459375 -0.21359 1.252 202 203 199
0.287163 0.286782 0.769 46 46 40
0.276068 0.264472 0.766 63 65 49
1.31979 -1.0738 2.871 74 66 54
0.283576 0.200382 0.707 86 88 77
0.506579 -0.257802 1.322 183 183 177
0.280879 0.101589 0.733 183 183 183
-0.444708 -0.666654 2.158 128 124 115
-0.259618 0.307748 1.686 0 6 0
0.664198 -0.836931 2.695 135 126 117
-0.504949 0.530258 1.48 111 111 105
0.272794 0.146247 0.718 171 167 168
-0.25336 -0.796947 2.269 137 128 123
-0.0917935 0.213089 1.137 3 7 2
-0.813829 -0.684657 2.044 128 125 120
-0.229238 0.388904 1.705 21 21 15
0.494258 -0.136667 1.079 208 208 208
0.367508 -0.160679 1.192 97 96 96
-0.280053 -0.35196 1.463 14 9 5
0.27276 0.139818 0.721 160 160 162
0.3331 0.0894092 0.712 162 164 155
0.178038 -0.796605 2.707 15 17 8
1.26575 -0.926451 2.793 42 28 24
0.227986 -0.0175822 0.913 211 205 209
-0.727239 -0.600564 2.173 128 119 110
-1.01394 -0.22301 2.181 130 126 115
0.315545 -0.00256647 0.86 170 164 170
0.290076 0.217339 0.695 89 91 75
0.0411512 -0.164998 1.239 165 159 163
-0.808595 -0.505087 2.173 123 113 113
0.0344771 -0.2659 1.375 210 204 210
-0.196035 -0.135009 1.513 6 7 3
-0.857308 0.15733 2.189 125 121 110
0.250768 0.128355 0.75 154 149 145
-0.507543 0.511326 1.539 117 114 111
-0.906997 0.111828 2.278 120 121 110
1.3327 -0.893422 2.604 100 113 112
-0.259884 0.0943433 1.603 4 5 0
0.273428 0.270413 0.806 58 56 46
-0.517222 -0.532545 2.244 125 118 110
-0.706642 0.284256 1.959 130 124 111
0.495546 -0.174388 1.13 207 206 206
0.436395 -0.389276 1.555 163 161 151
-0.265283 -0.219803 1.487 6 10 3
-0.576973 -0.336726 2.278 117 108 101
0.161111 0.0262309 0.939 163 155 154
-0.701565 0.501396 1.547 115 115 115
-0.746451 -0.263507 2.286 115 107 95
-0.518197 -0.761275 2.128 136 127 120
0.27282 0.27639 0.812 47 43 36
0.861116 -0.749191 2.793 118 109 102
-0.658131 -0.325314 2.329 124 120 123
0.443991 -0.137722 1.116 204 204 208
-0.694049 -0.781118 2.044 136 129 119
-0.299743 -0.148693 1.502 14 11 8
0.253759 -0.296033 1.412 214 203 207
-0.356078 0.495128 1.567 95 96 87
0.334437 -0.196219 1.22 97 97 99
-0.447012 -0.731077 2.204 132 125 119
-1.06645 -0.0290405 2.278 123 124 111
0.638475 -0.34872 1.384 157 159 148
0.308219 -0.0628133 0.969 185 177 174
-0.0165942 -0.0258436 1.342 5 11 9
-0.977452 -0.136545 2.278 120 118 106
0.495633 -0.966188 2.55 121 109 107
0.27055 0.240455 0.761 84 86 70
0.110905 0.269766 0.941 62 29 12
-0.674924 0.495128 1.567 124 125 116
-0.685701 0.342351 1.859 127 123 114
0.0132698 0.470595 1.273 9 11 2
0.363239 -0.37953 1.567 193 190 187
0.186162 0.15009 0.877 124 122 110
-0.996225 -0.397664 2.128 124 123 106
1.06915 -0.774864 2.755 68 64 55
1.1286 -0.890931 2.884 91 87 76
0.03368 -0.782553 3.231 23 24 15
-0.782312 0.469271 1.583 114 122 111
-1.02122 -0.270137 2.189 127 123 116
0.458345 -0.150974 1.12 163 164 155
0.306162 0.127622 0.693 182 189 183
-0.144605 0.549099 1.466 41 38 22
-0.211321 0.425039 1.591 37 35 25
0.79543 -0.838442 2.818 130 119 112
0.263911 0.0502461 0.809 176 175 177
0.732801 -0.815214 2.755 124 122 114
-0.926383 -0.186376 2.253 114 107 97
-0.796751 0.364395 1.789 117 117 111
0.0859607 -0.0740254 1.114 171 160 164
-0.430773 0.491211 1.579 112 110 100
0.345244 -0.0107978 0.847 32 34 25
0.25321 0.145442 0.75 109 110 99
0.202739 -0.807308 2.684 24 25 16
0.27496 -0.0282276 0.921 213 209 214
-0.683764 -0.49275 2.181 121 117 110
-0.712874 0.179101 2.151 127 120 110
-0.84819 0.0799108 2.32 118 111 101
-0.128132 0.0722238 1.299 31 33 24
-0.63388 -0.744964 2.121 132 128 121
0.334417 -0.221984 1.265 100 131 158
0.218461 -0.941183 2.561 95 88 82
0.251211 0.152555 0.755 105 102 86
-1.08179 -0.0742148 2.189 126 126 122
0.145541 0.248119 0.989 77 74 60
0.381011 -0.0665314 0.892 24 18 22
0.175248 0.0972449 0.917 101 94 86
-0.577637 0.35003 1.805 118 119 110
-0.529306 0.55617 1.435 117 118 112
-0.379913 0.197994 1.734 85 83 75
1.12351 -1.01773 2.871 115 113 101
-0.106712 0.478768 1.539 28 26 14
-0.333027 0.517381 1.52 104 98 100
0.510647 -0.934145 2.672 145 136 131
-0.903139 -0.0647873 2.365 155 148 140
-0.530108 0.540833 1.463 122 121 106
-0.627681 0.556932 1.425 110 116 114
-0.0496929 0.0179535 1.351 34 38 33
-0.729263 0.532399 1.466 116 125 116
0.21513 -0.190357 1.208 102 97 93
-0.868436 -0.26866 2.236 114 110 103
-0.992085 0.124765 2.244 120 116 107
-0.0555326 0.393111 1.387 8 6 0
-0.817154 -0.446108 2.196 122 113 106
0.264058 0.116377 0.736 159 151 148
-0.811687 0.477152 1.575 103 114 110
0.529689 -0.132786 1.062 159 159 161
-0.76133 -0.225897 2.32 115 108 98
0.202153 0.313091 0.866 21 16 12
-0.714361 -0.102158 2.43 155 151 144
-0.0370135 0.260801 1.104 4 5 0
0.104197 0.0199154 1.096 84 75 66
0.0848588 0.133491 1.077 12 11 20
-0.196164 -0.244156 1.459 6 10 3
-0.505687 0.347206 1.821 95 88 82
-0.108261 0.27304 1.289 16 16 10
1.29261 -0.829248 2.55 64 59 69
-0.130539 -0.733325 3.133 59 59 53
-0.189273 -0.342818 1.425 8 15 7
0.120532 -0.0300953 1.037 137 126 130
0.0624676 -0.164723 1.222 187 178 183
-0.624122 0.147112 2.196 119 110 103
-0.267036 -0.279487 1.47 7 11 4
-0.843363 0.0356799 2.392 115 112 107
-0.547016 0.285683 1.947 108 101 95
0.263314 -0.115002 1.09 118 117 117
0.265555 0.0371268 0.81 150 143 137
-0.13339 0.0115597 1.375 12 27 44
0.125119 0.284375 0.9 69 34 8
0.213263 -0.230582 1.267 186 178 175
-0.274852 0.0602806 1.599 3 7 2
-0.24283 -0.0709932 1.513 4 8 1
-0.128334 0.349474 1.393 7 12 2
-0.664953 -0.620708 2.121 122 117 113
-0.59827 0.061744 2.347 112 103 96
0.0212029 0.452645 1.252 5 7 0
0.623734 -0.812395 2.672 134 127 119
0.261944 0.260243 0.807 57 58 52
-0.513534 -0.517871 2.228 124 115 108
-0.25915 -0.29304 1.466 6 10 5
0.0571478 0.265384 1.051 4 5 0
0.323759 -0.0251617 0.867 36 40 35
-0.278132 -0.159736 1.491 4 8 1
-1.04849 0.00438752 2.312 122 116 103
0.468074 -0.115731 1.004 153 133 136
-0.022166 0.529186 1.419 32 31 16
-0.273827 0.525549 1.494 94 91 75
1.22718 -1.07866 2.884 121 119 111
-0.633217 -0.427229 2.228 116 112 101
-0.0956547 -0.139471 1.563 11 11 5
0.226757 0.26188 0.808 73 75 64
-0.230928 -0.173476 1.484 4 7 6
-0.771239 0.280207 1.953 123 116 108
0.810034 -0.960179 2.684 132 128 121
1.16615 -0.980102 2.884 106 107 94
-0.767945 0.344261 1.853 128 121 111
0.32317 0.120751 0.686 165 168 169
0.776811 -0.86861 2.768 127 123 116
-0.423273 -0.641417 2.121 131 122 113
0.225278 0.136313 0.789 172 171 171
0.282189 -0.0129524 0.901 212 211 215
0.222793 -0.0130818 0.91 206 202 205
0.514875 -0.939037 2.649 146 139 133
0.623734 -0.799351 2.672 132 125 119
-0.253394 0.0705122 1.595 5 6 2
-0.799214 0.461286 1.591 110 115 103
0.556573 -0.282743 1.308 212 208 209
-0.186553 -0.142678 1.516 4 8 1
0.0748692 0.240953 1.013 20 10 0
0.342788 0.0937316 0.701 68 61 51
0.221432 0.232818 0.803 89 99 87
-0.747284 0.253348 2.044 127 123 112
0.149834 0.0586929 0.945 132 121 114
0.317662 -0.173527 1.187 107 104 101
-0.823089 0.29284 1.911 122 118 107
-0.710765 -0.27671 2.303 114 107 97
0.104251 0.16492 1.043 4 5 0
0.274761 0.182613 0.714 87 88 82
0.320968 0.154465 0.663 171 182 178
0.579457 -0.98708 2.572 142 132 132
0.170956 0.0286321 0.918 170 161 164
-0.828929 -0.773475 2.024 132 130 120
-0.0787456 -0.00405563 1.359 18 33 48
0.0205885 -0.246966 1.345 196 190 194
-0.599645 0.541029 1.47 117 122 112
-0.746045 0.418195 1.7 119 121 112
0.106098 -0.105032 1.116 185 179 183
0.513558 -0.128322 1.068 195 196 192
0.095909 0.132473 1.083 8 11 10
0.315816 0.186823 0.648 124 135 133
-0.808235 -0.171773 2.303 112 107 103
0.392621 -0.164822 1.18 94 90 91
0.111022 -0.0186704 1.059 108 101 93
0.47823 -0.201678 1.217 200 199 206
0.0268462 0.330112 1.145 22 19 3
0.10675 -0.0223051 1.068 109 101 98
0.532098 -0.250804 1.265 210 209 209
0.51993 -0.11024 1.029 191 195 190
0.00746871 -0.240936 1.348 186 177 182
-0.862203 -0.753603 1.972 133 132 115
0.263139 0.0680903 0.787 188 187 187
-1.05191 0.0980639 2.303 118 111 105
0.548233 -0.301685 1.345 182 179 176
-0.0398142 0.445987 1.39 10 12 0
0.272818 0.154944 0.715 146 136 134
-0.0264271 -0.234282 1.4 173 167 173
0.643557 -0.67182 2.719 205 200 198
0.587839 -0.801011 2.707 132 125 117
-0.0897752 0.119734 1.112 22 20 12
0.25462 -0.354597 1.484 220 212 211
0.349323 -0.215628 1.252 91 96 105
0.533628 -0.11887 1.046 170 172 154
-0.542016 0.540833 1.463 123 125 114
-1.0679 0.0691167 2.338 110 113 97
0.27192 -0.235214 1.281 151 142 135
-0.195818 -0.32127 1.422 7 11 4
0.470224 -0.931845 2.593 149 142 136
-0.0718851 -0.850098 3.248 37 35 25
0.230968 -0.866166 2.561 149 141 127
0.270662 0.220185 0.751 80 81 72
-0.211423 0.541942 1.466 66 69 51
1.35897 -1.0477 2.707 47 50 11
0.484935 -0.93156 2.604 145 138 132
-0.159635 -0.972129 2.755 19 19 21
-0.78576 0.30217 1.911 122 118 111
-0.305814 -0.299053 1.484 23 21 32
0.323945 -0.00816448 0.86 139 138 140
0.288406 -0.00557136 0.893 218 218 222
0.41374 0.018696 0.811 33 34 21
0.0189353 -0.0962898 1.237 111 103 102
-0.978382 -0.321205 2.173 132 128 119
-1.00011 0.192581 2.107 117 110 100
-0.796512 0.259849 2.017 119 117 105
0.38698 -0.0940712 0.92 35 39 34
0.22236 0.170622 0.77 110 103 95
0.11157 -0.166778 1.194 210 203 214
-1.00672 -0.0964401 2.294 117 115 105
-0.964603 0.165637 2.158 120 113 107
0.202473 0.148262 0.827 127 122 120
0.216152 0.0240241 0.86 183 182 184
0.282824 0.205274 0.708 87 89 80
-0.947039 -0.326012 2.158 130 126 117
-0.637764 -0.379173 2.244 118 114 107
-0.262132 0.223309 1.65 0 4 0
0.966 -1.06179 2.755 134 127 121
-0.723566 0.114672 2.261 117 108 99
0.131103 -0.95628 2.649 12 8 0
-0.221451 0.491279 1.571 42 40 28
0.766427 -0.896997 2.731 132 123 114
-0.156321 -0.0770482 1.442 27 33 33
-1.05329 -0.263013 2.189 131 130 115
0.0810988 -0.0836863 1.122 163 155 154
0.228289 -0.336899 1.47 205 201 204
0.754282 -0.873114 2.768 129 127 117
-0.0251588 0.0522468 1.227 6 10 5
0.140127 0.270813 0.866 100 91 84
-0.806946 0.381645 1.748 125 126 113
0.013028 0.139265 1.081 2 8 6
-0.290969 0.230803 1.646 1 5 0
-0.140687 0.265752 1.359 14 14 8
-1.10353 0.0154442 2.278 125 123 113
-0.758734 -0.635453 2.057 125 121 114
0.119419 0.255389 0.986 70 20 0
0.235337 -0.217948 1.242 174 162 160
-0.829935 0.397692 1.719 124 122 114
-0.226456 -0.702199 2.805 60 61 52
-0.506246 -0.503353 2.212 123 114 107
-1.1353 0.16498 2.196 120 117 112
0.0574099 0.421271 1.16 22 12 0
-0.337386 0.487404 1.575 103 101 91
-0.222533 0.434348 1.616 41 39 27
-0.632929 -0.210795 2.32 116 105 96
-0.781293 0.439733 1.646 120 125 115
1.00654 -0.872158 2.884 115 108 102
0.219063 -0.170699 1.208 119 118 118
0.237413 0.08657 0.804 137 132 130
0.158367 -0.178858 1.21 107 101 107
0.272496 0.250817 0.77 88 84 77
-0.122692 0.474929 1.551 33 29 18
-0.878817 0.255676 2.01 120 114 101
-0.19432 0.545595 1.463 43 46 30
-0.165377 0.00269286 1.419 15 22 26
-1.04867 -0.564921 1.997 135 136 132
-0.964924 -0.622031 1.972 136 138 122
-1.02361 -0.481239 2.085 136 134 126
0.00417103 0.272641 1.066 1 5 0
-0.0965754 0.182032 1.128 10 11 5
0.298598 -0.898064 2.499 154 145 138
0.285652 0.0992032 0.733 183 182 184
-0.17505 -0.165803 1.502 6 7 1
-0.246722 0.297207 1.673 1 5 0
0.235531 -0.0747359 1.002 213 209 210
-0.174541 -0.254378 1.477 2 10 0
0.592246 -0.712907 2.707 127 122 118
0.192738 -0.0713321 1 206 202 205
0.311633 -0.183391 1.201 103 99 102
-0.664958 -0.602154 2.166 125 118 108
0.284059 0.224442 0.714 79 87 76
0.0864193 -0.20544 1.252 215 206 213
-0.355379 0.178631 1.659 19 18 20
0.220252 -0.919488 2.582 102 95 85
0.112958 -0.108275 1.112 190 184 188
-0.626787 0.312897 1.882 127 124 110
0.322619 0.0122463 0.821 204 204 204
-0.739448 0.286564 1.953 125 121 114
0.22226 0.245492 0.806 115 118 117
0.237709 0.128185 0.771 160 161 157
-0.2627 -0.695036 2.286 135 116 114
0.115544 0.343312 0.967 9 10 1
0.351432 -0.0846024 0.984 208 206 213
0.454295 -0.379721 1.547 169 170 159
0.0246732 -0.0633046 1.222 118 111 105
0.0589687 -0.272018 1.372 222 211 217
-0.602858 -0.0917277 2.365 125 114 118
-0.457559 -0.607718 2.136 127 119 116
-0.0911464 -1.02326 3.011 26 22 15
1.35324 -0.959216 2.731 74 66 54
-1.17626 0.044764 2.261 124 125 116
-0.697985 0.287071 1.935 130 123 113
-0.266309 0.551485 1.466 103 104 95
0.173377 0.219933 0.931 88 78 64
-0.0969616 -0.0881655 1.432 13 33 55
0.655572 -0.973237 2.66 139 131 128
-0.610909 0.501396 1.547 108 112 105
-0.876627 -0.731376 1.947 130 125 121
-0.141451 0.488777 1.563 34 30 19
-0.127638 0.550356 1.463 42 36 21
0.397909 -0.0659553 0.904 23 19 10
-0.289428 0.301748 1.668 2 6 1
-0.518858 0.455603 1.655 121 119 111
-0.63451 -0.353039 2.312 129 119 117
-0.730777 -0.423755 2.173 119 115 104
0.38411 -0.240172 1.308 213 207 211
0.404434 -0.782774 2.66 139 129 127
-0.606493 0.0799108 2.32 112 104 92
-0.544496 -0.214079 2.236 113 102 93
0.220532 0.151432 0.768 149 143 147
0.270428 0.0536597 0.801 194 193 193
0.483606 -0.190413 1.196 174 177 180
-0.876729 -0.341009 2.099 120 113 107
-0.250286 -0.250781 1.47 6 10 3
0.44797 -0.144453 1.126 200 194 200
-0.204024 -0.860255 2.383 16 18 9
0.344998 -0.0677543 0.889 12 12 12
-0.662755 0.372385 1.758 123 119 110
0.061984 0.163693 1.046 9 10 6
-0.759484 0.501396 1.547 118 127 120
-0.249007 -0.167015 1.491 6 8 0
-0.833101 0.41885 1.714 115 116 103
0.266544 0.0410305 0.809 181 178 173
-0.69131 0.458402 1.599 113 120 114
0.318046 0.0109369 0.823 207 207 209
0.232774 0.150893 0.759 133 128 124
-0.316716 -0.107925 1.513 64 59 57
0.22612 0.0602701 0.82 159 154 152
0.411947 -0.0914672 0.909 19 15 16
0.313707 0.191041 0.648 110 118 115
0.0892016 -0.135133 1.156 200 192 191
0.124992 0.235779 1.005 47 48 35
0.541364 -0.841316 2.695 138 130 127
-0.74098 0.372887 1.774 123 124 113
0.199024 -0.724832 2.953 19 19 13
0.0909296 0.386679 1.046 18 19 8
0.183997 0.191829 0.841 110 107 102
0.290151 0.299881 0.777 36 38 25
0.389627 -0.10266 1.004 201 202 198
0.269314 0.18534 0.734 91 93 84
0.527936 -0.284691 1.327 178 179 175
-0.945454 0.329161 1.87 112 119 111
-0.506592 0.476999 1.583 126 126 120
0.238239 0.0872225 0.798 138 135 132
0.234124 -0.0786198 1.01 206 207 203
-0.760966 0.392697 1.734 128 121 115
-0.0662276 0.0692126 1.176 13 13 15
-0.607019 0.355905 1.805 117 110 102
-0.853681 0.0581468 2.356 117 111 98
-0.542792 -0.554456 2.244 125 116 111
-0.0663326 0.440985 1.425 19 21 10
0.0046523 0.342798 1.189 14 12 2
0.238722 0.0813365 0.804 149 144 140
-0.5723 -0.687665 2.136 132 123 118
0.299448 0.00162824 0.858 207 207 211
-0.670643 0.389876 1.734 123 123 117
-0.718739 -0.302164 2.269 114 110 101
-0.692251 -0.234353 2.329 102 96 98
0.275923 0.182613 0.714 84 86 77
0.273923 0.268353 0.796 53 58 48
-0.640363 0.232316 2.064 129 120 113
-0.580971 0.382737 1.753 126 123 109
0.299384 0.239699 0.663 77 85 74
-0.344201 0.491279 1.571 101 99 91
-0.569702 0.411679 1.719 122 118 107
-0.193789 0.546477 1.459 46 49 28
0.10856 0.292078 0.934 28 22 9
-0.0677819 -0.926155 2.509 34 23 31
0.255081 0.272099 0.823 55 54 37
-0.217513 -0.77333 2.32 73 68 66
-0.667018 -0.503286 2.196 122 118 107
-0.0395237 0.524168 1.463 25 27 18
0.162526 -0.0187761 0.975 173 167 169
0.149212 -0.032018 0.992 173 164 155
0.290462 -0.906197 2.499 152 145 139
-0.695402 0.0512502 2.392 112 104 90
-0.614046 -0.316507 2.32 116 107 110
0.222651 0.206694 0.798 79 84 74
-0.740322 0.552676 1.432 109 112 111
-1.02707 -0.402492 2.099 134 130 119
-0.246837 0.141298 1.603 1 5 0
0.0143667 -0.940284 2.593 17 17 19
1.32212 -0.941439 2.731 55 53 34
-0.316716 -0.11285 1.513 69 64 62
0.235417 -0.0190679 0.913 209 200 203
-0.0919147 0.109268 1.116 11 15 10
0.141422 0.266204 0.874 100 85 75
0.270878 0.209514 0.735 83 85 76
0.290538 0.0788367 0.755 193 193 193
0.191325 0.227051 0.792 110 107 102
0.275164 0.0127087 0.852 222 221 225
-0.228839 -0.153582 1.502 7 8 0
0.309979 0.183282 0.658 136 138 144
-1.02242 -0.648997 1.947 133 142 135
-0.541514 0.505122 1.543 117 115 103
0.304578 0.109181 0.705 180 182 173
0.00998557 -0.273914 1.393 198 194 195
0.330299 -0.224042 1.265 110 143 170
0.120958 0.3502 0.96 10 11 0
-0.118467 -0.951716 2.459 7 11 6
-0.686991 0.264696 2.004 126 122 113
-0.138769 -0.00638246 1.384 6 11 18
-0.21539 0.505184 1.528 44 45 32
-0.20551 -0.321948 1.425 4 8 3
0.2936 0.267119 0.698 74 87 72
-0.426292 0.424974 1.705 115 112 98
0.28709 0.299604 0.793 40 38 26
-0.961751 -0.700816 1.959 133 135 126
0.335074 -0.0797174 0.983 210 209 211
-0.216651 -0.374493 1.422 10 12 3
1.11921 -0.886238 2.884 91 83 71
0.245066 0.130439 0.755 165 165 161
1.35489 -1.01262 2.78 30 22 8
-0.742637 0.363504 1.799 127 120 112
0.315814 0.174981 0.659 171 179 178
-0.855706 -0.557789 2.158 125 117 105
0.0682733 0.212928 1.013 6 13 5
0.335721 -0.204164 1.232 97 97 99
0.121035 0.0604367 1.087 67 58 49
-0.546103 0.412877 1.724 126 122 115
0.225158 0.170844 0.771 90 79 72
-0.906495 0.325246 1.865 117 115 105
0.488346 -0.107348 1.002 169 169 171
-0.872265 -0.473261 2.173 118 115 101
0.00694633 -0.9787 3.04 9 10 1
-0.670858 0.0732021 2.347 111 104 94
0.768678 -0.87798 2.755 128 124 117
0.433316 -0.037301 0.923 19 17 7
0.219136 0.13187 0.809 143 139 140
-0.643656 0.415428 1.7 122 118 111
-0.284318 0.439444 1.686 39 40 29
-0.283123 0.478205 1.587 79 75 68
-0.527299 -0.797506 2.151 136 132 125
0.110134 0.322416 0.961 27 19 7
0.358828 -0.0374578 0.891 24 22 31
-0.522772 0.506431 1.547 124 122 114
0.0494573 -0.122293 1.196 140 130 130
0.330269 0.0529936 0.721 183 189 187
-0.455307 0.529347 1.491 117 115 107
0.3124 0.0264177 0.805 184 184 180
0.097568 0.202236 1.009 10 11 5
-0.26982 -0.012232 1.555 8 9 3
0.253616 0.0240637 0.814 195 194 196
-0.491269 0.495128 1.567 124 122 114
-0.95097 -0.352957 2.151 130 126 115
1.05276 -0.943368 2.844 102 95 89
0.0486226 0.301839 1.09 22 20 8
0.231177 0.0828539 0.819 160 156 159
-0.0665979 -0.797242 3.248 52 53 44
-0.545763 0.512536 1.513 117 118 109
0.190205 0.121677 0.91 101 94 86
0.117225 -0.148045 1.154 205 199 201
-0.272482 0.241451 1.664 5 5 0
-0.13907 -0.022196 1.387 12 24 40
-0.941637 0.00448809 2.365 124 122 110
1.12826 -0.783025 2.768 37 25 9
0.138936 -0.250239 1.305 163 159 162
-0.891635 -0.554019 2.078 119 120 111
-0.885927 0.315724 1.899 111 112 103
1.20012 -0.980144 2.898 101 99 89
0.315363 -0.0140666 0.879 153 156 157
-0.110462 -0.947715 2.459 27 22 20
-0.767054 0.450126 1.616 121 122 116
-0.411135 -0.81357 2.204 142 133 128
-0.729007 -0.277413 2.278 115 108 98
0.42556 -0.711218 2.684 135 125 125
0.0744509 -0.0789058 1.132 145 133 133
0.854631 -0.918793 2.743 127 120 112
-0.82613 -0.622434 2.092 125 118 108
0.271344 -0.0283195 0.924 212 208 213
0.191476 0.23916 0.798 110 118 107
-0.0680765 0.0483677 1.283 8 8 8
1.34132 -0.958967 2.743 54 45 24
-0.0725158 0.462425 1.456 23 24 15
0.290235 0.211284 0.69 89 91 73
0.0287219 -0.127251 1.225 166 160 164
-0.0628487 0.109268 1.116 14 14 10
-0.798569 0.500005 1.535 98 114 103
0.34934 -0.069201 0.889 19 19 13
-0.24591 -0.681466 2.303 129 120 115
0.262523 0.231327 0.789 63 67 62
-0.926154 -0.555115 2.057 128 121 115
0.28674 0.227289 0.712 77 79 68
0.532184 -0.329722 1.47 164 166 155
-0.957159 -0.317669 2.173 131 124 116
0.203572 0.137329 0.826 119 120 111
0.129136 -0.862819 2.793 11 14 15
0.0897599 -0.0442116 1.094 103 90 94
-0.748703 0.507487 1.52 113 118 108
-0.0515765 0.241912 1.108 2 6 0
-0.0739299 0.244828 1.147 3 8 0
-0.50435 0.269275 1.966 109 102 96
0.25087 0.0679981 0.801 187 187 183
0.0194541 0.206642 1.048 7 12 0
0.230292 0.201528 0.793 76 78 67
-0.122391 -0.174749 1.516 7 8 0
-0.255071 -0.274702 1.47 3 12 5
-0.00628139 0.283162 1.073 2 6 1
-0.479647 0.144464 2.01 115 106 99
-0.687804 0.480933 1.579 116 120 115
0.321808 -0.149713 1.167 103 104 100
-0.870034 0.23419 2.051 116 112 103
0.122397 0.153232 1.068 1 8 0
-1.03086 0.184112 2.128 109 113 106
-0.00780345 -0.00614726 1.333 11 12 8
0.110911 0.0920863 1.128 33 30 27
0.016949 -0.136771 1.239 174 166 165
0.30453 -0.354842 1.516 212 206 212
-0.806877 -0.336726 2.278 117 110 104
-0.0190166 -0.0173249 1.359 6 9 10
0.559771 -0.271709 1.286 208 208 204
0.426005 -0.0375839 0.93 7 11 4
0.889762 -0.994546 2.755 133 129 120
0.0595538 -0.100164 1.165 166 158 157
0.218027 -0.028626 0.934 200 196 199
-0.869274 -0.704004 1.959 127 127 121
0.266834 0.0995913 0.754 184 183 185
-0.554431 -0.637046 2.189 129 122 112
-0.735929 0.479575 1.583 124 124 118
1.25048 -0.767643 2.459 69 55 51
0.572741 -0.826685 2.719 136 129 121
-1.05674 0.231528 2.057 108 115 109
0.304945 -0.0342227 0.921 209 209 211
0.951393 -0.9164 2.818 132 122 110
0.292927 0.0717488 0.758 194 194 194
-0.911911 0.155102 2.158 117 114 109
-0.153099 0.5572 1.456 38 32 19
1.27447 -0.833364 2.615 65 104 95
0.373308 -0.897574 2.509 150 142 139
-0.546289 0.222239 2.064 115 113 103
-0.148796 -0.245924 1.484 6 7 3
0.426402 -0.958819 2.509 146 139 133
-0.123127 -0.328825 1.466 42 38 39
0.0416699 0.385688 1.196 28 18 6
0.439561 -0.155287 1.152 211 211 215
-0.114761 0.512536 1.513 33 31 19
1.27306 -0.961668 2.871 65 54 58
0.30823 -0.00688298 0.875 195 195 195
0.487638 -0.228424 1.278 194 194 194
-0.822339 -0.783356 2.024 130 130 126
-0.119238 0.458732 1.539 28 26 14
0.28669 0.0887037 0.745 194 194 190
-0.0842073 -0.942621 3.117 31 27 18
-0.631177 -0.736625 2.078 133 129 122
0.239238 0.0948951 0.797 146 143 140
0.302165 0.187628 0.662 133 139 141
-0.113584 -0.814101 3.231 56 54 46
-0.514054 0.413639 1.739 127 125 117
0.35177 -0.077434 0.918 40 35 45
-0.131303 0.522072 1.505 39 38 23
0.211477 -0.781102 2.684 55 54 54
-0.592449 0.180055 2.121 114 107 101
-0.324747 -0.214222 1.516 63 60 55
0.232987 0.0705993 0.816 139 131 128
0.0841817 -0.10905 1.139 180 171 174
1.17849 -1.10111 2.857 140 138 126
-0.980885 -0.675313 1.959 127 123 116
0.256117 -0.150962 1.162 116 115 117
-1.02115 -0.143388 2.212 129 128 113
0.415655 -0.0114862 0.901 183 186 185
0.168827 0.234748 0.948 99 94 72
-0.821119 0.347267 1.837 121 118 113
0.180722 0.269769 0.808 77 78 67
-0.593681 -0.169922 2.329 111 102 93
0.389644 -0.922072 2.509 168 159 154
-0.163936 -0.998752 2.911 27 25 13
0.447734 -0.648585 2.66 132 124 121
0.28784 0.125953 0.709 158 158 152
0.179477 -0.746753 2.871 15 15 15
0.750831 -0.942936 2.66 137 130 124
-0.190123 0.250938 1.587 3 4 0
-0.808393 0.202098 2.099 118 116 104
-0.870034 -0.683664 2.051 126 128 112
-0.632461 0.467637 1.595 117 110 102
0.271179 0.250568 0.777 86 79 73
0.171515 0.234057 0.921 69 70 57
0.0820474 0.26227 1 35 20 10
1.09906 -0.957253 2.844 109 111 100
-0.820875 -0.196546 2.286 112 108 99
-0.520399 -0.676175 2.166 131 123 111
0.284866 0.0835293 0.753 195 194 194
-0.174247 -0.444347 1.416 132 117 118
-0.92865 0.303118 1.917 113 118 106
0.259872 -0.0159554 0.905 212 206 208
-0.0506921 0.158017 1.089 4 8 1
0.512626 -0.14693 1.077 187 187 189
0.26338 0.0890584 0.769 180 180 182
-1.062 -0.344583 2.121 133 131 123
0.232279 -0.734127 2.672 135 132 118
-0.711421 -0.0505414 2.42 115 106 99
0.063982 -0.159562 1.213 194 189 187
-0.266044 -0.134295 1.505 7 7 1
-0.613295 -0.377899 2.303 117 110 104
0.0652961 0.242142 1.018 19 11 0
0.123595 -0.212398 1.257 205 196 201
-0.823293 -0.683664 2.051 125 126 120
-1.11836 0.0413935 2.278 127 125 115
-0.17917 0.554831 1.456 46 44 32
-0.205733 0.515824 1.494 49 43 30
0.329105 0.148845 0.662 182 188 186
-1.02942 -0.0518456 2.303 126 123 109
-0.234705 -0.853804 2.967 45 41 34
0.170622 0.229575 0.81 126 127 118
1.29543 -0.962259 2.818 47 37 25
0.271704 0.1077 0.734 181 178 175
-0.140975 0.0667329 1.406 13 8 4
-1.13325 -0.0572025 2.22 127 123 112
-0.058897 0.121325 1.11 21 18 13
-0.79306 0.398849 1.724 118 116 108
-0.177816 -0.286491 1.445 7 10 9
-0.956334 -0.236979 2.212 124 121 116
-0.0532837 0.232477 1.106 3 8 0
0.0744065 0.117076 1.104 7 10 11
0.354065 -0.712386 2.672 167 156 151
0.456394 -0.817404 2.66 140 130 130
-0.204212 -0.382131 1.416 10 10 4
-0.993122 -0.538378 2.057 128 126 116
0.190776 0.189063 0.823 112 109 104
0.246641 -0.103601 1.064 123 122 124
0.252352 -0.180983 1.198 109 109 109
-0.77064 -0.68022 2.071 127 122 118
0.15874 -0.0464998 0.991 146 136 136
0.309707 -0.221984 1.265 100 137 167
0.156858 0.0416 0.941 160 156 157
-0.904834 0.127959 2.236 123 119 108
0.284727 0.140555 0.707 134 140 140
0.328857 0.00832852 0.83 159 161 169
-0.296786 0.47941 1.591 88 81 75
-0.224834 0.182123 1.595 0 7 1
-0.01626 0.0721705 1.162 7 13 11
0.0227787 0.209251 1.044 8 13 3
-0.253861 -0.167015 1.491 6 10 3
0.384802 0.0327447 0.769 187 199 203
-0.0992638 0.537171 1.466 39 37 27
0.257441 0.31819 0.835 4 8 3
-0.0210569 -0.157578 1.348 100 91 94
0.184204 0.00770925 0.917 168 161 170
0.259735 0.0141614 0.856 212 211 215
0.144685 -0.941112 2.743 11 11 11
-0.8381 0.259739 1.991 123 116 108
0.329684 0.149696 0.661 183 189 187
0.378983 -0.192753 1.249 97 94 91
0.851118 -0.756975 2.805 121 111 109
-0.87898 0.0239119 2.383 127 120 112
-0.293267 0.289321 1.659 3 7 2
-0.886979 -0.604023 2.099 127 120 112
0.571083 -0.991266 2.572 145 136 131
-0.808022 -0.514045 2.181 123 115 114
0.403289 -0.224791 1.281 196 195 195
0.0891786 0.242803 1.007 20 10 0
-0.0894766 0.516142 1.502 30 28 16
-0.623341 0.280575 1.978 131 124 118
-0.121193 0.125904 1.135 17 18 9
-0.56214 0.115535 2.278 115 108 98
1.06202 -0.947996 2.844 102 93 86
0.550848 -0.377942 1.571 208 207 207
-0.0380649 -0.201395 1.409 96 87 78
-1.08404 -0.311964 2.158 130 126 115
0.00927999 0.206305 1.055 6 10 5
0.0764426 0.204484 1.012 3 12 3
-0.354726 0.506317 1.539 105 106 95
-0.580548 -0.671238 2.128 131 122 113
-0.553055 -0.611343 2.212 124 122 114
0.347397 -0.0944036 1.039 120 118 127
-0.807789 -0.0228036 2.402 114 105 100
-0.535851 0.29112 1.941 112 107 103
-0.760317 0.272699 1.991 122 119 105
0.185402 0.176872 0.835 148 143 141
-0.168785 -0.873974 3.181 56 52 43
-0.587054 0.0980639 2.303 117 108 99
-0.486476 -0.505119 2.204 125 116 109
-0.663861 0.493836 1.571 127 124 119
-0.892333 0.122463 2.269 122 120 110
0.237237 0.0925328 0.799 136 133 130
-1.02131 -0.137666 2.236 123 119 108
0.267847 0.171262 0.73 97 95 85
-0.524472 0.350816 1.794 104 97 91
-0.723566 -0.29006 2.261 116 112 105
-0.79021 0.335247 1.87 119 120 109
-0.206227 0.545595 1.463 64 63 46
0.206582 -0.141264 1.16 126 125 127
0.387547 -0.096832 0.947 60 55 63
0.221193 -0.102923 1.075 126 125 129
0.129854 -0.780843 2.911 25 34 27
0.28565 0.236215 0.718 81 83 70
0.116696 0.245347 1.004 39 15 0
-0.222795 0.453198 1.599 42 39 36
0.318775 -0.863916 2.53 149 138 131
-0.869757 -0.557789 2.158 123 116 110
-1.06636 -0.437012 2.037 134 132 120
-0.692377 -0.335378 2.22 121 110 101
0.959909 -0.859344 2.857 123 109 103
-0.72483 0.249166 2.037 126 122 111
-0.0987151 0.0501396 1.33 35 14 0
0.690853 -0.892553 2.731 135 128 120
-0.613634 -0.135593 2.392 107 103 92
0.302691 -0.0142106 0.888 197 197 197
0.434298 -0.750527 2.684 124 113 117
0.0643469 -0.0464343 1.149 107 99 98
0.812924 -0.856131 2.831 122 118 111
0.050496 0.261244 1.055 0 4 0
0.532947 -0.383055 1.571 203 203 199
-0.654202 -0.508806 2.189 124 117 107
-0.231506 -0.694485 2.347 122 115 109
-0.384137 0.492578 1.567 96 97 88
-0.629259 -0.505244 2.189 123 116 108
0.339157 0.0414048 0.791 210 216 216
-0.29173 0.513782 1.524 97 93 84
0.2347 0.0403522 0.822 175 171 172
-0.642346 -0.618245 2.173 129 120 113
0.273934 0.171497 0.721 89 90 79
0.072115 0.358985 1.07 26 16 2
0.29513 -0.0798661 1.005 209 208 208
0.242263 -0.0980366 1.06 127 126 128
0.329463 0.0551865 0.676 96 103 107
-0.651756 -0.297274 2.347 128 124 129
0.296355 -0.140066 1.135 109 109 105
0.414644 -0.115721 1.064 105 104 115
0.0327225 0.212705 1.036 9 9 9
-0.364231 0.513552 1.516 107 103 94
-1.02356 -0.418755 2.078 130 131 122
0.165266 0.0334745 0.928 164 155 158
-0.0456657 0.139413 1.096 14 17 16
-0.349472 0.105039 1.607 19 17 9
0.370878 -0.100338 1.048 169 172 175
0.193468 0.216102 0.785 105 102 99
0.2411 0.207641 0.782 84 85 72
0.119043 0.271526 0.921 62 26 5
0.29833 0.109106 0.712 149 145 146
-0.773218 0.413876 1.705 121 119 107
0.283266 0.31819 0.835 24 25 21
0.0118949 -0.929229 3.04 8 10 1
0.821382 -0.90233 2.707 130 123 113
-0.585876 0.556536 1.442 112 119 111
0.290044 0.29342 0.77 40 41 28
-0.00659166 0.0919231 1.126 18 19 15
0.430404 -0.137367 1.128 193 192 194
-0.64224 -0.734779 2.092 130 126 117
-0.22945 0.14283 1.591 1 5 0
-0.602033 -0.476272 2.22 124 115 106
-0.480324 0.351131 1.826 93 84 77
0.534617 -0.365235 1.539 207 207 201
0.115111 0.0628351 1.098 76 72 65
0.20011 0.184498 0.781 139 135 126
0.131727 -0.787304 2.953 23 35 27
0.4445 -0.0825918 0.909 18 20 9
0.252921 -0.215405 1.239 113 99 110
-0.165366 -0.299352 1.439 4 8 3
0.241104 0.14946 0.758 84 78 80
-0.720666 -0.687983 2.044 128 124 115
-0.203349 -0.863175 2.469 18 22 15
0.452396 -0.0280744 0.916 151 151 147
-0.360401 -0.733378 2.158 135 126 119
-0.270542 -0.728161 2.228 132 124 123
-0.134618 -0.14773 1.543 6 7 3
-0.614718 0.541942 1.466 118 126 115
1.13329 -0.872158 2.884 61 50 43
-0.874177 0.17146 2.143 122 115 107
0.187364 -0.931187 2.78 11 12 6
0.303091 0.221493 0.657 132 138 136
-0.16805 -0.156337 1.505 4 9 0
-0.298624 0.427749 1.705 40 41 30
-0.959792 0.130656 2.22 121 117 108
0.389417 -0.00403515 0.875 200 206 204
0.34956 -0.677564 2.638 137 127 127
0.293308 -0.119202 1.096 109 112 111
-1.0034 -0.652166 1.947 136 137 131
0.214839 0.160598 0.77 125 127 118
0.293329 0.241175 0.692 90 91 80
0.351669 0.0227391 0.814 191 194 195
0.291379 0.186371 0.677 136 141 131
0.070496 -0.782553 3.231 25 23 13
-0.87744 0.1651 2.151 119 116 102
0.266218 0.226439 0.781 67 72 60
0.404764 -0.210708 1.247 205 205 199
-0.981754 0.309543 1.899 117 121 114
-0.00445869 0.242359 1.055 9 13 8
-0.98973 0.216984 2.078 113 111 101
0.405015 -0.0480224 0.927 7 15 4
-1.03359 -0.427455 2.071 134 132 120
1.06202 -0.957253 2.844 103 98 80
0.295117 0.227375 0.668 101 105 98
0.219529 -0.133146 1.139 123 122 124
-0.723378 -0.433466 2.151 123 116 106
0.128266 0.0433474 1.018 105 100 96
0.0778602 0.1031 1.128 7 11 4
0.350392 -0.0460021 0.888 13 20 12
0.114037 0.0208872 1.055 94 85 76
0.133061 -0.917615 2.78 12 13 4
0.227324 -0.89294 2.615 129 115 107
0.206828 -0.185834 1.217 116 116 116
0.380162 -0.716734 2.672 166 157 148
-0.279438 -0.20924 1.498 8 10 1
0.235147 -0.0070403 0.895 205 201 204
-0.864594 -0.598516 2.128 128 119 114
0.316687 -0.219056 1.26 85 109 137
-0.911175 -0.494478 2.173 118 114 103
0.333861 0.0488857 0.767 207 207 209
1.26746 -0.855877 2.672 44 37 18
0.337062 -0.238519 1.299 107 150 173
0.0115054 -0.212501 1.308 189 180 183
0.388372 -0.839654 2.582 148 136 136
0.118095 0.246489 1.002 48 15 0
0.207939 0.138002 0.822 124 122 114
-0.620486 0.353945 1.81 122 113 106
1.10014 -0.914948 2.871 101 99 91
-0.844318 -0.276317 2.269 114 108 95
0.40174 -0.247419 1.324 217 211 217
0.549195 -0.298828 1.342 175 172 167
0.336702 0.049161 0.684 205 212 218
-0.545383 0.343109 1.815 118 111 103
0.296593 0.21845 0.664 119 124 114
0.311398 0.187977 0.652 110 116 116
0.141592 -0.96546 2.604 8 11 10
0.149368 0.019244 0.972 135 126 133
-0.641645 -0.181993 2.338 113 106 100
-0.584085 0.539736 1.473 120 117 112
0.0802018 -0.939056 2.831 6 7 0
0.325468 0.0675384 0.726 195 201 201
-0.0747225 -0.153544 1.551 11 14 15
0.214653 0.314086 0.807 12 14 5
0.284481 0.128721 0.718 175 182 176
0.303215 0.126677 0.694 178 182 175
-0.601471 0.336222 1.842 130 127 113
-0.66162 0.233892 2.078 129 120 113
-0.668745 0.443332 1.62 114 111 108
0.242587 0.0954679 0.791 152 149 146
0.870684 -0.885947 2.78 123 119 112
0.287407 0.283303 0.763 49 56 48
-0.795348 0.363504 1.799 115 116 110
-0.244153 -0.164588 1.491 4 9 0
-0.253471 0.459505 1.612 47 43 32
-0.477561 -0.499712 2.196 122 113 106
-0.92456 0.250002 2.017 116 119 103
-0.896743 0.237528 2.051 113 111 101
-0.0783456 0.057157 1.247 8 12 5
-0.0721671 -0.0939282 1.449 18 32 52
-0.912477 -0.235067 2.228 112 111 96
0.256114 -0.0128949 0.897 212 206 208
-0.659225 -0.666809 2.136 131 124 118
-0.889955 0.259739 1.991 122 119 105
-0.225189 -0.160057 1.494 4 9 0
0.201354 0.157105 0.817 154 153 153
-0.977989 -0.236122 2.204 123 124 113
-0.479647 0.209883 2.01 118 109 100
-0.958955 -0.465745 2.107 132 130 118
0.514402 -0.231927 1.252 201 206 196
-0.422029 0.307398 1.831 66 59 42
0.170307 0.327319 0.841 43 18 0
0.333203 0.0500913 0.73 186 185 185
0.0712032 0.443301 1.139 14 12 2
-0.0770557 -0.0775778 1.409 22 42 68
0.761094 -0.840094 2.793 125 122 117
-0.401356 0.52785 1.48 110 110 104
-0.905451 -0.28995 2.151 119 110 105
-0.470997 0.497675 1.559 115 116 112
-0.30114 -0.137108 1.509 14 12 2
-0.376183 0.562403 1.439 110 112 103
0.0526373 0.430455 1.18 9 7 0
0.322409 0.203422 0.634 118 119 115
0.106093 -0.00322003 1.079 95 91 80
-0.191759 -0.0260927 1.48 4 6 0
0.334423 0.137409 0.664 156 165 156
-0.00331301 -0.13037 1.275 145 133 133
-0.949187 -0.642533 1.966 128 132 125
0.321549 -0.0466644 0.93 159 154 150
-0.00112399 0.0738065 1.158 3 7 2
-0.112959 -0.693826 3.071 56 56 50
-0.619111 0.364395 1.789 125 121 114
-0.00976382 -0.0357494 1.305 71 61 61
0.0265266 -0.304248 1.429 211 207 210
-0.769883 0.493865 1.563 119 131 123
-0.164142 0.541029 1.47 45 41 32
-0.436913 0.421639 1.714 112 108 97
-0.646347 -0.55948 2.151 121 117 106
-0.233238 0.388168 1.714 15 19 14
-0.731812 0.365414 1.794 123 118 114
0.0117227 -0.988912 2.996 6 7 3
0.247841 0.00875999 0.873 213 209 212
-0.86113 -0.376887 2.128 118 114 105
0.288944 0.190195 0.695 86 88 75
-0.331161 0.0762729 1.607 9 10 0
-0.892427 0.356655 1.794 112 113 107
-0.535216 0.301221 1.905 119 114 110
0.210125 0.0283539 0.864 195 191 194
0.0588982 0.199852 1.022 8 13 3
0.087577 0.416752 1.089 20 16 7
-0.558146 0.351794 1.799 112 114 105
-0.314538 -0.7128 2.181 125 118 112
-0.964975 -0.349457 2.151 125 126 115
0.488899 -0.842833 2.672 142 133 126
0.997393 -1.01714 2.78 129 121 109
-0.585584 -0.277791 2.312 115 108 102
-0.516218 0.509997 1.535 119 115 108
-1.05877 -0.50318 2.01 133 135 122
0.588938 -0.955886 2.672 143 135 132
0.21831 0.0184903 0.863 185 181 184
0.358183 -0.328152 1.463 215 209 213
-0.502654 -0.546877 2.228 123 114 107
0.340004 0.106195 0.693 101 101 95
-1.03524 -0.254953 2.181 129 127 117
-0.670853 -0.630326 2.107 128 121 113
0.130049 -0.316402 1.442 215 206 213
-0.700552 0.372887 1.774 127 120 110
0.180837 0.229848 0.893 108 102 89
0.176764 0.278396 0.814 75 77 68
0.135576 0.280106 0.873 59 24 7
-0.770367 -0.127327 2.383 112 104 92
0.421372 -0.193119 1.213 212 206 210
0.219908 0.253676 0.807 114 121 115
-0.468791 0.203323 1.978 116 107 98
0.0779356 0.251744 1.01 37 18 3
0.124087 -0.21735 1.262 198 189 192
0.0251351 0.330256 1.152 18 17 0
0.64665 -0.841316 2.695 136 127 120
0.284281 -0.255071 1.319 112 110 124
-0.392644 -0.75894 2.181 138 128 116
0.197086 0.260908 0.805 145 145 147
-0.11661 -0.00406458 1.362 14 28 34
0.274834 0.290565 0.826 41 43 25
-0.586931 -0.609132 2.204 125 123 113
0.332671 -0.0445068 0.887 22 30 15
-0.00300899 0.0738065 1.158 4 8 3
0.934512 -1.02176 2.768 137 133 124
-0.151768 0.296552 1.4 29 37 26
-0.849296 -0.141119 2.42 110 104 91
0.534577 -0.32733 1.47 166 168 155
-0.520656 0.436072 1.705 123 119 108
-0.233164 -0.879165 2.831 34 32 20
-0.219724 -0.385647 1.412 11 12 6
-0.31376 0.503914 1.547 95 90 86
-0.710466 -0.303363 2.278 112 108 99
-1.19044 0.114267 2.253 114 117 116
0.0644136 0.352306 1.087 28 18 6
-0.551016 -0.30707 2.278 115 108 98
0.103383 0.0534432 1.126 64 62 52
0.139206 0.110707 1.077 50 48 38
0.00710857 0.457589 1.283 13 14 3
-0.987837 0.310658 1.887 110 116 114
0.264535 0.148311 0.734 96 97 84
0.182262 0.056997 0.872 133 130 125
0.204836 -0.0555524 0.98 166 154 154
-0.768013 0.45285 1.607 117 123 121
-0.678713 0.554613 1.425 110 114 107
0.3063 0.203317 0.657 95 100 88
0.154041 0.255094 0.82 108 107 107
-0.772659 -0.169266 2.32 109 105 96
0.432748 -0.115575 1.017 46 37 42
-0.836551 -0.499963 2.136 119 117 107
-0.310234 0.102424 1.607 5 6 2
-0.548 0.469054 1.591 117 118 107
0.223789 0.00738978 0.879 190 186 187
0.391197 -0.970839 2.519 154 145 140
0.365003 -0.0911971 0.969 204 204 204
-0.0392986 -0.0286541 1.372 3 10 14
0.395356 0.00302096 0.857 64 52 63
0.16014 -0.0621838 1.01 197 193 194
0.324211 0.066724 0.693 132 131 131
-0.29977 0.0684276 1.607 3 7 0
0.518563 -0.12611 1.064 187 188 184
0.0184086 0.286857 1.087 1 5 0
0.31931 -0.0241617 0.882 104 105 99
-0.128283 0.0737875 1.22 26 27 18
-0.761638 0.0658148 2.356 111 104 98
0.292481 0.187472 0.677 148 155 147
0.264521 0.294511 0.849 22 23 17
0.30001 0.217792 0.662 127 133 133
0.213372 -0.957889 2.55 70 63 53
0.476067 -0.861443 2.649 145 136 131
0.987837 -0.852812 2.898 112 108 101
-0.738162 0.461004 1.599 120 124 117
-0.646602 0.377031 1.753 120 118 110
0.0405534 0.31336 1.112 24 17 7
0.564298 -0.339868 1.442 139 139 117
-0.871637 0.40446 1.724 113 121 110
-0.768883 -0.2561 2.32 115 107 95
-0.613295 -0.332926 2.303 115 111 104
-0.544517 0.552676 1.432 119 120 114
0.571214 -0.242962 1.196 156 149 141
0.187221 0.207456 0.791 125 127 118
0.195834 0.136459 0.863 110 111 102
0.484921 -0.238407 1.31 206 206 210
0.311431 0.0628644 0.755 195 198 199
0.258004 0.256303 0.807 62 60 52
-0.996315 -0.508381 2.099 132 131 131
-0.241909 0.491279 1.571 44 40 31
0.380548 -0.00685151 0.871 195 195 195
-0.229049 -0.867961 3.086 64 54 54
0.300382 -0.245992 1.305 138 175 196
0.254948 0.200695 0.77 65 63 51
-0.546841 -0.731403 2.173 130 125 121
0.452346 -0.151415 1.137 178 178 180
0.0312676 -0.162005 1.247 171 164 173
0.146527 0.304584 0.854 15 12 0
0.136456 0.107799 1.083 54 53 38
0.0853486 -0.170699 1.208 207 198 203
-0.337209 0.550356 1.463 115 113 105
0.150785 0.0544228 0.951 130 126 117
-1.02069 -0.410884 2.107 135 131 124
0.280966 0.23112 0.724 72 85 72
-0.583609 -0.122517 2.365 146 142 133
0.198466 -0.20734 1.239 106 105 105
0.0918754 -0.0676018 1.098 168 159 164
-0.337899 0.532766 1.487 118 114 105
0.426021 0.00166999 0.88 196 204 203
-0.0188468 -0.942144 2.519 27 27 21
0.146407 0.0354945 0.984 113 106 98
-0.863218 0.40446 1.724 119 124 114
0.199967 -0.718612 2.967 18 18 12
-0.275486 -0.833473 2.181 140 136 127
0.339666 0.0110299 0.83 26 33 37
-0.95586 -0.737713 1.947 128 132 125
0.15583 -0.0789578 1.036 182 173 176
0.0488784 -0.0246859 1.182 95 86 79
-0.241485 -0.370136 1.432 7 11 4
0.0655798 -0.791956 3.248 23 20 15
0.179315 -0.723053 3.026 18 19 10
-0.721828 0.297808 1.923 128 121 113
-0.934937 -0.480013 2.204 122 115 98
-0.0264271 -0.127204 1.4 75 70 66
-0.410211 0.486072 1.579 111 109 99
0.182889 0.042954 0.875 160 151 154
-0.513294 -0.440467 2.151 122 115 109
-0.497336 0.469983 1.603 127 124 119
1.33671 -1.0769 2.818 73 57 34
-0.223635 0.42857 1.624 39 40 27
0.503097 -0.242412 1.275 169 171 160
-0.701515 -0.517594 2.181 122 117 113
-0.278418 0.487404 1.575 70 66 55
0.27941 0.143108 0.714 173 176 175
0.176933 0.0392569 0.888 139 133 135
-1.01086 -0.059573 2.312 106 103 98
0.0602309 -0.160088 1.217 189 181 180
0.222129 -0.779008 2.604 127 119 116
0.0905804 -0.0212603 1.104 107 97 95
-0.666355 0.482151 1.583 125 126 117
-0.0947392 0.178361 1.128 9 12 11
0.518833 -0.105645 1.017 191 198 190
0.258611 0.101176 0.766 173 173 175
0.668395 -0.343446 1.39 170 174 167
-0.882507 -0.701848 1.953 129 129 125
0.265961 -0.128641 1.116 115 114 116
0.106762 0.275526 0.945 45 21 7
0.0560482 0.425266 1.171 22 12 0
-0.652845 0.441575 1.633 117 114 109
0.30141 0.228255 0.658 118 116 104
-0.266421 0.29246 1.677 3 4 0
-0.203609 0.380454 1.633 23 25 16
0.367787 -0.0139385 0.871 167 168 162
-0.837048 -0.723437 2.004 128 124 117
0.87744 -0.860738 2.831 119 116 111
-1.09111 0.0655634 2.347 107 113 96
-0.37135 0.145089 1.646 100 94 81
0.0324964 -0.0194755 1.217 62 53 46
0.403069 -0.0204636 0.909 161 162 158
-0.128671 0.446673 1.532 33 31 19
0.193753 -0.174666 1.222 125 121 122
0.162998 0.0141705 0.95 174 161 167
0.332318 -0.721082 2.672 140 128 128
0.943524 -1.03978 2.768 143 137 124
0.173309 0.31109 0.849 17 8 0
-0.105431 0.344198 1.39 1 5 0
-0.938841 0.351794 1.799 114 114 116
0.153424 -0.0627995 1.02 200 194 196
-0.106508 -0.0906854 1.435 11 30 50
-0.812308 -0.766002 2.057 132 129 124
0.353385 -0.00945278 0.85 58 53 49
0.0425462 -0.216453 1.281 208 199 204
-0.901577 -0.616531 2.017 129 127 119
0.175008 0.273747 0.812 73 74 65
-0.588364 -0.0830711 2.338 125 115 115
0.570166 -0.282094 1.305 203 204 200
0.115359 -0.290199 1.406 215 206 213
0.084512 0.210654 1.01 8 12 5
-0.400824 0.38534 1.739 60 61 48
-0.151411 -0.141968 1.535 2 9 3
0.087982 -0.951969 2.649 6 36 55
1.27476 -0.847705 2.66 41 59 38
0.449754 -0.777609 2.672 138 128 128
-0.694773 0.465042 1.595 115 121 119
0.0327541 0.209535 1.037 5 11 9
-0.746176 0.38817 1.739 117 115 107
0.080376 -0.0594158 1.112 166 150 155
-1.06999 -0.129352 2.158 124 125 114
-0.25799 -0.248895 1.473 8 9 3
0.215064 -0.0605214 0.983 189 185 188
0.533406 -0.26378 1.278 208 211 210
-0.678353 0.352092 1.831 125 118 110
-0.731947 0.244917 2.057 126 123 109
0.307991 -0.0201484 0.895 199 202 205
-0.223353 -0.158048 1.498 6 8 0
-0.861799 0.362358 1.779 112 113 109
-0.872463 -0.700816 1.959 131 128 123
0.0152391 0.0873177 1.114 16 16 16
0.200573 -0.144262 1.169 127 126 128
-0.858297 -0.330777 2.121 116 112 103
0.184807 0.149963 0.92 102 95 85
-0.292496 -0.0592643 1.528 9 9 3
-0.305585 0.206576 1.624 3 7 0
-0.513534 -0.351089 2.228 116 107 98
1.21198 -0.741792 2.684 70 55 54
0.297105 0.1018 0.726 169 169 165
0.279786 0.197164 0.712 88 89 76
-0.176682 -0.122942 1.516 8 9 5
-0.238913 0.555974 1.459 88 89 78
-0.942786 -0.648932 1.966 134 132 120
-0.287519 -0.14136 1.502 8 9 3
0.382183 -0.10992 1.075 100 103 104
0.179298 -0.237498 1.305 115 113 120
0.266431 0.204152 0.746 87 86 71
-0.72107 -0.183732 2.312 115 107 95
0.258949 0.202409 0.767 66 67 54
0.716563 -0.367806 1.432 117 118 114
-0.529952 0.266076 1.966 114 105 98
-1.15855 0.137882 2.22 124 122 112
-0.322918 0.0208239 1.567 7 11 4
-0.654408 -0.682944 2.143 130 123 117
0.339006 0.0942665 0.705 97 95 85
0.570213 -0.721717 2.707 128 124 117
0.545697 -0.174828 1.087 160 168 153
-0.503925 0.379884 1.753 103 96 86
-0.761869 -0.418216 2.181 118 114 105
0.0695539 0.171578 1.032 9 10 6
-0.190368 0.373005 1.547 30 32 23
0.361193 0.0393645 0.708 202 212 219
-0.109023 0.0821507 1.143 7 13 15
-0.250805 -0.027274 1.547 4 8 1
0.559106 -0.289414 1.319 204 205 201
-0.417966 0.427749 1.705 114 110 103
-0.386356 0.558883 1.442 106 112 110
0.319285 0.241323 0.636 81 85 80
-0.200035 0.536244 1.47 47 43 32
0.299072 0.174059 0.672 152 160 159
0.140966 0.274009 0.854 122 122 116
0.334196 -0.016446 0.854 31 33 22
-0.177945 -0.768789 3.071 59 55 48
-0.500123 0.553307 1.452 127 119 118
0.112533 -0.0272356 1.057 126 114 114
0.543523 -0.84225 2.684 135 130 128
-1.07321 -0.0545795 2.261 127 122 120
-0.121715 -0.983647 3.04 26 27 16
-0.764901 0.292459 1.929 125 123 111
0.195046 0.244274 0.802 125 132 126
-0.0389382 -0.998418 3.149 18 19 13
-0.452852 0.553307 1.452 118 119 113
0.32414 0.0567029 0.681 33 75 123
-0.141633 0.344198 1.39 13 12 12
0.146259 0.103306 1.005 90 82 70
-0.729458 0.511085 1.516 111 120 111
-0.699208 -0.752644 2.03 134 129 127
0.453872 -0.209018 1.237 211 211 211
-0.017287 -1.01316 2.953 18 16 4
0.150509 -0.855096 2.768 8 15 9
0.046279 0.370003 1.165 24 15 6
0.269129 0.0897227 0.764 181 181 185
0.324584 0.0692878 0.732 198 204 206
0.259603 0.292435 0.851 24 23 25
0.00774903 0.146301 1.081 4 8 3
0.285877 0.141705 0.707 126 134 133
-1.12809 0.00427555 2.253 124 124 118
-0.734641 -0.47719 2.143 126 115 106
-0.837569 -0.692257 2.037 132 125 117
-0.97098 -0.611824 1.991 136 132 121
