ply
format ascii 1.0
comment Created by Open3D
element vertex 1289
property double x
property double y
property double z
property uchar red
property uchar green
property uchar blue
end_header
0.137277 -0.0650854 0.757 255 255 255
0.158005 0.0918379 0.793 255 255 255
-0.315857 0.486703 1.39 255 255 255
-0.0567319 0.126967 0.927 255 255 255
-0.106733 0.154956 0.97 255 255 255
-0.423116 0.055485 1.094 255 255 255
-0.908133 0.206027 1.779 255 255 255
0.0607281 -0.0612612 0.787 255 255 255
-0.30323 0.493611 1.384 255 255 255
-0.154128 -0.0613402 0.88 255 255 255
0.411047 -0.375447 0.966 255 255 255
-0.520742 -0.0394976 1.165 255 255 255
0.262799 -0.259285 0.822 255 255 255
-0.462609 -0.252983 1.066 255 255 255
-0.770951 0.310303 1.7 255 255 255
-0.042085 -0.0300236 0.845 255 255 255
0.133979 -0.177637 0.828 255 255 255
-0.45584 0.238352 1.477 255 255 255
-0.346606 -0.350332 1.051 255 255 255
-0.283999 0.10023 1.041 255 255 255
0.111941 -0.306967 0.912 255 255 255
-0.119069 -0.229013 0.875 0 0 0
-0.0851773 -0.288946 0.893 255 255 255
0.192417 -0.00565584 0.719 255 255 255
0.335563 -0.0812653 0.705 255 255 255
0.204968 -0.153082 0.785 255 255 255
-0.21843 0.184716 1.122 255 255 255
-0.663292 -0.0539375 1.283 0 0 0
-0.126334 -0.249194 0.886 255 255 255
-0.363928 0.535153 1.375 255 255 255
-0.477014 -0.297104 1.075 255 255 255
-0.26485 0.155834 1.039 255 255 255
-0.201464 -0.309007 0.955 255 255 255
0.326179 -0.244294 0.755 255 255 255
0.179417 -0.119448 0.774 255 255 255
-0.474363 -0.155656 1.089 255 255 255
0.0499847 0.207983 0.76 255 255 255
-0.116681 -0.292126 0.912 255 255 255
0.147796 0.127143 0.78 255 255 255
-0.105664 -0.236587 0.882 255 255 255
-0.338926 -0.153458 0.984 255 255 255
-0.583449 -0.338097 1.118 255 255 255
0.308254 0.205312 0.778 255 255 255
-0.792298 0.211817 1.779 255 255 255
-0.0525131 0.321813 1.169 255 255 255
0.124496 -0.316111 0.917 255 255 255
-0.101156 0.00023145 0.856 255 255 255
-0.127929 -0.0528254 0.858 255 255 255
-0.572819 -0.248525 1.108 255 255 255
-0.298441 -0.147659 0.967 255 255 255
0.123848 -0.206114 0.851 255 255 255
0.183112 0.21607 0.758 255 255 255
-0.0924556 -0.068495 0.828 255 255 255
-0.195152 0.0156669 0.947 255 255 255
-0.314864 -0.310304 0.994 255 255 255
0.188415 -0.312172 0.923 255 255 255
-0.78006 0.440451 1.563 255 255 255
-0.610527 -0.464839 1.196 255 255 255
-0.302223 -0.175439 0.964 255 255 255
0.200833 -0.0777579 0.737 255 255 255
-0.451377 -0.17566 1.06 255 255 255
0.0562522 -0.19243 0.877 255 255 255
0.208886 0.160169 0.762 255 255 255
0.328111 -0.355189 0.958 255 255 255
0.233597 0.0636494 0.709 255 255 255
0.247621 0.223277 0.737 255 255 255
0.239223 0.223277 0.737 255 255 255
0.180444 0.0782004 0.773 255 255 255
0.160466 -0.230964 0.877 255 255 255
-0.326523 0.114 1.075 255 255 255
-0.112804 -0.137671 0.839 255 255 255
-0.0842241 -0.167908 0.84 255 255 255
-0.402714 0.0392099 1.087 255 255 255
0.395892 -0.185347 0.781 255 255 255
0.354035 -0.123514 0.724 255 255 255
0.0897306 -0.0487869 0.772 255 255 255
0.00933325 0.487672 1.302 255 255 255
-0.62068 0.285461 1.668 255 255 255
0.266995 -0.0255648 0.688 255 255 255
-0.0320341 -0.0893492 0.834 255 255 255
-0.393859 -0.0849569 1.027 255 255 255
0.28836 0.237413 0.61 255 255 255
0.340148 -0.152348 0.756 255 255 255
-0.108707 -0.149959 0.839 255 255 255
-0.741885 0.250882 1.729 255 255 255
-0.0480162 0.147403 0.878 255 255 255
0.235117 0.232397 0.728 255 255 255
0.171699 0.33342 0.914 255 255 255
-0.504551 -0.464061 1.194 255 255 255
0.316272 -0.216756 0.749 255 255 255
-0.2664 -0.124115 0.932 255 255 255
0.112187 -0.289792 0.914 255 255 255
-0.553544 0.024253 1.225 255 255 255
0.0674817 0.20977 0.762 255 255 255
-0.543185 -0.0305337 1.185 255 255 255
-0.50798 -0.0464343 1.149 255 255 255
-0.0399351 0.0118139 0.889 0 0 0
-0.204183 0.446918 1.4 255 255 255
-0.205924 0.245966 1.198 255 255 255
0.183837 0.214448 0.761 255 255 255
0.226448 -0.209383 0.831 255 255 255
-0.324773 0.11575 1.075 255 255 255
-0.427904 -0.310229 1.066 255 255 255
0.275804 0.182329 0.636 255 255 255
0.0256406 0.113276 0.772 255 255 255
0.0262053 0.0721152 0.789 255 255 255
0.337311 -0.114789 0.721 255 255 255
-0.698838 0.0204205 1.369 255 255 255
-0.413034 0.242594 1.445 255 255 255
0.238121 0.296809 0.789 255 255 255
-0.00352046 -0.123131 0.833 255 255 255
-0.559539 0.253521 1.587 255 255 255
-0.0196732 -0.127782 0.828 255 255 255
0.178609 -0.259552 0.882 255 255 255
0.263463 -0.256479 0.762 255 255 255
-0.571792 0.521337 1.442 255 255 255
-0.671563 -0.132824 1.299 0 0 0
-0.139891 0.0886588 0.97 255 255 255
-0.421855 0.224569 1.435 255 255 255
0.172927 0.0451192 0.746 255 255 255
0.0951962 0.0168406 0.786 255 255 255
0.131462 -0.062787 0.759 255 255 255
0.169411 0.00379215 0.736 255 255 255
-0.488778 0.270486 1.551 255 255 255
-0.0846251 -0.0217472 0.844 255 255 255
-0.673242 0.405387 1.575 255 255 255
-0.363793 -0.257875 1.004 255 255 255
0.0545988 0.0594259 0.791 255 255 255
-0.225602 -0.293134 0.939 0 0 0
-0.251663 -0.131071 0.917 255 255 255
0.075811 -0.0814409 0.784 255 255 255
0.272315 0.215489 0.655 255 255 255
-0.00501655 0.394375 1.187 255 255 255
0.0924752 -0.276794 0.896 255 255 255
-0.047713 -0.372337 0.958 0 0 0
-0.114306 -0.124166 0.84 255 255 255
-0.597993 -0.00169211 1.247 255 255 255
-0.128927 0.013186 0.884 255 255 255
0.166648 0.298232 0.872 255 255 255
0.318614 -0.0414969 0.674 255 255 255
-0.0603979 0.0321759 0.892 255 255 255
-0.0762009 -0.0216957 0.842 255 255 255
0.420051 -0.317604 0.917 255 255 255
0.298481 0.0195407 0.661 255 255 255
0.285132 0.184149 0.665 255 255 255
-0.0712786 -0.106141 0.817 255 255 255
-0.0497116 -0.274893 0.909 255 255 255
-0.467862 0.457077 1.477 255 255 255
-0.156265 -0.207406 0.868 255 255 255
0.179691 -0.0844595 0.754 255 255 255
-0.778062 0.480436 1.505 255 255 255
0.147986 0.0599455 0.781 255 255 255
-0.404772 -0.143172 1.025 255 255 255
-0.250515 -0.0910403 0.935 255 255 255
0.163518 0.0455426 0.753 255 255 255
0.146746 -0.0722852 0.755 255 255 255
0.0118939 0.11148 0.777 255 255 255
-0.217814 -0.301158 0.945 255 255 255
0.282184 -0.33601 0.935 255 255 255
-0.146857 -0.0286613 0.888 255 255 255
0.120224 0.311442 0.942 255 255 255
0.353794 -0.111351 0.714 255 255 255
-0.0944562 -0.32861 0.927 255 255 255
0.34491 -0.0890429 0.703 255 255 255
0.312642 -0.248218 0.752 255 255 255
0.0545952 0.340934 1.068 255 255 255
-0.522576 -0.0991693 1.132 255 255 255
-0.175721 -0.301735 0.942 255 255 255
0.198269 -0.0208665 0.719 255 255 255
-0.0580207 -0.218368 0.878 255 255 255
0.279257 -0.000918651 0.677 255 255 255
-0.0473299 0.024918 0.892 255 255 255
0.339814 -0.221828 0.758 255 255 255
-0.319736 0.0238829 1.036 255 255 255
0.026872 -0.278563 0.897 255 255 255
0.189742 0.198215 0.775 255 255 255
-0.320054 -0.253086 0.961 255 255 255
0.309779 0.218988 0.805 255 255 255
0.189436 0.282813 0.823 255 255 255
-0.582042 0.467639 1.48 255 255 255
0.0510567 -0.0762106 0.796 255 255 255
0.310202 -0.14846 0.755 255 255 255
0.245066 0.28279 0.755 255 255 255
0.129959 -0.217698 0.864 255 255 255
-0.396363 0.483002 1.419 255 255 255
-0.463876 -0.155693 1.077 255 255 255
-0.586824 0.505074 1.456 255 255 255
0.19099 0.248388 0.755 255 255 255
-0.777856 0.400152 1.595 255 255 255
0.135162 -0.147445 0.803 255 255 255
0.00802648 0.14932 0.77 255 255 255
0.0702992 0.378409 1.096 255 255 255
0.276045 0.205886 0.588 255 255 255
-0.224052 0.450184 1.396 255 255 255
0.231616 -0.219903 0.835 255 255 255
0.207859 -0.242932 0.849 255 255 255
0.0479872 0.4446 1.208 255 255 255
-0.0229632 -0.0191354 0.85 255 255 255
-0.363934 -0.060471 1.037 255 255 255
-0.0931895 0.175153 0.977 255 255 255
-0.468692 -0.270837 1.068 255 255 255
0.254856 0.121754 0.53 255 255 255
0.285791 -0.253322 0.749 255 255 255
0.177099 0.215294 0.764 255 255 255
-0.258953 -0.347773 0.938 0 0 0
-0.0554467 -0.281358 0.906 255 255 255
-0.2711 0.506025 1.381 255 255 255
-0.195362 -0.0843485 0.912 255 255 255
-0.0467423 -0.061907 0.83 255 255 255
-0.359248 -0.0370587 1.043 255 255 255
-0.566454 -0.339912 1.124 255 255 255
0.207355 -0.201159 0.825 255 255 255
-0.129621 0.146577 0.988 255 255 255
0.0982526 0.12363 0.79 255 255 255
-0.856746 0.109353 1.673 255 255 255
0.239893 0.246519 0.714 255 255 255
0.103127 -0.219046 0.875 255 255 255
0.326179 -0.223407 0.755 255 255 255
0.0135944 0.354581 1.128 255 255 255
0.0394128 0.121911 0.771 255 255 255
0.00465409 -0.185679 0.84 255 255 255
0.126664 0.0355226 0.775 255 255 255
0.197372 -0.0349556 0.72 255 255 255
0.393624 -0.215083 0.797 255 255 255
0.299072 -0.0184089 0.672 255 255 255
-0.0600353 -0.063029 0.827 255 255 255
-0.0571887 -0.348119 0.96 255 255 255
-0.294377 -0.158183 0.964 255 255 255
-0.0794521 -0.0837438 0.819 255 255 255
-0.539662 -0.280477 1.092 255 255 255
0.211363 -0.290399 0.893 255 255 255
-0.441025 -0.108386 1.06 255 255 255
0.0514236 0.149322 0.745 255 255 255
-0.526776 -0.31827 1.106 255 255 255
0.157507 -0.350815 0.918 255 255 255
-0.341781 -0.123036 0.997 255 255 255
-0.177894 0.302233 1.262 255 255 255
0.293464 -0.332155 0.937 255 255 255
-0.140916 -0.0113077 0.887 255 255 255
-0.458006 0.264382 1.516 255 255 255
0.0456748 -0.156973 0.84 255 255 255
0.0999445 -0.192967 0.848 255 255 255
-0.0452227 0.0918576 0.908 255 255 255
-0.782365 0.29419 1.719 255 255 255
-0.0582298 0.484079 1.345 255 255 255
-0.424284 -0.32184 1.07 255 255 255
-0.0211226 -0.252931 0.889 255 255 255
0.25384 0.243033 0.714 255 255 255
0.26035 -0.260861 0.84 0 0 0
0.0968845 -0.0935984 0.779 255 255 255
-0.114393 0.476899 1.362 255 255 255
-0.221311 -0.0139012 0.967 255 255 255
0.265614 -0.35348 0.941 255 255 255
-0.0902274 -0.0203979 0.845 255 255 255
0.124012 0.117098 0.807 255 255 255
0.251051 -0.215955 0.81 255 255 255
0.45832 -0.331469 0.91 255 255 255
0.172853 -0.18511 0.802 255 255 255
-0.165682 -0.244716 0.896 255 255 255
-0.490788 -0.164687 1.102 255 255 255
-0.582379 0.0205803 1.244 255 255 255
0.295986 -0.111775 0.732 255 255 255
0.0576527 0.0121717 0.816 255 255 255
-0.249074 0.452083 1.409 255 255 255
-0.405464 -0.384022 1.114 255 255 255
-0.33373 -0.402975 1.059 255 255 255
-0.326973 -0.236631 0.977 255 255 255
-0.510763 0.495524 1.442 255 255 255
-0.820661 0.206606 1.784 255 255 255
-0.0497116 -0.271935 0.909 255 255 255
0.216895 -0.010221 0.711 255 255 255
-0.292598 0.48791 1.387 255 255 255
0.0937698 -0.16726 0.83 255 255 255
-0.631456 -0.130511 1.237 255 255 255
0.00658058 -0.29106 0.918 255 255 255
-0.197245 -0.288842 0.935 255 255 255
0.164662 0.310879 0.892 255 255 255
-0.199672 -0.24234 0.898 255 255 255
-0.205193 -0.169511 0.884 255 255 255
-0.600872 0.364572 1.587 255 255 255
-0.0157052 -0.110798 0.832 255 255 255
0.281402 0.0328414 0.669 255 255 255
-0.115146 0.164263 0.988 255 255 255
-0.207282 -0.146532 0.893 255 255 255
0.324854 0.00962104 0.645 255 255 255
0.0235421 0.232822 0.831 255 255 255
-0.460418 -0.402864 1.147 255 255 255
-0.770609 0.163186 1.724 255 255 255
-0.168941 -0.356915 0.93 255 255 255
-0.0880364 0.0934657 0.939 255 255 255
0.05635 0.147094 0.746 255 255 255
-0.18401 0.196091 1.135 255 255 255
-0.121666 0.472667 1.369 255 255 255
0.187715 0.0215214 0.728 255 255 255
0.202842 0.0439701 0.727 255 255 255
-0.0652889 0.0511516 0.92 0 0 0
0.222113 -0.239363 0.856 255 255 255
0.153508 -0.0732217 0.752 255 255 255
0.304267 -0.108945 0.729 255 255 255
0.255431 0.144127 0.533 255 255 255
0.243388 0.120271 0.555 255 255 255
0.175549 -0.220488 0.827 255 255 255
-0.0106492 0.369371 1.169 255 255 255
0.282916 0.159894 0.785 255 255 255
-0.0557078 -0.0230933 0.843 255 255 255
-0.650424 0.243334 1.696 255 255 255
-0.521886 -0.205842 1.092 255 255 255
0.0205341 -0.395268 1.017 255 255 255
0.285946 0.014398 0.672 255 255 255
0.242245 0.238376 0.721 255 255 255
0.188532 0.356287 0.931 255 255 255
0.284646 0.191151 0.567 255 255 255
0.268534 0.169566 0.572 255 255 255
-0.480945 -0.135747 1.1 255 255 255
-0.424024 0.504706 1.396 255 255 255
0.366016 -0.155007 0.751 0 0 0
0.0532143 -0.25293 0.874 255 255 255
-0.180913 -0.271943 0.914 255 255 255
-0.347648 0.341706 1.477 255 255 255
-0.36834 0.477305 1.409 255 255 255
0.348332 -0.17934 0.777 255 255 255
-0.742904 0.336083 1.65 255 255 255
0.203216 0.119561 0.764 255 255 255
-0.0790359 -0.172624 0.843 255 255 255
-0.257809 -0.334991 0.945 255 255 255
-0.0737638 -0.0497508 0.83 255 255 255
0.092873 0.151529 0.788 255 255 255
0.288537 -0.14813 0.766 255 255 255
-0.153326 -0.24943 0.892 255 255 255
0.0267993 0.381617 1.143 255 255 255
0.152147 -0.164641 0.817 255 255 255
-0.690374 0.103209 1.579 255 255 255
0.236049 0.239217 0.72 255 255 255
-0.398298 -0.28826 1.043 255 255 255
-0.225246 0.505712 1.362 255 255 255
-0.100872 -0.0353978 0.842 255 255 255
0.121114 0.291773 0.914 255 255 255
-0.188717 0.00635936 0.938 255 255 255
-0.253786 0.370598 1.449 255 255 255
-0.751836 0.32344 1.682 255 255 255
0.145933 0.255926 0.827 255 255 255
-0.131586 -0.225649 0.873 255 255 255
0.245246 0.0396582 0.693 255 255 255
-0.583713 -0.417587 1.162 255 255 255
0.169927 -0.238207 0.867 255 255 255
-0.152471 0.0806469 0.95 255 255 255
-0.371634 0.375399 1.516 255 255 255
0.263699 -0.205528 0.735 255 255 255
0.320645 -0.0553886 0.683 255 255 255
0.228063 -0.0604795 0.717 255 255 255
0.00187825 -0.100103 0.822 255 255 255
-0.0250704 -0.28668 0.928 0 0 0
-0.183428 0.375679 1.381 255 255 255
-0.0358471 -0.157425 0.828 255 255 255
-0.420565 0.0411672 1.092 255 255 255
-0.334075 0.151621 1.094 255 255 255
0.284811 -0.191695 0.737 255 255 255
0.00457653 -0.115376 0.826 255 255 255
-0.207108 -0.0983484 0.918 255 255 255
0.0300714 0.145567 0.757 255 255 255
-0.0737261 -0.356166 0.932 0 0 0
0.0637375 0.0297952 0.826 255 255 255
0.432251 -0.358816 0.947 255 255 255
0.180745 -0.244538 0.845 255 255 255
0.166632 -0.0701154 0.745 255 255 255
0.279 0.106489 0.71 255 255 255
0.272135 0.22166 0.642 255 255 255
0.0953506 0.0885211 0.798 255 255 255
-0.631055 0.425872 1.547 255 255 255
0.261947 -0.30459 0.892 255 255 255
-0.151091 -0.0598401 0.879 255 255 255
-0.354647 -0.095997 1.02 255 255 255
-0.373281 -0.1183 1.012 255 255 255
-0.285462 -0.188351 0.95 255 255 255
-0.420772 -0.0761696 1.044 255 255 255
-0.293461 -0.171765 0.961 255 255 255
0.248882 -0.164125 0.748 255 255 255
0.0305204 0.387197 1.143 255 255 255
0.189278 0.167679 0.768 255 255 255
0.0344208 0.441245 1.215 255 255 255
-0.585814 0.0307764 1.247 255 255 255
-0.0606687 -0.257839 0.896 255 255 255
-0.232003 -0.0955027 0.934 255 255 255
-0.230512 -0.10395 0.928 255 255 255
-0.60608 -0.187373 1.165 255 255 255
0.272242 0.0540864 0.676 0 0 0
0.268318 0.055513 0.68 255 255 255
0.178486 -0.172499 0.798 255 255 255
0.158641 -0.10142 0.771 255 255 255
0.175878 -0.056246 0.738 255 255 255
0.439022 -0.296774 0.886 255 255 255
-0.561272 -0.377332 1.132 255 255 255
0.186437 0.196197 0.777 255 255 255
0.271081 -0.0277636 0.687 255 255 255
-0.36483 -0.304781 1.03 255 255 255
0.22982 0.0115971 0.701 255 255 255
-0.0422342 0.500221 1.324 255 255 255
0.155031 0.105766 0.791 255 255 255
-0.0983617 0.174274 0.981 255 255 255
0.272442 0.234004 0.633 255 255 255
-0.306601 0.524502 1.359 255 255 255
0.188619 0.352104 0.924 255 255 255
-0.130835 -0.319111 0.939 255 255 255
-0.425317 0.350528 1.559 255 255 255
-0.787124 0.0767357 1.513 255 255 255
0.101883 -0.228337 0.889 255 255 255
-0.235044 -0.328051 0.934 255 255 255
0.245954 0.0510826 0.695 255 255 255
-0.146066 -0.250882 0.892 255 255 255
0.232279 -0.0307856 0.705 255 255 255
-0.0131528 -0.0162149 0.842 255 255 255
0.307369 0.0119383 0.657 255 255 255
0.204995 0.0949437 0.766 255 255 255
-0.503559 0.541054 1.396 255 255 255
0.229485 -0.035475 0.707 255 255 255
-0.204188 0.415187 1.432 255 255 255
-0.219583 -0.175265 0.884 255 255 255
-0.37218 -0.102435 1.018 255 255 255
-0.516122 0.406071 1.52 255 255 255
-0.7308 0.0344537 1.396 255 255 255
0.228427 -0.368456 0.952 255 255 255
-0.583897 0.373957 1.583 255 255 255
-0.0826386 -0.297539 0.897 255 255 255
-0.451665 0.423874 1.487 255 255 255
-0.25578 -0.360716 0.932 255 255 255
0.135619 0.114493 0.798 255 255 255
0.270528 -0.0638746 0.703 255 255 255
0.00526356 -0.329033 0.95 255 255 255
0.133373 0.0764816 0.808 255 255 255
0.121147 -0.091501 0.772 255 255 255
-0.0799372 -0.111073 0.824 255 255 255
0.0348174 0.450329 1.229 255 255 255
0.136438 -0.316111 0.917 255 255 255
-0.894915 0.181995 1.799 255 255 255
-0.0129185 -0.0670664 0.827 0 0 0
-0.434735 -0.313134 1.07 255 255 255
0.243414 0.0148051 0.691 255 255 255
-0.299151 -0.0244292 1.012 255 255 255
0.122652 -0.038034 0.758 255 255 255
0.136943 -0.0828756 0.762 255 255 255
0.0501347 -0.392065 1.013 255 255 255
-0.296292 -0.274817 0.955 255 255 255
-0.187048 0.186209 1.12 255 255 255
0.0328919 0.0568159 0.828 255 255 255
-0.156975 -0.0532274 0.888 255 255 255
-0.168086 -0.266018 0.909 255 255 255
-0.350065 -0.016739 1.046 255 255 255
-0.589247 -0.393531 1.147 255 255 255
0.0539309 -0.13055 0.82 255 255 255
0.0797805 0.136065 0.773 255 255 255
-0.120916 -0.0853291 0.848 255 255 255
-0.362179 -0.0736147 1.032 255 255 255
0.167269 0.26637 0.826 255 255 255
-0.325118 -0.143412 0.981 255 255 255
-0.026124 -0.00678858 0.863 255 255 255
-0.534943 -0.180008 1.108 255 255 255
-0.262845 -0.0854993 0.941 255 255 255
-0.162013 -0.159496 0.861 255 255 255
-0.0600693 -0.295603 0.909 255 255 255
0.293102 0.114917 0.705 255 255 255
-0.514877 -0.315392 1.096 255 255 255
0.181638 -0.0585685 0.737 255 255 255
0.263943 0.0502006 0.683 0 0 0
-0.21344 0.0222922 0.967 255 255 255
0.144237 0.158644 0.825 255 255 255
-0.214445 -0.083611 0.937 255 255 255
0.316008 0.106084 0.685 255 255 255
0.0304687 0.137505 0.767 255 255 255
-0.693872 0.398145 1.587 255 255 255
0.0740391 0.157052 0.753 255 255 255
0.172555 0.0567213 0.755 255 255 255
-0.608704 -0.0502736 1.244 255 255 255
-0.496094 -0.365388 1.118 255 255 255
0.0939337 -0.115216 0.797 0 0 0
0.28134 -0.0798669 0.713 255 255 255
0.388178 -0.229137 0.81 0 0 0
-0.209869 -0.341303 0.937 255 255 255
0.440278 -0.342954 0.925 255 255 255
-0.170088 -0.2897 0.928 255 255 255
-0.228634 0.0783038 0.999 255 255 255
-0.797808 0.474101 1.524 255 255 255
0.173341 0.160379 0.775 255 255 255
-0.551522 -0.17586 1.116 255 255 255
0.213165 -0.125365 0.764 255 255 255
-0.49284 -0.240265 1.079 255 255 255
-0.337731 0.0310404 1.05 255 255 255
0.167136 -0.296378 0.93 255 255 255
0.0782284 -0.135382 0.809 255 255 255
0.181144 0.202259 0.776 255 255 255
0.150721 0.212731 0.782 255 255 255
-0.314078 0.206284 1.194 255 255 255
0.262145 -0.255844 0.837 255 255 255
-0.572456 0.354241 1.587 255 255 255
-0.226632 0.477845 1.384 255 255 255
-0.0181262 0.165486 0.819 255 255 255
0.205911 0.0698557 0.738 255 255 255
0.011272 -0.115096 0.824 255 255 255
0.26648 -0.254675 0.753 255 255 255
0.325962 -0.0213023 0.66 255 255 255
-0.40096 -0.0169471 1.059 255 255 255
0.208934 -0.141225 0.776 255 255 255
-0.280823 -0.112598 0.95 255 255 255
0.237344 0.300359 0.795 255 255 255
-0.269258 -0.203627 0.942 255 255 255
-0.184063 0.486033 1.369 255 255 255
-0.415291 0.133997 1.141 255 255 255
-0.493768 0.0614006 1.173 255 255 255
-0.594907 0.327336 1.62 255 255 255
0.0384344 -0.0847213 0.803 255 255 255
-0.392304 0.35104 1.539 255 255 255
0.342733 -0.220885 0.759 255 255 255
-0.245424 -0.211829 0.905 255 255 255
-0.144014 -0.113728 0.854 255 255 255
-0.400351 -0.170357 1.018 255 255 255
-0.460257 -0.10388 1.085 255 255 255
0.187553 0.0720328 0.761 255 255 255
0.15693 -0.0640536 0.745 255 255 255
0.283313 0.194821 0.808 255 255 255
0.28143 0.0907978 0.696 255 255 255
0.0156301 0.230423 0.842 255 255 255
0.173276 0.192252 0.792 255 255 255
-0.54913 0.440371 1.502 255 255 255
0.0176731 -0.0656878 0.81 255 255 255
-0.308522 -0.184233 0.969 255 255 255
0.0702567 0.299216 0.972 255 255 255
-0.232079 0.0451939 0.986 255 255 255
0.202943 -0.310615 0.914 255 255 255
-0.176954 0.312416 1.27 255 255 255
-0.224379 0.471089 1.384 255 255 255
0.252743 0.14013 0.531 255 255 255
0.0206863 0.213688 0.825 255 255 255
0.25184 0.218805 0.772 255 255 255
-0.582405 -0.332044 1.116 255 255 255
-0.383703 0.119949 1.114 255 255 255
-0.0258515 -0.20962 0.854 255 255 255
0.0493249 0.136612 0.769 255 255 255
0.221429 0.0347068 0.707 255 255 255
-0.639113 -0.0994948 1.252 255 255 255
0.0740391 0.158277 0.753 255 255 255
-0.337058 0.396694 1.494 255 255 255
-0.504419 -0.00534023 1.158 255 255 255
0.142933 0.199258 0.81 255 255 255
-0.136657 -0.309282 0.937 255 255 255
-0.0274256 -0.263665 0.906 255 255 255
-0.783523 0.388677 1.612 255 255 255
-0.239391 0.168799 1.046 255 255 255
-0.469135 -0.181983 1.077 255 255 255
-0.43262 -0.0986322 1.048 255 255 255
-0.532295 -0.174914 1.11 255 255 255
-0.181423 -0.197097 0.86 255 255 255
-0.285773 0.306309 1.324 255 255 255
-0.09826 0.039478 0.893 255 255 255
0.132823 -0.297151 0.923 255 255 255
-0.132159 0.172903 1.02 255 255 255
0.202033 -0.250521 0.842 255 255 255
0.152479 -0.179896 0.826 255 255 255
0.0855467 -0.15116 0.816 255 255 255
-0.277146 -0.163271 0.948 255 255 255
-0.717332 0.0624236 1.466 255 255 255
-0.132245 -0.215881 0.868 255 255 255
-0.244759 -0.162292 0.908 255 255 255
0.0254414 0.134833 0.766 255 255 255
0.255768 -0.0336933 0.694 255 255 255
-0.372032 0.0281492 1.07 255 255 255
0.215551 -0.313127 0.917 255 255 255
0.234719 0.04817 0.702 255 255 255
-0.355593 0.106624 1.089 255 255 255
-0.0251057 0.489502 1.33 255 255 255
0.0898949 -0.205288 0.871 0 0 0
0.187042 -0.0461327 0.73 255 255 255
-0.789731 0.273392 1.729 255 255 255
-0.106402 0.110415 0.967 255 255 255
0.258347 -0.048863 0.701 255 255 255
0.305254 -0.0383198 0.676 255 255 255
-0.46647 -0.384021 1.13 255 255 255
0.427427 -0.300793 0.898 255 255 255
0.34745 -0.134959 0.735 255 255 255
0.211999 0.00600262 0.714 255 255 255
0.294017 -0.0285032 0.678 255 255 255
0.1832 0.341595 0.912 255 255 255
0.245452 -0.154391 0.76 255 255 255
-0.671508 0.394565 1.583 255 255 255
-0.509101 -0.444009 1.182 255 255 255
0.202586 0.144336 0.757 255 255 255
-0.185608 0.121708 0.995 255 255 255
0.0882989 -0.109476 0.793 255 255 255
-0.112752 0.463755 1.369 255 255 255
-0.391882 -0.29873 1.044 255 255 255
0.0725299 -0.208352 0.884 255 255 255
-0.0360635 -0.0797531 0.833 255 255 255
-0.658196 0.34579 1.62 255 255 255
-0.613853 -0.0891564 1.222 255 255 255
0.136383 0.292185 0.897 255 255 255
0.156075 0.381335 1.005 255 255 255
0.232764 -0.0215461 0.703 255 255 255
-0.203986 -0.346247 0.938 255 255 255
0.0600652 0.0353848 0.831 255 255 255
0.26119 0.124955 0.759 255 255 255
0.0954987 -0.282942 0.897 255 255 255
-0.611296 0.303862 1.65 255 255 255
0.232765 -0.113454 0.751 255 255 255
-0.477302 -0.111089 1.104 255 255 255
0.344255 -0.140884 0.741 255 255 255
0.0233155 -0.00513464 0.823 255 255 255
0.186639 -0.156129 0.794 255 255 255
-0.853917 0.193706 1.799 255 255 255
-0.433864 -0.400756 1.141 255 255 255
-0.205971 0.220398 1.176 255 255 255
0.00513612 -0.295422 0.927 255 255 255
-0.0513382 0.0218668 0.886 255 255 255
0.218937 -0.323385 0.925 255 255 255
0.153882 -0.00583676 0.742 255 255 255
-0.0162715 -0.22 0.862 255 255 255
0.0441922 0.411833 1.16 255 255 255
-0.268577 -0.276553 0.945 255 255 255
0.250975 -0.229229 0.758 255 255 255
-0.193202 -0.336528 0.945 255 255 255
-0.258005 0.287614 1.252 255 255 255
-0.493434 0.52205 1.406 255 255 255
0.306894 0.138044 0.724 255 255 255
-0.128007 -0.0336658 0.868 255 255 255
0.0220559 0.059367 0.826 255 255 255
0.111238 0.0127883 0.773 255 255 255
0.205876 -0.137082 0.774 255 255 255
-0.0157996 -0.18093 0.837 255 255 255
0.236869 -0.0307856 0.705 255 255 255
0.0991184 -0.334573 0.931 255 255 255
0.104844 -0.190458 0.843 255 255 255
0.266489 0.21666 0.821 255 255 255
-0.294412 0.0455345 1.03 255 255 255
-0.747849 0.127029 1.655 255 255 255
-0.252037 -0.29645 0.935 0 0 0
-0.11078 -0.0206393 0.855 255 255 255
-0.875044 0.350812 1.682 255 255 255
0.315402 -0.0728189 0.701 255 255 255
-0.0229407 0.489502 1.33 255 255 255
-0.702582 0.0114252 1.359 255 255 255
0.03333 -0.0942192 0.806 255 255 255
-0.0555393 0.0218174 0.884 255 255 255
0.159876 0.231602 0.777 255 255 255
-0.580011 0.0431243 1.252 255 255 255
0.0242722 -0.289686 0.909 255 255 255
0.273499 0.0874 0.696 255 255 255
-0.632634 0.484498 1.48 255 255 255
0.0933193 0.0103787 0.781 255 255 255
0.214695 0.117348 0.774 255 255 255
0.14584 -0.204488 0.85 255 255 255
0.284852 0.00455596 0.672 255 255 255
-0.373817 -0.124517 1.009 255 255 255
-0.348064 -0.061739 1.03 255 255 255
-0.78359 0.109026 1.668 255 255 255
0.149854 -0.0519997 0.746 255 255 255
0.116565 -0.218958 0.869 255 255 255
-0.216851 -0.183029 0.873 255 255 255
-0.00984275 0.106434 0.796 255 255 255
0.0356916 0.380954 1.13 255 255 255
-0.302572 0.50153 1.381 255 255 255
0.323637 -0.00406154 0.651 255 255 255
0.00603579 0.21124 0.842 255 255 255
-0.690245 0.327117 1.659 255 255 255
0.0508398 -0.150603 0.835 255 255 255
-0.504555 -0.0109556 1.154 255 255 255
-0.365099 -0.0117326 1.055 255 255 255
-0.125122 0.0455444 0.898 255 255 255
0.177314 0.0193098 0.734 255 255 255
0.142568 -0.0107242 0.746 255 255 255
0.261953 0.200149 0.803 255 255 255
0.117581 0.104235 0.799 255 255 255
-0.436768 0.262977 1.494 255 255 255
-0.582425 -0.42698 1.167 255 255 255
0.114679 0.0412478 0.788 255 255 255
-0.510376 0.536511 1.396 255 255 255
0.0470729 0.146024 0.753 255 255 255
-0.183856 0.411418 1.419 255 255 255
0.270833 -0.0828791 0.719 255 255 255
-0.226117 0.0629714 0.988 255 255 255
0.00702816 0.184849 0.799 255 255 255
0.0570573 0.120813 0.772 255 255 255
0.141975 0.0670643 0.79 255 255 255
0.14954 -0.147445 0.803 255 255 255
0.230743 -0.205684 0.827 255 255 255
0.19066 -0.338691 0.934 255 255 255
0.206551 0.244533 0.736 255 255 255
-0.248194 -0.269715 0.932 255 255 255
-0.287866 -0.105752 0.958 255 255 255
-0.368534 0.132401 1.112 255 255 255
-0.638533 0.534303 1.439 255 255 255
-0.190467 0.120089 0.995 255 255 255
-0.211647 0.0317012 0.966 255 255 255
-0.10115 -0.109576 0.833 255 255 255
-0.240792 0.396082 1.456 255 255 255
-0.119677 -0.0826666 0.849 255 255 255
0.0690443 0.173976 0.752 255 255 255
0.270853 0.174845 0.571 255 255 255
0.0152664 0.339912 1.116 255 255 255
-0.0286452 -0.252569 0.898 255 255 255
-0.432918 0.0743599 1.11 255 255 255
0.293777 -0.0308005 0.68 255 255 255
0.269639 0.135361 0.769 255 255 255
-0.157505 -0.244801 0.891 255 255 255
-0.577906 -0.092242 1.185 255 255 255
0.196547 0.184885 0.772 255 255 255
-0.712838 0.191345 1.7 255 255 255
-0.663292 -0.13954 1.283 0 0 0
0.234242 0.0528898 0.704 255 255 255
0.203013 0.25116 0.745 255 255 255
0.150099 0.198274 0.806 255 255 255
0.0406679 0.111874 0.771 255 255 255
0.179185 -0.19283 0.807 255 255 255
0.334763 -0.0390117 0.669 255 255 255
0.0191786 -0.258669 0.879 255 255 255
-0.608332 0.307732 1.642 255 255 255
0.131731 0.214013 0.806 255 255 255
0.0772941 0.379499 1.094 255 255 255
-0.0615231 0.166906 0.931 255 255 255
0.33532 -0.261645 0.759 0 0 0
-0.610753 -0.125485 1.208 255 255 255
0.102611 0.15969 0.784 255 255 255
0.110831 0.0386831 0.788 255 255 255
-0.498921 0.372727 1.567 255 255 255
-0.6879 0.305375 1.673 255 255 255
-0.320883 -0.0491806 1.013 255 255 255
0.279382 0.0493921 0.672 255 255 255
-0.101575 0.108729 0.966 255 255 255
0.180345 0.102761 0.778 255 255 255
-0.64574 0.391989 1.583 255 255 255
0.0394941 -0.0608188 0.798 255 255 255
0.12286 -0.0759304 0.767 255 255 255
0.0933486 0.327036 0.999 255 255 255
-0.0564152 0.322363 1.171 255 255 255
-0.0453912 -0.0646084 0.83 255 255 255
0.254236 -0.366136 0.95 255 255 255
-0.0570801 -0.0217215 0.843 255 255 255
0.308249 -0.11741 0.73 255 255 255
0.302703 0.221743 0.825 255 255 255
0.280504 0.232126 0.819 255 255 255
-0.0393606 -0.122096 0.817 255 255 255
0.260683 0.243775 0.637 255 255 255
-0.0604632 -0.193877 0.852 255 255 255
0.186631 -0.270821 0.886 255 255 255
0.160903 -0.147078 0.801 255 255 255
0.187182 -0.199696 0.819 255 255 255
0.119863 0.0344824 0.78 255 255 255
0.0137683 -0.0421168 0.813 255 255 255
-0.124385 0.0689979 0.96 255 255 255
-0.0537253 -0.104299 0.813 255 255 255
0.265977 -0.233989 0.738 255 255 255
-0.267401 0.217775 1.152 255 255 255
-0.373971 -0.210703 1.005 255 255 255
-0.267257 -0.148859 0.935 255 255 255
0.186816 -0.326646 0.93 255 255 255
-0.418787 0.0500525 1.092 255 255 255
-0.509169 0.358501 1.583 255 255 255
0.0409975 -0.0859209 0.802 255 255 255
0.0735389 -0.00491004 0.787 255 255 255
-0.0776895 -0.320374 0.925 255 255 255
0.0222428 0.232027 0.833 255 255 255
0.0207267 -0.264456 0.884 255 255 255
0.243258 0.0478269 0.697 255 255 255
-0.350949 -0.278003 1 255 255 255
0.198884 0.00836143 0.717 255 255 255
0.148933 -0.120021 0.786 255 255 255
-0.649203 0.441134 1.513 255 255 255
-0.0808839 -0.0878493 0.82 255 255 255
0.162406 0.208842 0.777 255 255 255
-0.165716 0.140256 1.012 255 255 255
-0.0224499 -0.0565723 0.831 255 255 255
-0.196882 -0.316297 0.963 255 255 255
-0.362809 0.421878 1.48 255 255 255
-0.390561 0.396694 1.494 255 255 255
-0.336021 0.0395839 1.05 255 255 255
0.122851 0.118558 0.808 255 255 255
0.305398 -0.00305288 0.662 255 255 255
0.181084 -0.158214 0.798 255 255 255
-0.501622 -0.240265 1.079 255 255 255
-0.104111 -0.100327 0.835 255 255 255
0.196684 -0.102177 0.758 255 255 255
-0.372001 -0.232162 1.013 255 255 255
0.27232 -0.0460499 0.693 255 255 255
0.0409501 -0.308987 0.918 255 255 255
-0.185335 -0.334373 0.952 255 255 255
0.239 0.091544 0.729 255 255 255
0.302093 -0.013972 0.669 255 255 255
-0.19033 0.496083 1.366 255 255 255
-0.0678855 -0.238617 0.895 255 255 255
-0.436032 -0.149795 1.048 255 255 255
-0.0505763 -0.0191129 0.849 255 255 255
0.193267 0.139454 0.764 255 255 255
0.227207 -0.230498 0.849 255 255 255
-0.728145 0.358314 1.629 255 255 255
0.181232 0.118147 0.771 255 255 255
-0.0114743 0.175029 0.82 255 255 255
-0.281281 -0.0259472 1.007 255 255 255
0.269373 -0.0556281 0.7 255 255 255
-0.0589464 -0.100206 0.812 255 255 255
0.2876 -0.190754 0.738 255 255 255
-0.0896516 -0.102057 0.827 255 255 255
0.0486662 -0.187847 0.869 255 255 255
0.0585423 0.174312 0.743 255 255 255
-0.0279613 0.0938718 0.834 255 255 255
-0.778473 0.262137 1.729 255 255 255
-0.037016 -0.0192479 0.855 255 255 255
-0.0486007 -0.00397981 0.863 255 255 255
-0.0667663 -0.150506 0.827 255 255 255
-0.127903 0.0381951 0.897 255 255 255
0.326046 -0.0169546 0.658 255 255 255
-0.352795 -0.325912 1.044 255 255 255
0.0610637 0.0670521 0.775 255 255 255
0.0130063 0.16268 0.768 255 255 255
-0.429682 -0.389537 1.13 255 255 255
-0.0385565 -0.349207 0.963 255 255 255
0.265443 -0.00426743 0.684 255 255 255
-0.320182 -0.00811798 1.032 255 255 255
0.0947572 -0.0638624 0.772 255 255 255
-0.409318 0.475775 1.432 255 255 255
0.0332329 0.152959 0.745 255 255 255
0.258015 0.220495 0.787 255 255 255
0.0118876 -0.245827 0.869 255 255 255
0.227373 0.164357 0.77 255 255 255
-0.359947 0.000285257 1.055 255 255 255
0.235504 0.118301 0.772 255 255 255
0.259541 0.112054 0.529 255 255 255
0.141071 0.0441219 0.771 255 255 255
0.00894379 0.0602707 0.858 255 255 255
-0.0862551 -0.318643 0.92 255 255 255
0.375722 -0.150333 0.746 255 255 255
0.164737 0.289201 0.862 255 255 255
0.0297221 0.0612289 0.815 255 255 255
-0.0481256 0.139147 0.88 255 255 255
-0.108782 -0.241439 0.884 0 0 0
-0.79536 0.149591 1.729 255 255 255
0.0449338 0.161129 0.738 255 255 255
0.0300714 0.146799 0.757 255 255 255
0.210654 0.215215 0.755 255 255 255
0.11172 0.30152 0.935 255 255 255
0.202103 -0.00213674 0.716 255 255 255
-0.0108072 -0.242974 0.874 255 255 255
-0.496742 0.536511 1.396 255 255 255
-0.183551 -0.0616101 0.905 255 255 255
-0.160026 -0.0362503 0.897 255 255 255
-0.362822 -0.105437 1.015 255 255 255
-0.455668 -0.17492 1.066 255 255 255
-0.449228 -0.180664 1.059 255 255 255
0.108972 -0.247602 0.912 0 0 0
-0.587088 -0.310807 1.118 255 255 255
-0.245837 0.334499 1.378 255 255 255
0.131731 0.189092 0.806 255 255 255
0.249191 -0.0730074 0.714 255 255 255
0.17097 0.140549 0.77 0 0 0
-0.174845 0.221175 1.16 255 255 255
-0.577634 -0.422457 1.165 255 255 255
0.304006 0.142921 0.737 255 255 255
0.00320457 -0.0477587 0.819 255 255 255
-0.572745 0.231439 1.595 255 255 255
0.208472 0.0533611 0.726 255 255 255
0.200271 -0.0491519 0.722 255 255 255
0.386651 -0.208337 0.796 0 0 0
0.112385 0.391057 1.072 255 255 255
0.048179 -0.149423 0.836 255 255 255
-0.000796889 -0.0892925 0.821 255 255 255
-0.688413 0.0314904 1.366 255 255 255
0.420911 -0.304948 0.906 255 255 255
0.129115 -0.331395 0.918 255 255 255
0.0193226 -0.343916 0.957 0 0 0
-0.364155 -0.124024 1.005 255 255 255
-0.566256 -0.109644 1.165 255 255 255
-0.107285 0.224909 1.07 255 255 255
0.230189 0.253277 0.72 255 255 255
0.0789631 0.00535596 0.79 255 255 255
-0.391495 -0.0670267 1.034 255 255 255
-0.140796 0.516783 1.339 255 255 255
-0.0800532 0.372226 1.242 255 255 255
-0.337325 -0.190288 0.984 255 255 255
0.321339 -0.263573 0.761 255 255 255
-0.825873 0.178072 1.789 255 255 255
0.209068 -0.169905 0.786 255 255 255
0.243692 -0.022432 0.695 255 255 255
0.127337 -0.237161 0.895 255 255 255
0.267529 0.0266632 0.678 255 255 255
-0.443521 -0.0916526 1.066 255 255 255
0.257029 0.296495 0.765 255 255 255
0.263943 0.0513121 0.683 0 0 0
-0.575377 -0.21841 1.12 255 255 255
-0.0833717 0.507833 1.327 255 255 255
-0.923168 0.189291 1.758 255 255 255
0.266105 0.218181 0.68 255 255 255
-0.194992 -0.193877 0.852 255 255 255
-0.0116282 -0.149882 0.831 255 255 255
-0.306891 -0.307182 0.984 255 255 255
-0.361632 0.124037 1.102 255 255 255
-0.198445 -0.331426 0.948 255 255 255
0.27973 -0.0972145 0.73 255 255 255
0.00982222 -0.0899662 0.815 255 255 255
-0.583455 -0.0395383 1.225 255 255 255
0.144851 0.0867853 0.806 255 255 255
-0.00731506 0.16748 0.803 255 255 255
0.243411 -0.346926 0.944 255 255 255
0.0807169 -0.228422 0.895 255 255 255
-0.590504 -0.355807 1.128 255 255 255
0.293531 -0.0364403 0.682 255 255 255
-0.518682 -0.055929 1.152 255 255 255
-0.693753 0.40795 1.575 255 255 255
-0.159274 -0.0860281 0.869 255 255 255
-0.0245231 0.381795 1.196 255 255 255
0.0614225 -0.00367083 0.796 255 255 255
-0.409013 0.0811442 1.104 255 255 255
0.199318 0.110906 0.773 255 255 255
-0.0177817 0.047776 0.942 255 255 255
0.218219 -0.0911975 0.739 255 255 255
-0.0137644 0.146959 0.798 255 255 255
0.226251 -0.129997 0.762 255 255 255
-0.108754 0.00163393 0.861 255 255 255
0.23219 0.137649 0.782 255 255 255
0.240572 -0.355688 0.951 255 255 255
-0.0264761 -0.161858 0.83 255 255 255
0.252332 0.235507 0.723 255 255 255
-0.20366 0.364443 1.381 255 255 255
-0.581151 0.533804 1.419 255 255 255
0.0374357 -0.250645 0.871 255 255 255
0.277691 0.0803276 0.684 255 255 255
0.257308 -0.267378 0.839 255 255 255
0.284511 -0.0645562 0.698 255 255 255
0.22882 -0.184721 0.806 255 255 255
0.315552 -0.154188 0.759 255 255 255
-0.0334268 0.344051 1.167 255 255 255
0.196165 0.129382 0.756 255 255 255
0.282457 -0.109692 0.734 255 255 255
-0.127859 -0.214221 0.867 255 255 255
-0.107228 -0.212492 0.86 255 255 255
0.0271003 -0.17011 0.858 255 255 255
0.259775 -0.0677853 0.708 255 255 255
0.089845 -0.195015 0.857 255 255 255
-0.282954 0.495863 1.384 255 255 255
-0.141607 0.0357869 0.91 255 255 255
-0.118565 -0.211338 0.861 255 255 255
0.243335 0.152724 0.781 255 255 255
0.234896 -0.278916 0.862 255 255 255
-0.259614 0.076029 1.012 255 255 255
-0.107469 -0.088625 0.84 255 255 255
-0.324511 -0.132641 0.984 255 255 255
0.10538 -0.057208 0.767 255 255 255
-0.0426675 0.323111 1.16 255 255 255
-0.186591 -0.354269 0.935 0 0 0
-0.58351 0.392571 1.575 255 255 255
-0.288706 0.477655 1.39 255 255 255
0.268743 -0.112844 0.739 255 255 255
-0.695004 0.306105 1.677 255 255 255
-0.0105549 -0.362858 0.983 255 255 255
0.299096 -0.258833 0.758 255 255 255
-0.795326 0.0818151 1.563 255 255 255
0.306999 0.133023 0.716 255 255 255
0.0814581 0.0596385 0.777 255 255 255
0.0319342 0.158594 0.743 255 255 255
0.295135 0.0790358 0.673 255 255 255
-0.0930504 0.311078 1.201 255 255 255
-0.023636 -0.289121 0.931 0 0 0
-0.211209 0.0284981 0.964 255 255 255
-0.2024 -0.195722 0.854 255 255 255
-0.491186 -0.323416 1.087 255 255 255
-0.7008 0.39397 1.591 255 255 255
-0.0276596 -0.1488 0.825 255 255 255
0.256581 0.119166 0.53 255 255 255
0.187722 -0.322576 0.927 255 255 255
-0.230947 -0.138345 0.906 255 255 255
0.416169 -0.240265 0.821 255 255 255
0.154367 0.369074 0.994 255 255 255
0.219183 -0.156658 0.759 255 255 255
0.204087 0.10825 0.772 255 255 255
-0.00624735 -0.127503 0.835 255 255 255
0.34141 -0.102639 0.71 255 255 255
0.338746 -0.0300758 0.664 255 255 255
0.266991 0.132167 0.765 255 255 255
-0.315765 0.444614 1.452 255 255 255
0.177308 0.0474197 0.744 255 255 255
0.0277636 -0.26153 0.879 255 255 255
0.213161 0.00251688 0.714 255 255 255
0.204434 0.00601943 0.716 255 255 255
0.276594 0.147074 0.778 255 255 255
0.1735 -0.192352 0.805 255 255 255
0.268219 -0.0485842 0.697 255 255 255
-0.229091 0.239601 1.167 255 255 255
0.225882 -0.198233 0.824 255 255 255
-0.280823 -0.10796 0.95 255 255 255
0.215184 -0.0183718 0.713 255 255 255
0.24825 0.240889 0.718 255 255 255
-0.16185 0.510422 1.351 255 255 255
0.17027 0.0438464 0.745 255 255 255
-0.187789 0.0324121 0.941 255 255 255
-0.352066 -0.0766006 1.027 255 255 255
0.297411 -0.26199 0.76 255 255 255
-0.136563 0.481332 1.362 255 255 255
-0.287667 0.0218113 1.018 255 255 255
-0.517942 0.0412643 1.198 255 255 255
-0.566325 -0.442538 1.173 255 255 255
0.285599 0.214722 0.586 255 255 255
-0.0587476 -0.225444 0.889 0 0 0
0.171414 0.154733 0.772 255 255 255
-0.407531 -0.364875 1.1 255 255 255
0.0176534 -0.334022 0.951 255 255 255
0.141085 0.0483207 0.778 255 255 255
-0.00838999 -0.286016 0.921 255 255 255
-0.114279 0.282117 1.178 255 255 255
-0.289163 -0.328177 0.952 255 255 255
0.136469 0.0916893 0.803 255 255 255
-0.403715 0.303855 1.516 255 255 255
-0.402356 0.52289 1.384 255 255 255
0.106754 0.169644 0.777 255 255 255
0.24536 -0.00093222 0.687 255 255 255
-0.330716 0.123661 1.083 255 255 255
-0.44294 -0.0416168 1.073 255 255 255
-0.0215788 -0.364665 0.975 255 255 255
-0.775861 0.384857 1.607 255 255 255
-0.197545 0.0842693 0.974 255 255 255
0.349635 -0.217936 0.766 255 255 255
-0.746707 0.366267 1.629 255 255 255
-0.260203 -0.268113 0.937 255 255 255
0.303604 -0.0852192 0.719 255 255 255
-0.818948 0.225656 1.774 255 255 255
0.281732 -0.0209332 0.683 255 255 255
-0.29381 -0.240152 0.947 255 255 255
-0.431425 -0.142019 1.041 255 255 255
-0.461265 -0.164151 1.075 255 255 255
-0.365435 -0.343189 1.066 255 255 255
-0.32094 -0.222549 0.978 0 0 0
0.206499 -0.297409 0.91 255 255 255
0.278551 0.0437936 0.67 255 255 255
0.0240762 0.502684 1.297 255 255 255
0.16179 0.185214 0.812 255 255 255
-0.537179 -0.371007 1.124 255 255 255
-0.136421 -0.109045 0.85 255 255 255
-0.081946 0.436161 1.339 255 255 255
-0.1821 -0.017717 0.92 255 255 255
-0.00866328 -0.310808 0.951 0 0 0
0.342242 -0.0480065 0.673 255 255 255
0.308098 -0.319096 0.917 255 255 255
-0.179299 -0.115363 0.877 255 255 255
0.295813 0.214612 0.578 255 255 255
-0.624201 -0.437423 1.185 255 255 255
0.278279 0.243487 0.623 255 255 255
-0.608225 -0.128881 1.203 255 255 255
0.225426 -0.244111 0.858 255 255 255
-0.0208263 -0.299884 0.941 255 255 255
0.102356 -0.284306 0.906 255 255 255
-0.578459 -0.203089 1.126 0 0 0
-0.149572 -0.186334 0.862 255 255 255
0.0598845 0.455182 1.21 255 255 255
-0.157898 0.17262 1.059 255 255 255
-0.0160068 0.0410253 0.928 255 255 255
-0.654681 0.497969 1.47 255 255 255
0.213431 0.330003 0.866 255 255 255
-0.457415 -0.198459 1.062 255 255 255
-0.319865 0.242286 1.239 255 255 255
-0.00482374 -0.0963234 0.824 255 255 255
-0.260516 0.0867591 1.022 255 255 255
0.327475 -0.21196 0.758 255 255 255
0.206152 0.345189 0.902 255 255 255
-0.0461579 0.506749 1.313 255 255 255
-0.163452 0.0908692 0.96 255 255 255
-0.904501 0.198452 1.789 255 255 255
0.168885 -0.181235 0.808 255 255 255
-0.195633 0.482633 1.372 255 255 255
-0.172986 0.22938 1.173 255 255 255
-0.0908465 -0.351962 0.921 255 255 255
0.0847444 -0.0865442 0.784 255 255 255
-0.10183 -0.0177522 0.85 255 255 255
-0.304019 -0.257919 0.95 255 255 255
0.247764 -0.118501 0.752 255 255 255
-0.0141335 0.335116 1.143 255 255 255
0.254681 -0.00204423 0.685 255 255 255
0.0463755 0.34269 1.079 255 255 255
0.115698 0.0532577 0.795 255 255 255
-0.759677 0.187784 1.744 255 255 255
0.27321 0.181368 0.574 255 255 255
-0.0425347 -0.083216 0.827 255 255 255
0.0457843 -0.187631 0.868 255 255 255
0.288161 0.0620498 0.667 255 255 255
0.183602 -0.226154 0.833 255 255 255
-0.0410564 0.179651 0.882 255 255 255
-0.166217 -0.149688 0.861 255 255 255
0.152079 -0.0264705 0.745 255 255 255
0.268387 0.135361 0.769 255 255 255
-0.0734671 0.0431913 0.91 255 255 255
-0.551436 0.299073 1.624 255 255 255
-0.119529 -0.00400287 0.868 255 255 255
0.266544 0.171365 0.809 255 255 255
-0.0684696 0.38541 1.252 255 255 255
-0.256908 0.172533 1.048 255 255 255
0.0530328 0.377143 1.108 255 255 255
-0.484938 0.479066 1.449 255 255 255
-0.0825195 -0.100224 0.823 255 255 255
0.126275 -0.0732426 0.765 255 255 255
0.21308 -0.354256 0.939 255 255 255
0.107723 -0.28533 0.914 255 255 255
0.229506 0.0796807 0.729 255 255 255
-0.923185 0.161688 1.769 255 255 255
0.276334 -0.243053 0.74 255 255 255
-0.596012 -0.3503 1.128 0 0 0
-0.0450235 -0.242488 0.904 0 0 0
-0.37434 0.150292 1.124 255 255 255
0.209003 0.243204 0.732 255 255 255
-0.192838 0.471089 1.384 255 255 255
-0.217486 -0.270407 0.924 255 255 255
0.121599 0.0384377 0.783 255 255 255
0.245138 -0.0574971 0.709 255 255 255
0.219567 -0.139951 0.769 255 255 255
-0.386 0.226575 1.39 255 255 255
0.106576 0.0308711 0.785 255 255 255
0.24664 -0.065666 0.71 255 255 255
-0.111516 -0.0315844 0.85 255 255 255
-0.0320725 -0.17778 0.835 255 255 255
0.342386 -0.0433664 0.669 255 255 255
-0.592598 -0.235487 1.132 255 255 255
-0.0423132 0.0327891 0.909 0 0 0
-0.578507 -0.281995 1.112 255 255 255
-0.749041 0.0443517 1.422 255 255 255
-0.24341 0.220178 1.145 255 255 255
-0.0461095 0.148721 0.869 255 255 255
-0.304834 0.444822 1.445 255 255 255
0.195093 -0.0567464 0.729 255 255 255
0.207921 0.0376883 0.72 255 255 255
-0.0963563 0.125369 0.961 255 255 255
0.0900312 -0.35111 0.947 255 255 255
0.311653 -0.169224 0.777 255 255 255
-0.739338 0.0734251 1.547 255 255 255
0.272124 0.0703098 0.684 255 255 255
0.102705 -0.195727 0.848 255 255 255
-0.0804292 -0.304611 0.905 255 255 255
-0.233271 -0.256041 0.921 0 0 0
-0.338797 0.130019 1.092 255 255 255
0.131824 -0.0329253 0.754 255 255 255
-0.159529 0.110755 0.984 255 255 255
0.272814 -0.23727 0.737 255 255 255
-0.200328 0.0345205 0.957 255 255 255
-0.019792 -0.0390861 0.833 255 255 255
0.0215486 -0.0352397 0.807 255 255 255
-0.0985559 -0.136851 0.834 255 255 255
-0.266191 -0.275675 0.942 255 255 255
0.233047 -0.0134225 0.697 255 255 255
0.0137514 -0.0605644 0.812 255 255 255
0.174245 0.0593353 0.757 255 255 255
0.235316 -0.0145568 0.697 255 255 255
0.176092 0.1126 0.776 255 255 255
0.313791 -0.236526 0.746 255 255 255
-0.0708836 0.0202405 0.878 255 255 255
0.0752462 -0.352522 0.955 255 255 255
-0.606529 0.270422 1.659 255 255 255
-0.324193 0.381709 1.502 255 255 255
0.314182 0.181024 0.777 255 255 255
0.0677306 0.00409098 0.794 255 255 255
0.293605 -0.0548334 0.69 255 255 255
0.268417 0.141105 0.78 255 255 255
-0.250483 -0.222869 0.902 255 255 255
0.349993 -0.107412 0.711 255 255 255
-0.260331 -0.104398 0.932 255 255 255
0.267444 0.212183 0.675 255 255 255
-0.446957 0.0785345 1.118 255 255 255
-0.389553 -0.386256 1.11 255 255 255
-0.228227 -0.273971 0.931 255 255 255
-0.378029 -0.0653441 1.034 255 255 255
0.129116 -0.129631 0.79 255 255 255
0.152263 0.239333 0.79 255 255 255
-0.0571861 0.342221 1.187 255 255 255
0.150439 0.136241 0.774 255 255 255
0.1585 -0.021505 0.741 255 255 255
0.0665405 -0.134397 0.811 255 255 255
-0.537317 -0.358911 1.132 255 255 255
0.390605 -0.375447 0.966 255 255 255
-0.244759 -0.156382 0.908 255 255 255
-0.193504 0.41923 1.422 255 255 255
0.250196 -0.00877079 0.688 255 255 255
0.112724 0.00270018 0.766 255 255 255
-0.0249434 -0.147278 0.824 255 255 255
0.191563 -0.349723 0.931 255 255 255
-0.364211 -0.366286 1.083 255 255 255
0.0271416 -0.28873 0.906 255 255 255
-0.318467 0.511658 1.372 255 255 255
0.171675 -0.204026 0.815 255 255 255
0.0662708 -0.0951603 0.792 255 255 255
-0.423554 0.485044 1.425 255 255 255
-0.204546 0.174647 1.116 255 255 255
-0.235403 0.411534 1.452 255 255 255
-0.418578 0.508155 1.393 255 255 255
-0.676217 0.512322 1.47 255 255 255
-0.75182 0.345982 1.646 255 255 255
-0.21899 -0.268904 0.924 255 255 255
0.100043 -0.116074 0.794 0 0 0
-0.259882 -0.169846 0.925 255 255 255
0.195655 -0.000974285 0.718 255 255 255
0.210954 -0.124284 0.765 255 255 255
-0.0697297 -0.29414 0.9 255 255 255
-0.640852 0.357813 1.603 255 255 255
0.319652 -0.17957 0.778 255 255 255
-0.444388 -0.409176 1.149 255 255 255
0.227538 -0.215827 0.835 255 255 255
-0.29132 0.394039 1.484 255 255 255
0.11366 0.167976 0.781 255 255 255
-0.178443 -0.0278598 0.909 255 255 255
0.210837 0.0245932 0.714 255 255 255
-0.0861459 -0.274323 0.888 255 255 255
0.220784 -0.201159 0.825 255 255 255
-0.464344 -0.189506 1.07 255 255 255
-0.465192 0.123006 1.178 255 255 255
-0.11091 -0.18643 0.856 255 255 255
0.107613 -0.354256 0.939 255 255 255
0.423111 -0.339779 0.937 255 255 255
0.124705 0.196229 0.803 255 255 255
0.227732 0.315527 0.821 255 255 255
0.303014 0.134881 0.726 255 255 255
-0.231879 -0.203285 0.887 255 255 255
-0.339616 -0.107669 1.005 255 255 255
-0.236005 0.0292371 0.989 255 255 255
-0.603352 -0.111447 1.205 255 255 255
-0.0694586 -0.0576458 0.827 255 255 255
-0.567297 0.317573 1.624 255 255 255
0.0305916 -0.0494392 0.803 255 255 255
-0.00761567 -0.175272 0.836 255 255 255
-0.607726 -0.0582773 1.242 255 255 255
0.206421 0.292359 0.816 255 255 255
-0.00353314 -0.179353 0.836 255 255 255
-0.0924455 -0.290399 0.893 0 0 0
-0.215127 0.434664 1.412 255 255 255
0.045688 0.0805074 0.771 255 255 255
0.258856 0.23744 0.648 255 255 255
-0.184596 -0.00878157 0.925 255 255 255
-0.10162 -0.277103 0.897 255 255 255
0.385302 -0.216972 0.804 255 255 255
-0.231897 0.519011 1.362 255 255 255
0.204853 -0.230227 0.848 255 255 255
0.1408 0.282031 0.879 255 255 255
-0.30285 -0.152223 0.966 255 255 255
0.315402 0.124532 0.701 255 255 255
0.100648 -0.0485973 0.769 255 255 255
-0.464344 -0.276568 1.07 255 255 255
0.0449177 0.144526 0.758 255 255 255
0.0325359 0.187452 0.757 255 255 255
0.18416 -0.0270512 0.728 255 255 255
0.180899 0.0264766 0.734 255 255 255
-0.528055 0.454413 1.484 255 255 255
0.0280652 0.0181047 0.845 255 255 255
-0.478614 -0.38825 1.137 255 255 255
0.294674 -0.151213 0.769 255 255 255
0.312611 0.130979 0.705 255 255 255
-0.0340647 -0.356113 0.969 255 255 255
-0.477999 -0.0613355 1.114 255 255 255
0.280683 0.193506 0.808 255 255 255
0.0187057 0.433844 1.222 255 255 255
0.184517 0.149126 0.769 255 255 255
-0.500123 0.48242 1.452 255 255 255
-0.330379 -0.122419 0.992 255 255 255
-0.253351 0.233503 1.165 255 255 255
-0.20228 0.404381 1.435 255 255 255
0.220902 0.0151908 0.709 255 255 255
-0.246064 -0.103502 0.924 255 255 255
-0.225849 -0.191522 0.886 0 0 0
0.0980038 0.0245774 0.788 255 255 255
0.0340042 -0.197574 0.856 255 255 255
0.17319 0.104295 0.78 255 255 255
0.103135 0.128447 0.788 255 255 255
0.0300868 -0.127319 0.825 255 255 255
0.016604 0.161197 0.761 255 255 255
-0.303342 -0.0178947 1.015 255 255 255
-0.0102384 -0.0954435 0.828 255 255 255
-0.230007 0.0451022 0.984 255 255 255
0.250309 -0.232572 0.745 255 255 255
-0.540837 0.418974 1.513 255 255 255
0.154115 0.0221422 0.749 255 255 255
-0.0518657 0.35709 1.198 255 255 255
-0.146107 -0.150542 0.85 255 255 255
0.034642 -0.0942192 0.806 255 255 255
-0.295664 -0.183701 0.958 255 255 255
0.234985 -0.196653 0.823 255 255 255
-0.232119 0.114183 1 0 0 0
0.246764 -0.357236 0.951 255 255 255
0.0999311 0.0205989 0.783 255 255 255
0.17951 0.142869 0.769 255 255 255
0.20735 -0.012588 0.714 255 255 255
-0.179152 -0.28819 0.928 255 255 255
0.274652 -0.0907746 0.726 255 255 255
-0.0288619 -0.141398 0.821 255 255 255
-0.0350826 -0.188861 0.842 255 255 255
-0.190017 0.26139 1.234 255 255 255
-0.387265 -0.332156 1.064 255 255 255
-0.210417 0.450184 1.396 255 255 255
-0.132868 -0.127655 0.845 255 255 255
0.029824 0.0434142 0.856 255 255 255
-0.232748 -0.351977 0.937 255 255 255
-0.843129 0.35438 1.673 255 255 255
-0.511447 -0.330271 1.104 255 255 255
0.227366 0.00935547 0.704 255 255 255
