ply
format ascii 1.0
comment Created by Open3D
element vertex 1348
property double x
property double y
property double z
property uchar red
property uchar green
property uchar blue
end_header
0.246001 0.0699506 0.824 148 147 151
-0.703733 0.48369 1.563 119 119 115
0.225921 -0.0697794 1.025 198 197 201
-0.910839 -0.107122 2.365 122 119 103
-0.704646 0.131598 2.236 127 118 121
-0.586942 0.503862 1.524 110 114 107
1.34417 -0.828159 2.695 61 52 33
-0.0681828 -0.0174523 1.369 8 11 14
0.325256 0.226537 0.65 120 128 127
1.21698 -0.826178 2.871 68 60 57
0.0254128 -0.0241358 1.369 1 7 7
0.122448 -0.0342041 1.116 119 108 101
0.201833 0.0608947 0.909 161 160 164
-0.855418 0.323153 1.853 113 114 105
0.583294 -0.28958 1.403 150 152 141
0.214103 -0.238407 1.31 118 113 123
0.353263 0.0540711 0.788 203 209 207
0.119722 0.0852602 1.16 4 8 1
-0.21346 -0.081857 1.532 6 8 0
-0.199525 -0.178305 1.484 4 8 3
0.767485 -0.875357 2.719 135 131 132
-0.00876936 -0.233618 1.498 31 31 31
-0.229108 -0.0861629 1.52 6 7 3
-0.280933 0.285066 1.65 4 9 0
0.499921 -0.911978 2.449 128 120 119
-0.723435 0.433957 1.686 123 124 118
0.427769 -0.313616 1.473 211 209 216
-0.00801878 -0.636952 3.086 57 61 54
0.133742 -0.130722 1.167 192 186 188
0.19782 -0.0727718 1.044 187 181 185
0.260198 0.146242 0.767 163 167 160
0.0391846 -0.116716 1.308 114 105 108
-0.839726 0.287071 1.935 115 113 105
0.0966804 0.288166 1.053 2 3 0
0.0415665 -0.155978 1.316 136 128 125
0.128895 -0.724508 3.117 24 25 19
-0.244478 -0.807125 2.158 135 131 120
0.397519 -0.097929 1.139 106 109 112
0.0704243 -0.0394415 1.222 103 96 88
0.424067 -0.246415 1.354 91 99 114
0.365537 -0.3006 1.445 221 217 222
0.231845 0.0373435 0.877 194 194 196
0.225765 0.0697178 0.854 136 133 130
0.0822569 -0.237075 1.351 198 197 199
0.197758 -0.733815 3.248 25 26 17
-0.472221 0.555378 1.439 121 122 118
0.132377 0.356299 0.999 15 18 0
0.302058 0.310949 0.816 35 39 34
-0.0884018 0.0875773 1.141 24 24 18
0.00335892 -0.205329 1.47 77 77 71
0.0877355 0.0891205 1.137 9 12 11
0.160786 0.295055 0.871 54 25 2
0.165871 -0.0513168 1.057 156 147 150
0.0355137 -0.0732282 1.33 97 87 87
-0.992859 -0.24615 2.166 130 124 111
-1.11379 -0.472291 2.121 133 133 129
0.140557 -0.894599 3.04 9 10 0
-0.139666 -0.127876 1.516 8 10 1
0.166219 -0.939561 2.805 9 8 10
-0.318051 0.178035 1.705 79 77 69
0.338176 -0.127829 1.158 109 108 110
0.454384 -0.0205762 0.914 8 12 7
0.657207 -0.340575 1.445 140 142 124
0.0810788 0.0375211 1.203 8 9 5
0.369835 0.00563393 0.831 28 28 22
-0.758574 0.373111 1.748 121 122 116
0.150357 0.305557 0.902 29 16 5
-0.201467 0.104255 1.595 4 5 0
0.251588 0.21445 0.779 76 77 73
0.231177 0.166819 0.819 136 131 127
-0.444708 -0.680701 2.158 129 125 116
-0.684068 0.366432 1.799 120 121 112
0.395111 0.03835 0.808 21 32 41
-0.578591 0.0512502 2.392 111 104 98
0.27787 0.222285 0.771 72 74 63
-0.547135 0.322085 1.882 127 124 119
-1.02128 -0.126297 2.228 128 124 115
-0.694399 -0.257334 2.402 118 108 106
0.207034 0.250268 0.788 102 104 95
-0.969897 -0.124928 2.269 127 123 114
-0.681069 0.391 1.739 117 115 107
0.0867323 0.356982 1.124 29 18 9
-0.819175 0.345188 1.826 108 109 103
0.342948 0.115077 0.699 169 181 173
1.26109 -0.873946 2.844 96 94 82
0.277164 0.150524 0.739 97 96 98
0.111146 0.209631 1.013 4 8 1
0.422988 -0.023216 0.901 8 13 1
0.110471 0.0173328 1.162 73 66 58
0.280624 -0.0739 1.036 140 143 144
0.216183 0.0476575 0.883 150 146 147
0.310062 0.125856 0.715 178 186 175
-0.643517 0.372086 1.784 125 123 115
1.24969 -0.914948 2.871 104 102 92
-0.605152 0.0624544 2.374 115 108 98
-0.913237 0.358573 1.789 108 108 108
0.121041 0.347901 1.027 9 10 1
-1.13037 0.169776 2.166 117 117 113
0.290027 0.15086 0.729 104 99 95
-1.02104 -0.237207 2.181 125 126 115
0.247353 0.349114 0.897 10 14 7
0.387894 -0.0211945 0.878 20 28 17
0.247307 0.00470411 0.913 209 209 211
-0.798105 0.427976 1.642 112 119 113
0.186141 0.0176986 0.974 158 147 153
0.20675 0.226316 0.945 85 81 72
0.139587 0.364898 0.97 27 18 11
-0.137882 -0.871987 2.253 139 131 130
-0.747092 -0.208764 2.383 114 107 99
-0.173241 -0.285883 1.466 7 11 4
-0.741409 -0.788388 2.037 136 129 123
-0.0484864 0.512434 1.52 26 27 14
-1.11791 -0.150043 2.204 115 115 109
-0.548453 -0.725534 2.085 132 128 119
-0.516795 -0.720497 2.151 135 126 119
-0.620828 0.380473 1.769 129 127 117
0.676936 -0.353824 1.432 155 160 150
0.558016 -0.260284 1.369 163 171 160
-0.00581108 0.429987 1.375 6 8 0
-0.680188 0.38361 1.744 123 124 115
-0.0367141 -0.0106902 1.359 15 27 43
-1.06041 -0.213141 2.189 129 127 119
0.221709 0.00476079 0.924 181 177 180
-0.686113 -0.50346 2.166 124 117 109
0.0295876 0.0713682 1.18 11 8 3
-0.736019 -0.568608 2.107 123 116 110
-1.07876 -0.0317988 2.212 128 125 120
0.120445 0.051591 1.167 13 13 9
-0.598558 -0.723448 2.181 130 121 112
1.30683 -0.824181 2.755 29 16 5
0.0445269 -0.0828435 1.278 101 93 92
0.140614 -0.0850549 1.116 183 182 184
0.349965 -0.29701 1.439 220 216 219
0.204418 -0.0315661 0.978 164 160 161
-0.817065 -0.452435 2.158 122 115 107
0.298091 0.14721 0.717 133 131 121
0.198216 0.147261 0.941 91 87 76
0.026211 -0.213313 1.412 134 125 128
0.620329 -0.714132 2.695 151 147 140
-0.195359 0.423728 1.7 30 35 23
-0.791348 0.303118 1.917 110 111 100
0.377023 -0.291514 1.435 224 220 225
-0.385788 0.502611 1.543 123 122 122
-0.575916 -0.25638 2.43 106 92 84
-0.943241 -0.107639 2.294 126 122 111
-0.873939 0.1686 2.151 123 119 108
-0.160979 -0.285298 1.463 2 9 3
-0.714501 -0.126365 2.365 114 107 99
0.133061 -0.949283 2.78 20 15 23
0.230263 0.136363 0.845 120 118 108
0.185567 0.0965218 0.939 104 96 93
1.33253 -0.796605 2.707 24 16 4
-0.850738 -0.508479 2.128 128 119 112
0.29997 0.117096 0.733 179 185 183
0.370894 -0.22795 1.299 162 184 194
-0.183017 0.399325 1.714 22 24 15
-0.7832 -0.553296 2.114 123 117 104
0.295018 -0.184002 1.205 97 88 95
0.263153 -0.751494 2.768 11 18 12
0.148484 0.241643 1.009 7 7 1
-0.172059 -0.305258 1.456 8 9 3
-0.298668 0.319018 1.659 8 10 1
0.185567 0.0934657 0.939 102 95 89
-0.891093 0.254051 1.972 118 116 106
-0.259002 0.331652 1.682 2 9 1
0.352586 0.0178904 0.835 199 202 203
0.00633289 0.0895908 1.143 15 16 12
-0.528981 0.451241 1.62 116 117 106
-0.681721 0.234875 2.057 122 119 105
0.0408777 0.293639 1.073 0 6 0
-0.463648 -0.663111 2.181 131 124 118
-0.129696 -0.737682 2.303 129 119 117
0.0912367 0.380314 1.112 26 15 6
0.315813 0.153348 0.687 131 135 128
0.607629 -0.372158 1.579 199 202 205
-0.576281 0.0987878 2.32 116 107 98
0.0121375 -0.978468 3.102 27 24 21
1.01115 -0.758281 2.793 127 124 110
0.282194 0.122484 0.759 161 158 153
-0.475334 0.538452 1.463 106 115 97
0.705974 -0.90938 2.638 141 136 132
-0.660455 -0.790001 2.085 130 126 117
-0.908046 -0.230372 2.253 122 119 116
-0.660776 0.240043 2.044 126 122 113
-0.247893 0.541029 1.47 98 97 82
0.186333 0.0716627 0.975 106 99 89
0.193797 0.0298485 0.957 164 156 153
-0.471085 -0.371389 2.286 117 107 105
-0.547828 -0.443758 2.22 120 113 105
0.225882 0.167838 0.824 124 124 120
0.306069 0.274298 0.742 78 75 72
-0.849846 -0.171892 2.356 109 105 94
0.614976 -0.212971 1.225 163 166 165
0.0416612 -0.00393625 1.319 18 17 17
-1.05906 -0.348157 2.143 136 132 125
0.0835243 0.213979 1.018 8 13 3
-0.167746 0.338045 1.673 5 6 0
-0.708366 0.470655 1.579 112 120 117
0.317875 -0.269308 1.381 210 209 216
1.20296 -0.779458 2.871 85 82 79
0.236672 -0.0245816 0.954 197 196 198
0.233651 -0.0531109 0.994 197 196 198
-0.618223 0.543214 1.463 106 109 110
-0.154571 -0.250781 1.47 12 13 7
-0.693729 0.206982 2.114 129 121 109
0.150151 0.271486 0.947 72 23 0
0.238104 -0.24109 1.313 123 116 125
0.299988 0.173428 0.705 105 106 102
-0.717761 -0.166774 2.338 113 106 96
-0.932137 -0.348506 2.189 117 118 105
0.114331 0.301648 1.012 25 19 6
-0.778515 -0.719609 2.03 132 124 121
-0.100949 -0.895865 3.011 36 32 25
0.269081 0.168631 0.75 74 79 69
0.551653 -0.704858 2.66 152 141 132
-0.735057 -0.00722194 2.42 111 107 100
-0.583827 -0.0547047 2.43 123 114 107
0.123396 -0.96634 2.871 10 10 4
0.288048 0.158195 0.73 89 91 82
0.207827 0.286153 0.806 77 79 66
0.157336 0.282285 0.917 64 24 0
0.156696 0.192384 1.009 5 7 0
0.0129557 0.22596 1.075 5 6 2
-0.313385 -0.809199 2.173 137 130 124
-0.629044 -0.674701 2.128 127 125 113
0.145049 0.344907 0.954 17 10 2
0.134601 0.321074 0.957 25 18 12
-0.331856 0.411679 1.719 84 80 71
-0.202422 0.516262 1.524 47 49 33
0.659902 -0.787103 2.66 136 131 127
0.119391 0.203037 1.013 7 8 0
0.396975 0.0202379 0.82 34 35 26
0.561176 -0.342507 1.516 164 171 165
0.108849 0.244442 1.007 3 4 0
-0.651525 -0.153889 2.374 112 103 98
-0.615942 0.511085 1.516 118 118 112
0.177573 0.325354 0.843 17 9 0
0.146849 0.111681 1.122 22 26 21
-0.473461 -0.2368 2.392 113 106 98
0.302844 0.221717 0.709 84 88 81
0.0890172 0.203576 1.024 8 9 5
-0.878849 -0.265969 2.244 126 122 111
-0.302792 0.517173 1.505 116 112 101
0.329446 -0.0661178 0.995 205 204 206
-0.174249 -0.440968 1.435 13 19 21
-0.467897 0.238399 2.03 111 104 96
-0.235339 -0.75977 2.204 137 130 124
0.163438 0.254134 1 46 38 37
0.0268796 0.298599 1.072 0 7 0
0.0688902 0.10431 1.102 23 24 20
-0.66226 -0.366382 2.278 121 112 105
0.15664 -0.797471 3.165 20 22 11
0.671565 -0.932669 2.572 156 149 143
-0.137362 -0.0165813 1.491 4 5 0
-0.768041 0.28932 1.929 122 113 104
0.103178 -0.210527 1.283 205 201 202
-0.191938 -0.301964 1.463 7 11 4
0.675238 -0.352727 1.409 167 169 156
-0.689638 -0.506985 2.166 122 116 103
-0.759384 0.396044 1.724 122 123 114
-0.984671 -0.0990815 2.269 124 122 110
-0.864467 0.101812 2.303 119 115 108
0.359069 -0.916568 2.44 156 146 144
0.650368 -0.285334 1.33 192 192 192
-0.623574 0.536244 1.47 110 115 103
0.327073 -0.938731 2.499 114 109 105
1.38747 -1.0464 2.925 119 116 111
0.355176 -0.121543 1.152 107 107 109
0.16243 0.063929 1.057 80 73 67
0.454983 -0.344315 1.524 180 180 176
0.254063 0.281255 0.807 78 82 77
0.0427833 0.184318 1.077 2 9 1
0.235336 0.218378 0.784 113 113 107
-0.742035 0.549806 1.449 111 124 111
-0.608543 0.530258 1.48 110 115 105
-0.53576 -0.190089 2.392 109 102 94
0.375077 -0.0589218 0.983 207 207 207
-0.798373 -0.080487 2.374 149 145 134
0.139245 -0.165387 1.198 212 203 208
-0.549995 -0.729861 2.078 131 129 121
-0.486708 -0.660679 2.173 129 123 110
0.375148 -0.0715868 1.027 206 206 206
-0.803825 0.0466449 2.356 121 117 106
-0.832366 -0.430437 2.189 123 114 109
-0.143266 0.525919 1.502 42 41 26
0.109389 0.283533 1.012 27 25 15
0.290414 0.142165 0.727 119 121 112
-1.05329 -0.0991504 2.189 125 127 116
-0.708288 0.531587 1.477 116 126 114
0.539607 -0.208886 1.273 204 204 204
0.385825 0.0162148 0.819 25 28 12
-0.305106 0.134701 1.65 26 22 27
1.17776 -0.924856 2.844 103 105 89
-0.602803 -0.0273463 2.459 116 107 100
0.196784 0.197922 0.964 90 82 79
-0.626266 0.318814 1.899 120 121 110
0.0338572 -0.860669 3.248 34 32 24
0.485869 -0.882808 2.479 144 144 138
-0.209036 -0.32644 1.466 11 12 6
0.26162 0.0972783 0.806 151 151 147
-0.984209 0.262187 1.985 115 120 106
0.508023 -0.891301 2.469 158 154 147
0.218368 -0.236276 1.31 115 110 118
0.0455462 -0.26947 1.442 175 171 174
-1.13943 -0.139283 2.204 138 140 131
-1.0924 -0.145924 2.196 123 124 115
0.296235 0.177371 0.707 92 96 89
-1.19437 -0.0443502 2.303 126 127 116
-0.163904 -0.0320583 1.535 5 6 0
0.10629 0.401377 1.081 25 16 7
0.11937 0.339545 1.027 9 10 6
-0.017183 0.145292 1.1 8 12 7
-0.898745 -0.599335 2.071 139 130 123
-0.745982 0.554613 1.425 105 116 112
-0.201396 -0.223585 1.48 6 11 1
0.288813 0.0644076 0.805 178 179 175
-0.178002 0.198177 1.642 2 6 0
-0.0135523 0.150115 1.096 15 19 14
0.397191 -0.0852699 1.073 112 115 116
0.480123 -0.280993 1.429 204 207 208
0.038196 0.39664 1.275 15 13 3
0.308824 0.271981 0.723 86 91 79
0.0220733 -0.243657 1.442 167 166 170
-0.119243 -0.215921 1.477 7 11 6
0.0858431 0.024055 1.215 19 13 19
-0.75906 -0.494626 2.143 119 115 108
-0.207157 0.0158443 1.579 3 7 2
1.38881 -0.947132 2.898 96 94 84
-0.695848 0.545354 1.456 105 113 114
0.289629 0.138806 0.728 131 135 128
0.355713 -0.0844579 1.085 120 123 122
0.157669 0.160597 1.037 5 6 2
0.335405 0.0659273 0.762 195 201 203
0.107331 0.0136325 1.169 80 71 64
1.28032 -1.0765 2.805 117 118 105
0.417424 -0.63127 2.66 137 128 123
-0.83294 -0.550943 2.092 123 116 106
0.0898241 0.168215 1.053 5 14 7
0.33437 -0.23325 1.305 100 131 156
-0.168649 0.386395 1.682 20 22 11
-0.929475 -0.392735 2.158 125 122 106
-0.0322122 -0.140185 1.571 12 12 8
-0.533966 -0.46502 2.253 121 114 106
0.186835 0.255985 0.806 115 114 114
0.326902 0.0419806 0.802 180 183 182
0.353406 0.0495008 0.797 193 193 193
-0.445667 0.508618 1.516 120 116 105
-0.927303 -0.132022 2.329 124 113 108
0.338662 0.146038 0.679 185 189 184
0.409818 -0.093798 1.112 109 112 115
-0.68868 0.227128 2.078 119 115 104
0.519357 -0.135662 1.114 186 185 187
-1.09828 -0.406594 2.085 127 130 131
0.258675 0.112878 0.805 132 131 133
-0.67246 0.456398 1.629 116 117 111
0.239795 -0.0510789 0.986 195 191 194
0.180959 0.16282 0.989 8 13 3
0.341688 0.0328857 0.803 205 208 207
-0.880527 0.0696488 2.356 118 111 103
-0.169342 -0.0296374 1.539 4 5 1
-0.0234364 0.0914508 1.143 5 13 2
0.238349 0.184453 0.765 131 133 122
1.4046 -1.05444 2.844 100 94 79
-0.0742589 0.531773 1.491 34 35 22
0.65648 -0.962727 2.53 147 141 143
-0.181261 -0.217734 1.473 6 11 1
-0.244583 0.437098 1.677 39 40 29
0.240648 -0.296871 1.416 226 217 222
-0.602807 -0.738061 2.121 135 126 119
-0.561818 -0.648584 2.204 128 121 115
-0.137759 0.457807 1.579 34 36 25
-0.0950576 -0.157168 1.513 4 8 3
-0.822223 -0.379175 2.181 118 114 107
0.0574248 0.453072 1.242 9 7 0
-0.513083 0.202868 2.107 117 110 102
0.258972 -0.172395 1.22 117 117 119
0.3141 0.0395667 0.806 178 181 180
0.17389 -0.738131 3.198 25 22 17
0.296791 0.267662 0.768 68 70 59
-0.941724 -0.306477 2.22 125 121 110
-0.427516 -0.578332 2.196 124 117 109
0.162545 -0.932185 2.743 16 12 15
0.237515 -0.166712 1.222 121 124 127
0.475819 -0.174842 1.196 194 202 201
-1.01346 -0.515018 2.044 132 130 122
0.297012 -0.884709 2.707 12 12 6
0.0853559 0.0922496 1.13 7 13 11
0.282592 -0.0480192 0.957 181 172 175
0.523862 -0.274768 1.409 159 160 156
0.670142 -0.302358 1.348 134 139 129
-0.565405 -0.422627 2.204 117 115 105
0.176992 -0.194006 1.244 208 202 208
0.141592 -0.155879 1.185 205 199 205
-0.816098 -0.487701 2.128 119 114 112
0.102093 -0.286491 1.445 213 206 215
-0.679618 -0.727403 2.071 134 123 116
0.671346 -0.349894 1.435 147 155 142
0.107078 -0.247325 1.359 215 205 215
0.547751 -0.34183 1.513 164 170 168
-0.702562 0.454659 1.595 122 125 124
0.64468 -0.313572 1.378 198 205 197
-0.765668 0.2245 2.085 117 110 104
0.315915 0.161745 0.68 135 138 137
-0.204798 0.522072 1.505 74 67 57
0.36595 -0.314735 1.456 218 214 219
0.589808 -0.236002 1.252 204 207 208
-0.978981 -0.314453 2.151 127 128 117
-0.522546 0.39666 1.739 128 124 113
0.18792 0.00661021 0.975 166 159 170
0.282623 -0.307016 1.442 217 212 220
-0.558359 0.471643 1.591 116 116 110
0.247401 0.289248 0.811 77 77 77
-1.15606 0.0732021 2.347 119 121 108
-0.750445 0.454331 1.603 115 119 112
-0.746298 -0.0913787 2.356 146 139 131
-0.612547 -0.630326 2.107 126 122 113
0.245384 -0.201366 1.252 110 110 114
0.476102 -0.1658 1.187 201 201 203
-0.00640698 -0.167348 1.516 50 47 42
0.333362 0.142661 0.684 181 189 186
-0.542548 -0.579508 2.228 121 115 100
0.320035 -0.945865 2.54 57 51 53
-0.0100024 0.148602 1.098 12 19 13
-0.0463323 0.18126 1.112 8 9 5
0.0998234 0.290762 1.05 5 6 0
-1.00709 0.00438752 2.312 123 126 110
0.145676 -0.0398707 1.073 147 144 141
-0.0682186 -0.0733546 1.416 21 39 64
0.178616 -0.0595771 1.051 166 157 160
0.267646 0.156806 0.746 120 127 119
0.258546 -0.0474814 0.978 179 174 172
1.28596 -0.774016 2.768 33 22 0
1.37587 -1.05044 2.871 118 116 104
-0.207214 -0.305801 1.47 9 10 4
-0.739721 -0.533742 2.189 122 114 113
-0.502821 -0.257435 2.44 111 104 96
-0.21193 -0.0621953 1.539 4 7 6
0.409149 0.00988911 0.848 188 200 192
-0.547235 0.412307 1.71 128 126 118
-0.568064 0.152644 2.173 119 109 97
0.027573 0.07304 1.176 9 9 3
0.0485675 0.329465 1.13 4 6 0
0.33074 -0.82807 2.768 44 42 34
-0.67062 0.279346 1.947 126 121 117
-0.876026 0.105147 2.294 122 118 111
0.291848 0.18196 0.716 96 97 86
0.00211281 -0.731591 3.215 62 60 52
-0.125856 0.550597 1.47 45 42 28
0.786791 -0.98248 2.593 139 135 126
-0.101517 0.49253 1.575 36 32 21
-0.132508 -0.167015 1.491 4 8 3
-0.758688 -0.666754 2.03 129 122 116
-0.0261359 0.168563 1.1 8 10 0
-1.08494 -0.0952388 2.181 127 128 119
0.674629 -0.359418 1.494 146 147 136
-0.367792 -0.599226 2.181 126 116 114
0.25669 0.110532 0.807 135 135 137
-0.623522 -0.727707 2.121 131 124 116
0.122904 0.28861 0.963 35 22 11
0.411695 0.00724686 0.862 176 180 175
-1.02557 -0.695492 1.953 114 124 112
-0.965582 -0.467292 2.114 134 132 120
-0.958955 -0.476031 2.107 131 132 128
-0.853745 -0.384128 2.189 122 118 107
-0.532053 -0.806293 2.128 133 128 126
-0.441983 0.527927 1.487 115 113 101
0.414598 -0.0712602 0.935 94 93 97
0.629103 -0.674662 2.695 131 124 118
-0.123683 0.509 1.532 42 35 27
-0.75906 -0.491139 2.143 122 115 107
0.000972615 -0.189867 1.48 72 68 61
0.299258 0.146043 0.717 147 145 135
0.50315 -0.23339 1.33 203 203 205
-0.686579 0.012376 2.402 108 100 88
-0.869522 0.0732021 2.347 118 111 103
0.454783 -0.130722 1.167 92 92 86
0.358248 -0.00255155 0.855 34 42 39
-0.946819 0.283922 1.935 112 112 108
0.31332 0.206107 0.684 90 92 81
-0.373184 0.377594 1.769 79 71 57
-0.583827 -0.22079 2.43 114 105 100
-0.145587 -0.328048 1.452 2 9 1
-0.2722 0.433771 1.696 64 66 53
-0.816529 -0.726927 1.978 128 126 116
-0.866645 0.0953809 2.329 118 114 105
0.188881 -0.07497 1.051 187 181 187
-0.29256 0.312862 1.655 9 10 6
-0.590162 0.254917 2.03 123 119 112
-0.576331 0.391 1.739 120 121 108
-0.826619 0.133069 2.261 124 117 109
0.156682 -0.104844 1.114 191 185 189
-0.405142 0.256478 1.966 107 98 93
-1.0004 0.283511 1.911 110 114 109
1.09818 -0.792584 2.818 109 110 97
-0.780859 0.510988 1.487 114 123 116
0.206477 0.197799 0.849 108 106 96
-0.268146 0.545595 1.463 119 119 113
-0.0413896 0.428362 1.445 18 20 11
-0.292551 0.340672 1.686 8 12 5
0.284265 0.183268 0.745 74 75 66
0.194248 0.196965 0.967 92 85 77
0.144856 -0.819999 3.133 19 21 10
0.332184 -0.248043 1.339 120 120 116
-0.866244 -0.413806 2.158 131 129 121
-0.941494 -0.467292 2.114 138 136 124
0.551196 -0.129404 1.077 202 208 208
-0.553429 -0.45986 2.228 120 113 105
-0.333044 0.487177 1.591 98 94 87
0.315353 0.221222 0.686 83 91 80
0.270036 0.261877 0.796 71 73 60
-0.914712 -0.38132 2.173 115 116 105
0.397793 -0.121226 1.167 102 102 102
-0.256144 0.0640625 1.629 1 7 5
-1.05362 0.215522 2.064 109 113 108
0.0867194 -0.934974 2.489 35 35 29
0.102197 0.0791854 1.154 3 7 0
0.202418 0.059154 0.905 155 151 154
-0.755603 0.142514 2.236 131 124 116
0.346821 0.0954699 0.714 158 161 164
0.557996 -0.762294 2.649 138 128 126
-0.0142839 -0.944363 2.44 12 11 15
-0.929222 -0.697957 1.978 138 140 131
-0.854148 -0.669053 2.037 142 135 127
0.630904 -0.759263 2.684 132 127 125
-0.577921 0.244917 2.057 128 124 117
0.274057 0.191147 0.757 85 90 76
-0.400578 0.326118 1.87 68 63 45
-0.528936 0.532544 1.473 125 126 117
0.352471 0.101724 0.709 154 154 148
0.166793 0.283162 0.844 116 109 92
0.290044 0.0966925 0.77 161 162 158
0.361878 -0.227599 1.297 160 188 205
0.0883018 0.0611912 1.169 3 7 2
0.154691 0.278121 0.928 73 26 2
0.108475 0.0950044 1.141 5 6 0
-1.12069 -0.344583 2.121 130 129 131
0.137091 -0.299976 1.442 217 212 222
1.20639 -0.868643 2.857 105 100 96
0.096563 0.42584 1.132 22 16 1
-0.147951 -0.318596 1.452 6 7 3
0.427709 -0.194385 1.273 91 91 91
-0.88813 0.164486 2.143 120 117 103
-0.290173 0.546713 1.466 122 120 112
-0.0933053 0.336741 1.378 13 13 7
-0.104172 -0.429292 1.435 112 100 98
-0.831682 -0.22123 2.392 111 108 94
0.218129 -0.00127688 0.941 180 179 181
0.0287284 -0.81229 3.266 42 40 32
0.123225 -0.710926 3.102 26 26 20
-0.687553 0.0699148 2.365 111 102 95
-0.540292 -0.641411 2.204 125 117 114
-0.951541 0.308847 1.876 113 117 110
-0.859115 0.140984 2.212 119 118 103
-0.0507259 -0.235957 1.513 12 14 5
-0.0413504 -0.0440893 1.366 18 33 61
0.268931 0.175433 0.753 80 78 59
-0.879991 0.371836 1.769 116 121 109
-0.0889668 -0.611393 2.939 58 58 52
0.172438 0.288871 0.825 123 119 108
0.023015 0.0114252 1.359 3 12 5
0.473774 -0.123855 1.122 196 195 197
-0.00477565 0.101444 1.13 23 23 17
0.0447011 0.490995 1.283 14 11 0
-0.0253638 0.0667637 1.237 19 19 13
-0.531866 -0.123915 2.392 148 141 135
-0.802237 -0.142299 2.374 116 108 94
-0.538554 0.486166 1.571 112 111 113
-0.0133274 0.555118 1.463 32 30 20
0.273356 0.120176 0.776 153 153 155
-1.21073 0.000627294 2.32 129 127 117
0.281638 0.0832467 0.785 183 183 183
-0.520846 0.401655 1.724 125 121 114
-1.03269 0.107693 2.269 124 122 112
-0.595758 -0.680701 2.158 126 122 115
0.202263 0.248214 0.983 95 84 75
0.295582 0.121535 0.731 179 185 183
-0.987956 0.0693827 2.347 115 116 107
0.319228 0.218687 0.655 118 129 127
0.205713 0.288178 0.808 72 77 63
-0.827224 0.197313 2.121 119 115 104
0.799454 -0.969822 2.593 119 114 110
0.390752 -0.0483416 0.878 19 18 27
0.0686209 -0.168061 1.262 190 184 186
-0.00553638 0.045122 1.31 17 17 17
-0.314268 -0.78129 2.204 137 130 124
-0.440849 -0.149287 2.303 113 102 95
0.287939 0.330757 0.857 24 28 23
0.308555 0.208948 0.701 86 88 79
0.0412828 0.330048 1.132 5 7 0
0.408083 -0.685011 2.684 134 126 123
-0.497634 0.503862 1.524 110 111 100
-0.439836 -0.601958 2.204 129 120 115
0.3559 0.081378 0.723 201 204 205
0.258021 0.0186189 0.869 189 188 190
-0.929222 -0.707614 1.978 137 140 124
-1.13048 -0.229264 2.173 131 129 119
-0.586451 0.361779 1.805 124 122 112
-0.739891 0.191038 2.128 118 113 109
-0.512913 0.493865 1.563 118 119 113
-0.756848 -0.191792 2.365 112 103 94
-0.147069 -0.0193263 1.516 2 6 0
-0.779401 -0.450968 2.151 119 115 104
-0.75272 0.479715 1.575 108 115 109
0.392939 0.0505428 0.793 191 197 199
0.210615 0.10085 0.896 98 94 85
0.239554 0.312887 0.839 78 82 75
-0.105915 -0.0827051 1.459 48 15 0
1.00636 -0.825444 2.805 122 118 107
0.241027 0.31938 0.849 49 45 46
0.0375937 -0.0687441 1.327 101 92 85
-0.516616 0.412307 1.71 125 123 115
0.179893 0.169771 0.992 7 12 2
1.29338 -0.747965 2.755 38 20 11
0.161434 0.0815133 1.085 61 59 49
0.280704 0.133023 0.742 176 179 178
0.146762 0.141024 1.081 11 11 5
0.0790224 -0.131988 1.232 178 172 176
0.428973 -0.0853629 1.012 202 208 206
0.207844 0.2136 0.95 81 74 64
-0.168902 0.512495 1.535 37 39 28
-0.382888 0.351969 1.815 67 60 50
0.104121 0.185426 1.025 7 14 8
0.369343 -0.614655 2.626 135 128 122
0.497598 -0.694993 2.672 160 153 145
-0.49996 0.442411 1.646 120 120 116
0.056206 0.0187946 1.26 24 19 17
-0.203883 0.512495 1.535 51 45 32
-0.560705 0.479575 1.583 116 117 108
-0.702513 -0.785679 2.03 128 126 114
-0.412972 0.235346 2.004 115 106 99
-0.0372318 -0.147478 1.567 11 11 11
-0.612283 0.280207 1.953 123 119 112
-0.729 0.520625 1.48 115 120 108
0.37599 -0.230595 1.302 150 174 188
-0.900328 0.146107 2.181 120 118 110
-0.127075 0.51746 1.513 33 35 24
0.541811 -0.149356 1.108 200 203 204
-0.67947 -0.293268 2.286 117 108 99
0.294659 0.00451863 0.877 205 207 215
0.28963 0.080075 0.779 185 188 189
-0.227719 0.00813559 1.579 4 8 1
-0.790271 -0.524692 2.181 119 117 107
-0.530643 0.552991 1.445 121 119 111
-0.448135 0.513552 1.516 114 112 104
-1.09961 -0.116961 2.189 126 126 122
-0.00372096 0.485097 1.432 21 22 9
0.941105 -0.947076 2.684 129 131 120
-1.04228 -0.579424 1.991 136 141 131
0.0131606 0.185108 1.092 6 8 0
-0.264356 0.265822 1.664 4 9 0
0.286859 0.138 0.73 138 141 140
-0.208128 0.41885 1.714 23 31 18
0.272794 0.120486 0.778 150 150 152
-0.929863 0.271504 1.959 114 117 116
-0.652755 0.284803 1.941 127 120 112
-0.608136 0.354102 1.826 129 127 117
-0.0112901 -0.237789 1.509 28 27 27
-0.231746 -0.185727 1.505 7 12 2
-0.800922 -0.531791 2.181 122 120 110
-0.693076 -0.0856649 2.411 126 121 119
-0.390911 0.548851 1.459 117 118 112
-0.0399001 0.369876 1.393 4 9 0
0.0779367 0.0523868 1.185 4 8 1
-0.463889 -0.328011 2.269 116 109 101
0.144473 0.0924129 1.132 26 23 20
0.201582 -0.0139731 0.972 183 179 180
0.343649 0.124643 0.689 148 153 160
-0.81417 0.200102 2.114 119 115 104
-0.620102 -0.479885 2.22 121 117 108
-0.120712 -0.755595 2.347 88 83 81
0.00754628 0.388242 1.362 14 10 1
0.301425 0.199248 0.703 84 87 71
0.300568 0.192978 0.701 85 91 74
0.373617 -0.610381 2.626 135 126 121
-0.172059 -0.302888 1.456 8 9 3
-0.266239 0.414074 1.729 12 20 7
-0.946975 0.0976807 2.294 119 116 113
-0.114124 -0.244101 1.473 4 9 0
-0.555055 -0.458209 2.22 121 114 104
-0.800789 -0.382343 2.22 121 114 104
-0.0552471 0.525919 1.502 27 29 13
0.7078 -0.932093 2.582 142 137 133
-0.0438629 0.420116 1.449 17 19 10
0.276651 0.0849549 0.789 184 183 183
-0.00307135 0.0753362 1.182 11 11 13
0.130876 -0.0913142 1.126 171 165 169
0.0184425 0.202321 1.089 4 11 5
0.237163 0.0461463 0.855 182 181 183
-0.873719 -0.661373 2.044 134 130 121
-0.479391 0.522081 1.498 111 111 107
-0.43798 0.33431 1.848 97 88 81
-0.301951 0.418488 1.724 69 67 57
-0.951115 -0.133305 2.286 123 120 106
-0.732654 -0.64194 2.078 124 122 112
-1.11028 0.157833 2.196 119 121 110
-0.515739 -0.39743 2.286 118 111 101
-0.898595 -0.473702 2.143 129 127 117
-0.696046 0.389876 1.734 119 119 113
0.176669 0.139705 1.02 9 11 2
0.217217 -0.778789 2.939 15 16 12
-0.00639262 0.167337 1.092 10 14 9
-1.02569 0.0270551 2.32 120 121 108
0.369438 -0.0475676 0.948 202 202 202
-0.731986 -0.182694 2.347 113 106 96
0.529689 -0.110319 1.062 199 203 198
-0.707357 -0.707941 2.044 135 128 122
0.053897 -0.0445557 1.254 109 100 91
0.75309 -0.652564 2.731 164 160 153
0.10084 -0.0676436 1.16 127 118 121
0.405126 -0.251378 1.357 110 112 136
-0.159795 0.184977 1.62 3 4 0
-0.023826 0.274503 1.162 5 6 0
0.403652 0.0164524 0.831 51 46 44
-0.683565 0.272474 1.966 121 116 114
0.242138 0.139 0.82 127 131 126
-0.542694 -0.379837 2.338 116 109 103
-0.316538 0.513782 1.524 112 109 104
0.343104 -0.0552123 0.974 207 206 208
-0.834505 -0.23707 2.356 115 106 97
-0.880811 0.246036 1.985 118 118 118
-0.613367 0.459149 1.62 121 118 113
-0.694835 0.29022 1.935 129 125 118
-0.802237 -0.150026 2.374 111 104 96
0.0315355 -0.0456002 1.345 25 25 29
0.065467 0.0649959 1.169 16 17 11
-0.778515 -0.699788 2.03 124 124 118
-0.852572 0.257261 1.972 124 122 114
0.233718 -0.00572734 0.918 188 184 185
0.207606 0.190447 0.935 94 87 77
-0.523622 -0.718949 2.136 132 123 116
1.02937 -0.810927 2.818 115 112 109
0.49369 -0.838396 2.54 144 136 135
0.358046 -0.195565 1.254 98 101 104
-0.457356 0.476821 1.591 124 125 112
-0.261447 0.135637 1.629 4 5 0
-0.28829 0.00559424 1.587 75 66 61
-0.161875 -0.0933372 1.516 6 7 3
-0.354335 0.267785 1.805 75 64 55
-1.03592 -0.189283 2.244 124 125 116
-0.131474 -0.852333 2.269 136 129 123
0.0845161 -0.173118 1.254 192 186 188
-0.0689543 -0.159454 1.535 6 9 10
-1.1897 0.0827483 2.294 119 123 118
0.111585 0.202184 1.017 4 9 0
0.295411 0.166341 0.719 101 102 91
0.00756844 0.011484 1.366 9 19 26
0.281694 -0.053407 0.97 198 197 199
1.30141 -1.06344 2.831 131 131 109
-0.224835 -0.0300225 1.559 4 8 3
0.660637 -0.309626 1.351 172 177 165
0.0773295 -0.132524 1.237 178 172 176
0.1357 0.140502 1.077 11 11 5
-0.143224 -0.328048 1.452 1 8 0
-0.227897 -0.281388 1.48 8 9 3
0.145023 0.071512 1.122 61 56 52
0.306162 0.171604 0.693 159 168 161
-0.0509998 0.247611 1.178 9 14 2
0.687309 -0.395284 1.579 194 197 196
-0.493436 -0.412936 2.269 120 113 105
-0.662672 0.22185 2.092 126 116 114
0.280443 0.313114 0.847 26 21 17
-0.073801 0.184775 1.145 13 17 10
-0.823429 -0.00325938 2.402 125 118 112
-0.925461 0.206839 2.078 115 112 107
-0.298819 0.0819596 1.616 34 29 37
0.24295 0.154798 0.805 136 137 131
-0.100975 -0.143807 1.528 3 8 0
0.33289 0.122687 0.697 177 186 179
0.322176 0.17027 0.67 180 190 193
-0.551335 -0.197874 2.392 113 106 96
0.0430216 0.303425 1.083 1 5 0
-0.850062 -0.0111186 2.411 126 122 111
-0.185057 -0.10127 1.524 6 7 3
-0.979488 -0.494811 2.085 133 130 125
-0.751218 -0.528242 2.181 118 114 115
0.312479 0.213022 0.692 79 89 75
-0.0423796 -0.0679693 1.4 21 40 69
0.201586 0.196485 0.957 95 88 82
-0.769749 0.313729 1.887 118 116 106
-0.704911 0.263679 1.972 121 117 110
-0.773878 0.49875 1.516 109 117 114
-0.524032 -0.631936 2.196 121 119 111
0.230772 -0.0394025 0.975 147 143 144
-0.218406 0.561596 1.449 105 103 91
-0.0678522 0.219461 1.171 7 11 4
-0.60209 -0.354564 2.347 132 127 125
0.300726 0.270701 0.759 83 81 73
0.280573 0.108671 0.775 145 145 145
0.216635 0.0531633 0.879 148 144 145
-1.09624 0.0229385 2.286 124 124 118
0.537897 -0.116156 1.068 205 211 209
0.31617 -0.756039 2.925 10 20 8
-0.237727 0.462129 1.612 60 61 55
0.446616 -0.155379 1.196 91 91 87
-0.67883 0.552991 1.445 104 116 108
0.341229 0.0290377 0.805 202 202 204
0.289406 0.104779 0.765 165 168 167
0.176548 0.261108 0.916 106 104 92
-0.648517 0.481053 1.571 118 119 110
0.00162913 -0.939286 2.479 25 28 31
0.150127 0.207162 1.009 8 9 3
0.345461 0.0749631 0.741 190 196 196
-0.114949 -0.774786 2.871 47 45 33
-0.573286 0.159201 2.166 117 110 100
-1.12754 -0.247855 2.181 124 125 116
-0.830439 -0.207293 2.411 111 104 94
-0.4899 -0.585227 2.236 128 119 112
0.172755 0.27676 0.833 117 115 105
-0.602257 -0.777764 2.107 134 126 123
-0.221672 0.17275 1.629 0 6 4
-0.698793 0.433333 1.673 119 120 116
0.085174 0.123432 1.081 7 14 8
0.310355 0.131305 0.713 170 175 180
-0.989293 -0.327233 2.143 127 128 117
0.32007 -0.167057 1.196 97 98 92
-0.860585 -0.269621 2.244 123 119 110
-0.743162 0.486276 1.555 115 117 106
0.319035 -0.223576 1.286 176 147 135
-0.799319 0.490073 1.551 113 117 110
-1.12093 -0.297239 2.128 129 130 124
0.116194 0.400101 1.059 19 18 1
-0.852901 -0.346047 2.196 127 120 110
0.546398 -0.931218 2.479 148 141 135
0.0894518 0.191174 1.029 4 12 1
-0.68367 0.335247 1.87 126 122 111
-0.513569 -0.52159 2.244 124 117 111
0.253212 0.228469 0.788 77 87 73
-0.947751 0.297182 1.899 115 117 104
0.196968 0.251663 0.868 103 104 93
-0.929246 -0.195858 2.278 108 104 97
0.30033 0.145432 0.714 168 170 161
-0.862382 -0.170579 2.338 111 107 96
0.271029 -0.152373 1.203 118 117 119
-0.60097 0.342351 1.859 127 123 116
0.282879 0.145525 0.732 118 119 115
-0.974507 -0.691253 1.959 144 140 133
-0.570803 0.0512502 2.392 109 105 98
-0.701787 -0.640071 2.128 122 119 114
0.552592 -0.167662 1.173 190 193 192
-1.06719 -0.116534 2.181 124 124 118
0.254941 0.104867 0.814 135 132 127
1.29859 -1.08563 2.805 116 121 111
0.399486 -0.138991 1.189 105 100 98
-0.529942 0.547723 1.456 115 120 106
0.342704 -0.13452 1.167 105 104 104
-0.879238 0.331294 1.815 107 113 111
-0.703542 -0.231696 2.42 115 108 98
-0.379366 -0.457638 2.166 121 114 108
0.422928 -0.163667 1.229 96 96 90
-0.0189736 0.147082 1.1 9 13 8
-0.441058 -0.805194 2.107 137 130 124
0.0916254 -0.126005 1.213 159 151 150
-0.28829 0.281696 1.646 4 8 1
-0.183285 -0.200545 1.47 8 9 3
-1.09248 -0.277261 2.189 126 128 119
0.603012 -0.36423 1.567 200 200 202
0.680033 -0.372571 1.528 182 182 176
0.0056031 0.520052 1.432 22 24 15
-0.579633 0.52785 1.48 115 116 105
-0.0551655 0.334318 1.324 2 6 1
0.702407 -0.796605 2.707 132 127 123
-0.351829 0.379182 1.763 61 59 47
0.313189 0.00730571 0.869 218 218 222
-0.0932356 0.418189 1.484 24 29 19
-0.628618 -0.768822 2.092 129 130 119
0.0376632 0.302865 1.081 1 5 0
0.189548 0.289604 0.812 86 91 79
-0.852474 -0.215702 2.374 113 109 100
0.841236 -0.762562 2.743 111 100 93
0.305639 -0.198149 1.232 114 103 107
0.261732 0.227127 0.779 80 82 69
0.381092 0.000229017 0.847 39 35 38
0.068314 0.0934224 1.122 25 31 29
0.501948 -0.686297 2.672 138 128 128
-0.345226 -0.590983 2.151 125 118 112
-1.07113 -0.416773 2.085 129 133 126
0.0316152 -0.254272 1.449 159 158 162
-0.160669 -0.0393718 1.528 3 7 2
0.310903 0.153117 0.691 126 134 123
-0.848301 -0.450588 2.166 119 117 105
-0.175627 -0.176143 1.466 4 8 1
0.304834 0.0892529 0.76 176 176 178
-0.0690225 0.33668 1.342 8 10 1
-0.00140256 -0.0819114 1.445 10 20 27
0.0889118 -0.0016324 1.203 77 75 67
-0.254397 0.532667 1.48 91 92 81
-0.222528 -0.059846 1.543 4 8 1
-0.444497 0.437806 1.659 120 121 112
-0.753894 -0.39371 2.286 121 114 108
-0.0776457 0.482453 1.559 32 31 16
0.0410301 0.126481 1.077 14 18 13
0.275508 0.292457 0.82 53 53 49
0.263522 0.252828 0.792 62 64 53
-0.0826704 -0.923662 2.731 32 25 15
-0.946244 -0.565157 2.057 137 133 122
1.43304 -0.930158 2.818 53 45 33
-0.562029 0.227893 2.085 120 116 109
-0.846992 0.446505 1.603 107 113 111
-0.535467 0.299999 1.917 130 123 117
-0.248783 -0.760586 2.196 140 129 124
0.088604 -0.0626751 1.173 132 124 123
-0.178896 0.512495 1.535 44 41 27
-0.164561 -0.419073 1.432 20 20 14
-0.0756059 -0.279487 1.47 10 10 4
-0.523397 -0.755319 2.121 128 126 116
0.0790224 -0.125974 1.232 172 166 170
0.359812 0.0111096 0.836 164 167 168
-0.546533 0.300938 1.923 131 122 115
-0.0483156 0.185544 1.116 9 10 6
0.282195 0.0843088 0.783 181 181 181
0.268931 0.141122 0.753 174 174 174
1.38557 -0.984541 2.911 110 108 96
-0.781376 0.33922 1.842 114 112 100
-0.445948 -0.322031 2.253 117 109 97
0.497824 -0.792929 2.54 142 134 131
1.02024 -0.753736 2.793 121 114 106
-0.651525 0.0663176 2.374 117 108 99
0.0374879 -0.927919 2.449 102 95 87
-0.962798 -0.50834 2.071 136 133 128
0.125191 0.0244467 1.141 82 75 67
0.0524775 0.0889638 1.135 6 7 3
-0.0992564 -0.173135 1.502 6 10 3
-0.0719764 -0.247581 1.494 9 10 6
0.252803 0.136119 0.803 144 145 141
-0.272352 -0.0679029 1.555 98 86 84
-0.592824 0.507487 1.52 103 108 98
-0.00834975 0.12198 1.116 12 19 13
0.0215222 0.535778 1.406 24 26 13
-0.600122 0.406741 1.71 119 120 111
-0.54323 -0.736625 2.078 130 126 117
0.323297 -0.127167 1.152 111 111 115
-0.493721 0.360577 1.799 123 116 108
-0.934885 -0.0713812 2.329 106 104 92
0.201004 0.239373 0.821 115 116 103
0.0947523 0.181655 1.032 8 12 7
0.28913 -0.0987648 1.087 118 118 122
-0.0576654 -0.0604358 1.384 21 39 64
0.462764 -0.0264096 0.91 10 9 9
-0.0339841 -0.879879 3.165 37 33 26
0.292324 0.113254 0.747 182 182 182
-1.17675 -0.0144743 2.32 126 126 122
-0.349423 0.244963 1.81 95 86 77
-0.565405 -0.566092 2.204 123 119 108
-0.597868 -0.657386 2.128 130 123 115
-0.056194 -0.301964 1.463 10 14 7
-0.0871414 -0.00865339 1.387 7 14 22
-0.902681 0.308847 1.876 112 116 109
-0.165911 0.317966 1.682 4 5 0
0.301313 0.0715668 0.783 192 198 200
-0.710981 0.501382 1.524 112 120 119
-1.12686 0.135237 2.236 116 117 108
-0.514764 0.503684 1.516 118 120 111
-0.396995 -0.418865 2.166 118 111 103
-1.06681 -0.303524 2.173 135 132 127
0.495858 -0.335124 1.505 176 173 170
0.569184 -0.222884 1.247 207 210 213
-0.0989505 -0.842173 3.102 63 61 51
0.335568 0.156162 0.675 182 193 193
0.234985 0.146205 0.823 129 128 128
0.360916 0.0952025 0.712 156 156 150
0.217821 0.0255326 0.914 161 156 164
0.00956147 0.258554 1.087 4 5 1
0.327964 0.0256067 0.821 200 203 202
0.163706 0.046844 1.022 94 87 81
0.320343 0.149573 0.68 168 179 179
0.0310278 0.0797343 1.162 9 11 2
-0.0609899 -0.777295 3.231 62 59 54
0.305022 -0.80904 2.78 15 16 10
-0.176585 -0.398934 1.435 10 11 2
-0.58114 -0.0154039 2.469 124 114 112
-0.0847718 -0.330533 1.463 8 12 5
-0.80766 0.0313089 2.356 122 115 107
-0.196968 0.304491 1.714 1 5 0
-0.394883 0.512434 1.52 119 117 109
0.3598 -0.149713 1.167 105 102 97
-0.547828 -0.414857 2.22 122 113 106
-0.865528 -0.226306 2.286 118 114 103
-0.219178 -0.341683 1.47 17 8 13
-0.323624 -0.758952 2.244 137 128 119
-0.919526 0.150536 2.143 118 115 110
0.0594465 -0.0340236 1.242 97 87 87
-0.230425 0.0898489 1.616 6 6 6
0.296644 0.222257 0.722 79 88 79
0.169347 -0.213866 1.278 212 208 213
0.334155 0.178182 0.655 164 172 171
0.190092 -0.936854 2.572 9 29 53
-0.519054 0.433333 1.673 127 128 119
0.109173 0.26818 1.01 31 18 5
-0.804486 -0.257971 2.303 114 110 101
0.337482 0.00868975 0.866 200 203 202
0.297993 0.287208 0.798 53 54 48
0.153411 0.19731 1.009 3 7 0
-0.615977 -0.808623 2.107 134 132 124
-0.203805 -0.266937 1.48 8 9 3
-0.00106187 0.222833 1.094 4 8 3
-0.622774 0.519641 1.491 115 116 107
0.32232 -0.0483704 0.964 168 167 167
0.0533022 0.17906 1.077 2 6 1
0.394669 -0.125239 1.169 100 103 106
-0.607393 -0.379837 2.338 118 110 107
-0.0394156 0.567846 1.459 34 32 22
0.231596 0.128237 0.855 121 114 104
-0.143582 -0.414412 1.432 7 15 14
0.0184933 0.130019 1.092 12 18 16
-0.550387 0.284256 1.959 130 123 113
-1.07429 -0.286896 2.181 128 133 123
-0.459884 -0.795305 2.099 138 129 120
-0.183285 -0.190976 1.47 7 8 0
0.212856 0.236198 0.858 106 108 92
0.00316241 0.399018 1.384 6 7 0
-0.484622 0.478205 1.587 116 118 109
0.681552 -0.804418 2.66 134 129 125
1.29084 -1.06773 2.818 101 100 85
0.608994 -0.208984 1.225 188 192 187
0.0699786 0.173435 1.064 2 6 1
0.294937 0.0979103 0.76 174 173 173
-0.618652 -0.733571 2.128 133 124 119
0.321023 0.240288 0.65 124 122 129
0.277315 0.122367 0.766 152 153 149
-0.783876 -0.291531 2.244 117 110 102
-0.151704 -0.0882282 1.513 9 10 0
-0.35521 0.552164 1.449 109 110 104
0.200868 -0.191484 1.254 107 100 109
-0.0299158 -0.0898279 1.459 20 36 57
0.64665 -0.757989 2.695 132 127 125
0.479265 -0.100529 1.05 193 197 192
0.16377 -0.293111 1.409 215 209 215
-0.182373 0.0417502 1.587 5 7 0
-0.106508 -0.429292 1.435 90 81 88
-0.0519489 0.163751 1.116 8 8 8
0.157714 -0.28132 1.396 215 205 215
-0.174623 0.4937 1.587 45 41 32
0.187342 0.179002 0.972 84 82 72
0.156361 0.298855 0.878 80 48 26
0.262476 -0.0423138 0.969 147 142 140
1.40088 -0.942557 2.884 82 81 81
0.57646 -0.648348 2.695 131 122 115
-0.702948 0.496299 1.539 115 121 119
-0.884709 -0.358067 2.204 130 123 115
0.262421 0.333526 0.879 23 24 20
-0.0248415 0.0496118 1.316 10 10 10
0.11499 -0.0512737 1.132 119 108 103
0.886987 -0.875357 2.719 133 125 113
0.149761 -0.865858 3.026 9 11 0
0.665281 -0.342172 1.432 142 151 133
0.0483996 0.169796 1.085 3 7 2
0.58962 -0.648348 2.695 132 123 116
-0.407739 0.383351 1.769 87 83 86
0.473671 -0.271315 1.403 204 205 201
-0.624122 -0.421093 2.196 120 113 105
0.315916 0.195264 0.666 140 147 141
-0.10777 -0.372943 1.452 8 14 14
-0.720794 0.359915 1.753 118 120 111
0.28791 0.233577 0.771 63 60 46
1.05202 -0.784362 2.805 121 118 115
-0.0635862 -0.0240829 1.366 8 15 19
-0.782902 -0.450968 2.151 119 115 104
0.336762 -0.0567973 0.974 204 204 206
-0.212011 0.142444 1.616 2 6 0
0.294241 0.199103 0.719 94 91 75
-0.907638 -0.26109 2.173 114 110 99
-0.311526 -0.628574 2.136 133 122 117
-0.868829 -0.637615 2.064 136 133 130
-0.636584 0.367306 1.789 124 125 116
0.316426 -0.036885 0.951 196 196 192
-0.300954 0.454697 1.642 93 90 85
0.280009 0.0101107 0.867 208 208 212
0.0831056 0.15277 1.077 5 6 2
-0.207387 -0.798524 2.212 137 130 124
0.183997 0.323213 0.841 17 8 0
0.0947023 -0.249691 1.372 206 202 207
-0.55823 -0.648584 2.204 128 121 115
-0.637716 0.280207 1.953 125 121 110
-0.0883064 -0.155831 1.524 4 8 1
-0.776214 -0.654902 2.024 128 121 113
-0.57319 0.0436467 2.402 108 101 93
-0.271415 0.0158443 1.579 12 12 8
-0.0581189 -0.92661 2.626 23 21 13
-0.673212 0.38449 1.748 119 120 111
-0.389866 0.537339 1.473 112 114 105
-0.540554 -0.0471618 2.449 125 117 116
-0.708719 0.538452 1.463 114 125 123
-0.584357 -0.716349 2.181 130 121 114
0.25506 -0.11493 1.124 126 129 130
1.09312 -0.944126 2.805 130 121 114
0.271029 -0.17195 1.203 114 114 114
0.266601 0.341745 0.893 28 26 18
0.10615 0.382224 1.062 23 16 0
0.205589 -0.31706 1.445 215 209 215
-0.955023 0.321174 1.859 114 115 111
-0.322488 0.210488 1.744 95 90 86
0.685368 -0.94535 2.561 156 147 142
-0.456502 -0.316934 2.269 115 108 102
-0.167319 0.55957 1.456 79 77 67
0.413849 -0.0961234 1.118 107 113 113
-0.17655 -0.152763 1.494 4 8 1
-0.693482 -0.438559 2.212 121 114 106
-0.153384 0.503989 1.555 46 39 29
-0.755566 0.501358 1.509 110 120 108
-0.541301 -0.406358 2.253 118 111 103
0.0333858 0.218737 1.057 6 11 1
0.240058 0.10226 0.836 131 132 128
0.259127 0.215871 0.775 74 76 65
-0.297047 0.348212 1.696 15 23 20
-0.00105799 0.159936 1.09 11 13 4
0.412875 -0.787483 2.604 143 135 132
0.216504 -0.0516487 0.997 200 199 203
-0.173221 0.313069 1.7 3 4 0
1.07731 -0.716067 2.719 104 97 87
-0.935695 -0.104314 2.303 124 118 105
1.03843 -0.930996 2.793 128 121 115
-0.164018 -0.12516 1.513 6 7 3
0.182689 0.0497539 0.981 105 101 90
0.112197 -0.164723 1.222 196 190 192
1.04171 -0.695286 2.707 106 103 87
-1.00002 -0.63387 1.959 136 140 133
0.270662 0.140747 0.751 175 175 175
0.213067 0.0906626 0.882 103 96 90
1.1257 -0.934744 2.818 126 118 106
-0.523278 0.507377 1.505 115 116 107
0.254145 -0.838442 2.818 18 20 11
-0.931094 -0.0713812 2.329 104 102 90
0.205646 0.180562 0.947 93 86 80
-0.390313 0.502693 1.551 123 123 117
-0.802855 -0.381783 2.196 120 113 103
-0.456567 -0.0955763 2.365 125 120 116
0.283109 -0.115513 1.112 115 117 123
0.265745 0.193167 0.765 76 78 69
-1.04291 0.00782559 2.22 125 126 113
0.414562 -0.055612 0.88 40 41 37
-0.781592 -0.654953 2.004 128 121 111
0.156386 0.242803 1.007 4 9 0
0.114047 -0.0201161 1.141 111 102 105
0.234669 0.0916306 0.851 104 103 88
-0.476468 -0.380155 2.294 118 108 106
-0.506294 0.538452 1.463 123 123 119
-0.81462 -0.707911 1.997 134 127 119
-0.652271 -0.680713 2.136 127 123 116
0.106439 -0.968614 3.055 16 17 8
-0.518197 0.191038 2.128 118 114 105
-0.309832 -0.584453 2.078 128 121 115
0.151561 -0.135367 1.158 202 193 198
0.165749 -0.110282 1.114 192 188 191
-1.06367 -0.506768 2.051 132 134 123
1.39534 -1.04981 2.844 106 103 87
-0.455587 0.462157 1.603 121 116 112
0.438567 0.000240102 0.888 155 163 164
-0.0232558 0.309083 1.232 1 5 0
0.55968 -0.226876 1.281 164 171 163
-0.104354 -0.166134 1.505 6 7 1
0.634598 -0.23956 1.26 163 170 162
-0.829062 -0.296704 2.228 116 109 101
-0.260861 0.262323 1.659 5 7 0
-0.0986553 0.252483 1.359 13 15 2
-0.0138029 -0.870753 3.266 58 58 52
-0.141852 0.0201063 1.513 3 7 0
0.443981 -0.271315 1.403 218 214 217
-0.00588716 -0.0494945 1.393 13 21 40
0.309765 -0.121061 1.13 114 114 118
0.0858651 -0.296716 1.449 210 204 208
0.0270551 0.198707 1.079 5 11 9
-0.913089 0.163334 2.128 112 109 106
0.0080671 -0.201005 1.456 84 81 78
-0.0450132 -0.0988113 1.487 17 36 56
0.0448203 0.37433 1.229 15 13 1
0.000909527 -0.0356614 1.384 6 18 32
0.324531 0.118209 0.711 175 183 180
0.29884 0.174575 0.705 96 103 97
0.150411 0.273777 0.939 73 22 0
0.148087 -0.0787506 1.104 181 177 178
-0.509041 0.455465 1.607 117 118 109
-0.294983 0.510158 1.528 100 102 93
-0.960886 -0.026301 2.365 125 121 110
0.327513 0.163123 0.672 178 193 192
0.266834 0.174439 0.754 80 77 61
-0.36998 -0.791518 2.173 133 129 122
-0.941436 -0.570162 2.004 137 139 128
0.194172 0.2425 0.999 62 65 49
-0.710935 -0.594578 2.114 124 117 109
0.0371121 0.023804 1.31 13 14 8
0.556658 -0.214955 1.26 163 168 156
0.232416 0.161827 0.814 125 124 128
0.39133 0.0567421 0.772 199 207 208
0.305427 -0.869692 2.743 10 15 5
-0.665406 0.332204 1.87 125 121 110
0.356481 0.0652127 0.701 181 187 185
-0.207928 0.515131 1.528 50 49 34
0.246621 0.177362 0.756 141 137 138
0.383139 -0.0579627 0.967 200 202 208
-0.493333 -0.377899 2.303 117 110 102
0.221539 0.0351184 0.893 185 185 187
-0.957708 -0.0635546 2.32 126 124 114
0.751934 -0.789344 2.743 129 125 126
0.0745325 0.357705 1.162 26 16 2
0.230242 0.0818404 0.85 116 109 101
0.084496 0.0611912 1.169 7 11 6
-0.207696 0.0943433 1.603 5 6 0
-0.567656 -0.687724 2.158 125 125 119
0.354293 -0.872457 2.519 150 142 139
0.290508 -0.00558384 0.895 200 200 204
-0.823365 -0.569457 2.085 122 119 114
0.204751 0.249157 0.95 86 84 72
0.116007 0.108222 1.124 2 6 0
-1.19151 0.0081499 2.312 130 123 115
0.094786 0.164475 1.051 9 11 2
0.302828 0.0984948 0.755 177 181 176
0.615889 -0.21321 1.215 137 142 130
-0.445034 -0.611343 2.212 126 117 112
-0.177512 -0.81738 2.244 138 131 125
-0.889876 -0.494813 2.114 135 128 120
0.336939 -0.718129 3.026 17 21 16
-0.619149 0.390179 1.748 124 122 110
-0.775435 -0.482645 2.121 121 117 110
-0.513648 0.500066 1.52 117 119 110
-0.0456791 0.521003 1.509 33 31 12
-0.701737 -0.45132 2.204 118 116 104
1.3458 -0.754836 2.638 22 17 13
-1.10595 0.0538979 2.338 68 71 53
-0.976495 0.000634595 2.347 117 118 105
-0.250714 -0.0982713 1.516 15 15 17
0.128043 -0.123125 1.167 191 187 190
0.166605 -0.150226 1.171 204 200 205
0.207523 0.218932 0.908 103 101 91
0.275293 -0.17095 1.196 111 112 106
0.197639 0.103214 0.917 99 95 88
-0.776299 -0.424161 2.212 118 114 105
0.221693 -0.0297294 0.97 175 169 175
-0.146219 -0.403605 1.435 14 11 8
-0.404774 -0.437561 2.189 119 114 110
-0.484511 0.325246 1.865 120 113 107
0.0419835 0.0611147 1.205 16 20 15
0.220824 0.0337783 0.896 179 182 183
-0.455125 0.0992033 2.244 114 107 101
-0.167714 0.480615 1.595 42 40 30
-0.5865 -0.626359 2.189 123 119 110
0.145505 -0.845129 3.04 17 17 11
0.301709 0.195259 0.701 81 87 70
-0.224196 -0.756247 2.236 136 126 124
-0.663027 0.415428 1.7 120 118 110
-0.609217 0.536244 1.47 112 117 103
0.164561 0.0300649 1.017 102 94 91
-1.02208 0.0271601 2.329 122 124 111
0.343388 0.119728 0.693 155 165 172
0.602915 -0.767715 2.638 137 129 126
-0.341724 -0.731997 2.196 133 124 119
0.177739 0.0533785 0.989 100 96 85
0.119929 0.0419152 1.162 55 50 48
-0.0585549 -0.92294 3.102 36 32 25
0.23121 -0.792584 2.818 16 19 22
-0.506129 0.512275 1.505 118 116 108
-0.692275 0.428911 1.677 122 122 122
0.0495647 0.127638 1.072 10 13 12
-0.347761 -0.811595 2.189 135 129 116
0.0750458 -0.934726 2.649 15 12 9
-0.834363 -0.0111186 2.411 126 122 111
0.339376 -0.822133 2.593 136 130 117
-0.403765 0.537484 1.48 118 119 108
0.249231 0.113231 0.817 126 126 130
0.0653535 -0.0964455 1.239 114 102 102
0.868674 -0.679229 2.731 121 119 109
-0.84043 0.159716 2.173 117 115 103
-1.11386 0.164454 2.189 116 116 110
1.25532 -0.819275 2.831 49 49 43
-0.365578 -0.786659 2.189 137 130 124
0.0917196 0.210459 1.017 8 12 7
-0.818362 -0.46324 2.143 117 115 103
-0.226463 0.322314 1.705 0 6 0
0.183609 0.137451 0.969 84 80 73
0.298227 0.167489 0.709 129 125 116
0.199749 0.102764 0.913 97 95 87
-1.01927 -0.703853 1.941 115 120 110
0.302101 0.129258 0.721 176 180 175
0.747741 -0.94851 2.604 158 149 144
0.3112 -0.740816 3.165 13 20 14
-0.403765 0.532667 1.48 121 119 109
0.110708 0.271199 1.009 32 18 3
-0.0499526 0.155925 1.112 10 11 5
-0.898448 -0.454468 2.151 133 129 122
-0.0123618 -0.984516 2.925 23 20 17
-0.514736 -0.269347 2.44 114 103 98
-0.164949 -0.29815 1.456 8 10 1
0.195267 0.107357 0.927 101 94 88
-0.510288 0.496398 1.555 116 117 111
0.155987 0.269375 0.945 70 24 0
0.271392 0.129943 0.774 142 143 139
-0.129471 0.0462854 1.484 12 9 4
0.352946 0.0912038 0.717 172 171 171
-0.0394274 0.0787813 1.176 13 14 10
0.351441 -0.649697 2.719 139 126 132
-0.464421 -0.54884 2.236 124 117 107
-0.186595 0.110918 1.579 2 6 0
-0.350041 -0.702153 2.181 133 125 113
-0.182343 0.449547 1.633 39 40 29
-0.431156 0.451097 1.629 112 112 106
-0.459688 -0.664098 2.196 127 123 116
-0.439416 -0.628004 2.22 128 117 112
-0.765994 0.206982 2.114 116 113 99
-0.802192 -0.358067 2.204 118 111 105
0.609222 -0.198529 1.198 138 136 128
-0.483738 0.099171 2.329 111 104 98
0.128101 0.278442 0.955 37 16 15
-0.792319 0.0466449 2.356 119 117 105
-0.681898 0.505013 1.52 118 120 109
-0.447531 0.0116495 2.261 118 111 103
0.0541588 -0.883849 3.198 28 29 18
-0.796214 -0.596601 2.085 122 118 109
-0.583322 -0.65399 2.151 128 121 113
-0.236872 -0.281053 1.491 13 11 3
-0.124907 0.491211 1.579 34 35 26
0.120921 0.199543 1.012 7 8 0
0.534785 -0.663172 2.684 133 124 119
0.539166 -0.131643 1.081 204 204 206
0.0563039 -0.191508 1.31 179 170 173
0.106561 0.421727 1.102 24 16 2
0.200279 0.0736364 0.902 175 164 172
0.130116 -0.0194638 1.104 96 86 84
-0.176384 0.477809 1.603 43 41 29
-0.616901 0.270919 1.978 128 122 107
-0.799505 0.408931 1.696 113 117 112
-0.0322422 0.000366913 1.357 13 27 47
0.309876 0.146832 0.704 176 184 185
0.885886 -0.735779 2.743 135 128 118
-0.0735736 -0.956564 2.898 30 28 18
0.141246 0.152793 1.053 2 5 4
-0.192519 0.139036 1.607 1 5 0
0.304774 0.12773 0.719 177 185 174
-0.891527 -0.661489 2.024 138 139 128
-0.0389701 -0.194425 1.535 17 21 14
-0.0858256 0.513782 1.524 35 34 19
0.352726 -0.718518 2.695 135 128 122
-0.887228 -0.186034 2.294 125 122 108
-0.627628 0.519641 1.491 117 119 110
-0.738671 0.091237 2.32 125 120 116
0.103931 0.228054 1.007 10 10 6
-0.0855041 -0.828374 3.165 60 58 48
0.215786 0.142168 0.918 101 94 84
0.487827 -0.301138 1.459 157 159 148
0.340797 0.0699572 0.752 197 200 201
0.344521 -0.123632 1.154 108 108 110
0.742066 -0.889114 2.707 136 132 123
0.547143 -0.360226 1.539 172 174 165
-0.0523045 0.389147 1.422 25 22 17
-0.233055 0.121406 1.616 4 5 0
-0.677613 0.35906 1.821 126 122 113
0.354833 0.0776501 0.7 186 189 192
0.164255 0.207976 1.005 6 8 0
0.195012 0.194583 0.963 93 86 80
-0.648325 0.413876 1.705 123 123 117
