ply
format ascii 1.0
comment Created by Open3D
element vertex 1281
property double x
property double y
property double z
property uchar red
property uchar green
property uchar blue
end_header
0.179297 -0.110279 0.526 255 255 255
0.163975 -0.102026 0.628 255 255 255
0.0871219 0.0942688 0.503 255 255 255
-0.045974 0.0580052 0.508 255 255 255
0.0471165 -0.0854086 0.542 255 255 255
-0.0242404 0.0461209 0.358 255 255 255
0.123172 0.0538631 0.524 255 255 255
-0.505435 -0.579171 1.799 255 255 255
0.0486925 0.133378 0.431 255 255 255
0.165443 0.058039 0.531 255 255 255
0.0464902 0.00546872 0.545 255 255 255
0.202009 -0.0895873 0.441 255 255 255
0.144262 -0.394425 1.05 255 255 255
0.0582186 0.0861124 0.508 255 255 255
0.239897 -0.309743 0.967 255 255 255
-0.532671 -0.665911 1.853 255 255 255
0.194185 0.0101576 0.559 255 255 255
-0.418362 -0.204098 1.571 255 255 255
-0.149194 0.0550383 0.519 255 255 255
0.0631154 0.133847 0.454 255 255 255
0.199835 -0.196882 0.692 255 255 255
-0.266376 -0.238363 1.595 255 255 255
0.170775 -0.0463362 0.501 255 255 255
0.0793277 0.161112 0.458 255 255 255
0.0509521 0.169659 0.451 255 255 255
-0.143405 0.0321762 0.532 255 255 255
-0.651706 0.203818 1.289 255 255 255
-0.248631 -0.437194 1.724 255 255 255
0.220447 0.116901 0.46 255 255 255
0.0426803 -0.43624 1.225 255 255 255
-0.361581 -0.42908 1.714 255 255 255
0.107334 -0.3989 1.11 255 255 255
-0.596704 0.0652615 1.375 255 255 255
0.0431272 0.109715 0.446 255 255 255
-0.563383 -0.473592 1.734 255 255 255
0.17541 0.176655 0.452 255 255 255
0.124187 0.0434308 0.532 255 255 255
0.236714 0.105837 0.464 255 255 255
-0.547567 0.291512 1.234 255 255 255
-0.0361928 -0.00318185 0.51 255 255 255
-0.463061 0.282611 1.239 255 255 255
-0.0320828 0.0482698 0.361 255 255 255
0.00324011 0.0118911 0.452 255 255 255
-0.0593784 0.00649833 0.489 255 255 255
-0.26264 -0.294824 1.62 255 255 255
0.195193 0.0590919 0.525 255 255 255
0.0990027 0.142388 0.47 255 255 255
-0.412532 -0.0134714 1.419 255 255 255
0.140239 -0.103905 0.627 255 255 255
-0.52619 -0.410774 1.696 255 255 255
0.168998 -0.00168015 0.563 255 255 255
-0.105085 0.0595267 0.514 255 255 255
0.129274 -0.0811009 0.609 255 255 255
0.180104 -0.069162 0.6 255 255 255
-0.543859 -0.337052 1.633 255 255 255
-0.535399 0.260133 1.267 255 255 255
-0.0788424 -0.505395 1.4 255 255 255
0.209173 -0.0358206 0.47 255 255 255
0.204795 0.0640607 0.485 255 255 255
0.220182 -0.0145583 0.565 255 255 255
0.193246 -0.130708 0.406 255 255 255
0.202558 -0.0928286 0.436 255 255 255
0.145817 0.00827857 0.555 255 255 255
0.186446 0.151646 0.452 255 255 255
0.077306 0.133291 0.473 255 255 255
0.211375 0.0832738 0.482 255 255 255
0.239066 -0.30687 0.983 255 255 255
-0.675112 -0.51914 1.629 255 255 255
-0.13109 0.0650002 0.511 255 255 255
0.0706609 -0.0124644 0.455 255 255 255
0.000308214 0.0337084 0.469 255 255 255
0.106804 -0.382858 1.143 255 255 255
0.244497 0.0297008 0.519 255 255 255
-0.106284 0.114475 0.478 255 255 255
-0.378369 -0.501603 1.753 255 255 255
-0.59266 0.381152 1.176 255 255 255
0.145292 0.0118484 0.553 255 255 255
0.0547522 -0.0823045 0.539 255 255 255
0.0131891 0.0515007 0.526 255 255 255
-0.309424 0.434795 1.141 255 255 255
0.105493 0.011827 0.552 255 255 255
0.196058 0.118141 0.459 255 255 255
0.0632007 -0.0402985 0.46 255 255 255
0.142304 0.038452 0.535 255 255 255
-0.0675427 -0.0110559 0.458 255 255 255
0.0710886 -0.130098 0.494 255 255 255
-0.137225 0.079535 0.503 255 255 255
0.0314662 -0.00251793 0.546 255 255 255
-0.563918 0.314186 1.213 255 255 255
0.0455247 -0.0511096 0.463 255 255 255
0.0486625 -0.428266 1.225 255 255 255
-0.445548 0.42399 1.152 255 255 255
-0.414519 -0.093782 1.484 255 255 255
-0.516213 0.365613 1.194 255 255 255
-0.186067 -0.376541 1.691 255 255 255
0.0499671 0.125702 0.436 255 255 255
0.0480155 0.155714 0.451 255 255 255
-0.497609 0.354547 1.196 255 255 255
0.0936708 -0.0409944 0.486 255 255 255
-0.24034 -0.515614 1.705 255 255 255
-0.55511 -0.166621 1.532 255 255 255
-0.639999 -0.421277 1.705 255 255 255
-0.0290697 0.0457343 0.475 255 255 255
-0.134832 0.0516599 0.519 255 255 255
0.208422 -0.0591117 0.455 255 255 255
-0.0605079 -0.0264724 0.467 255 255 255
-0.155239 0.0860834 0.503 255 255 255
-0.0272894 -0.0217901 0.499 255 255 255
-0.60931 -0.678905 1.769 255 255 255
-0.74125 -0.2015 1.551 255 255 255
-0.340998 0.440366 1.141 255 255 255
-0.37472 0.413608 1.165 255 255 255
0.0599376 0.0563135 0.523 255 255 255
-0.51172 0.419146 1.149 255 255 255
-0.0401044 0.0571271 0.354 255 255 255
-0.323495 -0.251341 1.595 255 255 255
-0.0836516 0.0347734 0.532 255 255 255
0.176286 0.11208 0.468 255 255 255
-0.0219665 -0.029311 0.489 255 255 255
-0.5774 0.285317 1.242 255 255 255
0.0712253 -0.140067 0.484 255 255 255
0.12317 0.173713 0.452 255 255 255
-0.159292 0.0305019 0.533 255 255 255
0.135332 -0.0837651 0.614 255 255 255
-0.669724 -0.299356 1.616 255 255 255
0.172462 0.051415 0.534 255 255 255
0.181682 -0.102998 0.437 255 255 255
-0.580243 -0.149782 1.513 255 255 255
-0.226146 -0.369063 1.682 255 255 255
-0.100779 0.0749204 0.505 255 255 255
-0.54783 -0.328273 1.629 255 255 255
-0.704745 -0.538198 1.655 255 255 255
-0.125166 0.0637089 0.514 255 255 255
-0.663969 -0.49611 1.724 255 255 255
-0.499689 0.346257 1.201 255 255 255
-0.0329843 0.0274811 0.525 255 255 255
-0.50993 -0.596137 1.815 255 255 255
-0.480915 0.253382 1.254 255 255 255
-0.633525 -0.625652 1.71 255 255 255
-0.113492 0.0557752 0.518 255 255 255
-0.0131377 0.0989938 0.434 255 255 255
-0.608727 -0.0112881 1.435 255 255 255
-0.00545669 -0.0622233 0.599 255 255 255
-0.736623 -0.302919 1.607 255 255 255
-0.01502 0.167072 0.448 255 255 255
-0.00990597 -0.443486 1.324 255 255 255
-0.0571955 -0.00301964 0.484 255 255 255
0.0716876 0.0230363 0.541 255 255 255
0.217997 -0.0401233 0.458 255 255 255
-0.424567 -0.349672 1.655 255 255 255
-0.367636 -0.55402 1.784 255 255 255
-0.513926 0.221481 1.27 255 255 255
0.184841 0.118822 0.378 255 255 255
0.00457614 0.102278 0.439 255 255 255
-0.6235 -0.183358 1.547 255 255 255
-0.0277369 0.100884 0.358 255 255 255
-0.809068 -0.366716 1.659 255 255 255
-0.680266 0.0141384 1.409 255 255 255
0.133473 -0.0359558 0.584 255 255 255
-0.606115 0.145043 1.327 255 255 255
0.085507 -0.416017 1.132 255 255 255
-0.116604 -0.440436 1.505 0 0 0
0.130723 0.00197402 0.56 255 255 255
0.0722933 -0.102744 0.514 255 255 255
-0.362649 0.445155 1.139 255 255 255
0.198505 -0.0323612 0.487 255 255 255
0.225417 0.0156995 0.562 255 255 255
0.117621 0.0849578 0.511 255 255 255
-0.20426 -0.429601 1.705 255 255 255
0.0579592 -0.0455385 0.46 255 255 255
-0.0232683 0.102904 0.361 255 255 255
-0.0490696 -0.0338114 0.474 255 255 255
-0.0239218 0.0680261 0.345 255 255 255
0.131055 0.163705 0.459 255 255 255
-0.57641 0.180033 1.299 255 255 255
-0.196113 -0.489722 1.637 255 255 255
-0.523015 0.263213 1.262 255 255 255
0.0888148 0.081979 0.508 255 255 255
-0.687804 -0.588001 1.579 255 255 255
-0.600807 -0.714979 1.887 255 255 255
-0.128632 0.121927 0.486 255 255 255
-0.49743 0.329762 1.205 255 255 255
-0.716003 0.0762826 1.372 255 255 255
-0.0534163 0.050565 0.508 0 0 0
0.1855 -0.0613219 0.478 0 0 0
-0.708681 -0.478168 1.71 255 255 255
0.127266 -0.0155873 0.569 255 255 255
0.120146 -0.0118208 0.566 255 255 255
-0.0297429 0.0515387 0.486 255 255 255
0.067252 -0.00731333 0.457 255 255 255
-0.648507 -0.51138 1.691 255 255 255
-0.374939 -0.353986 1.65 255 255 255
-0.297574 -0.640144 1.668 255 255 255
-0.590301 0.190309 1.297 255 255 255
-0.0503359 -0.00468983 0.494 255 255 255
0.0721526 0.0761073 0.513 255 255 255
-0.89061 -0.501852 1.696 0 0 0
0.0979625 0.0615568 0.517 255 255 255
0.14271 -0.0916462 0.62 255 255 255
-0.619643 0.319316 1.21 255 255 255
-0.0326486 -0.497725 1.286 255 255 255
0.0509986 0.115986 0.445 255 255 255
-0.307618 -0.268923 1.607 255 255 255
-0.00264603 0.0258666 0.452 255 255 255
-0.171341 -0.567362 1.491 255 255 255
-0.477254 -0.480617 1.739 255 255 255
-0.0919645 0.0406801 0.53 255 255 255
0.135363 0.119252 0.488 255 255 255
-0.0364027 0.0257724 0.525 255 255 255
-0.00699815 0.16853 0.448 255 255 255
-0.627126 0.0232108 1.403 255 255 255
0.20184 -0.0434311 0.478 255 255 255
-0.655005 0.232727 1.275 255 255 255
0.069621 -0.127945 0.495 255 255 255
-0.20426 -0.43515 1.705 255 255 255
0.127311 0.0703761 0.52 255 255 255
-0.302386 -0.268923 1.607 255 255 255
-0.00869334 -0.0121663 0.504 255 255 255
-0.304429 -0.618701 1.691 255 255 255
0.0912956 0.0786722 0.508 255 255 255
-0.77003 -0.50599 1.729 255 255 255
-0.728165 -0.439209 1.71 255 255 255
0.0450763 0.0796554 0.509 255 255 255
-0.0635486 -0.0264724 0.467 255 255 255
-0.597207 -0.2533 1.591 255 255 255
-0.052596 -0.0216509 0.478 255 255 255
0.210888 -0.0978611 0.427 255 255 255
-0.507343 0.354547 1.196 255 255 255
0.000389046 -0.0537891 0.592 255 255 255
-0.263148 -0.276768 1.607 255 255 255
-0.56596 0.411667 1.149 255 255 255
0.157069 0.0612639 0.529 255 255 255
-0.0893799 0.147768 0.475 255 255 255
0.115016 -0.0424624 0.582 255 255 255
0.206486 -0.176452 0.454 255 255 255
-0.0471194 -0.0143366 0.494 255 255 255
-0.227658 -0.415134 1.714 255 255 255
0.145584 0.101945 0.485 255 255 255
-0.217653 -0.342418 1.659 255 255 255
-0.204063 -0.238363 1.595 255 255 255
0.0205426 -0.394919 1.342 255 255 255
0.0654218 -0.0822557 0.533 255 255 255
-0.614522 -0.086129 1.477 255 255 255
-0.195135 -0.266307 1.607 255 255 255
0.0933638 -0.0993458 0.497 255 255 255
-0.558365 -0.0871203 1.494 255 255 255
0.105177 0.119252 0.488 255 255 255
-0.034827 0.0526761 0.359 255 255 255
-0.755501 -0.0983461 1.48 255 255 255
-0.710663 -0.106071 1.487 255 255 255
0.0616026 -0.0878301 0.53 255 255 255
-0.00595478 -0.396292 1.409 255 255 255
0.0667496 0.0823017 0.51 255 255 255
-0.491269 -0.208678 1.567 255 255 255
0.217856 -0.00454743 0.479 255 255 255
0.0410348 0.0971199 0.455 255 255 255
0.0794476 0.139922 0.472 255 255 255
-0.591137 0.000387192 1.432 255 255 255
-0.10408 -0.384031 1.575 255 255 255
-0.0328432 -0.0225115 0.497 255 255 255
-0.1134 0.0681928 0.51 255 255 255
-0.090099 0.107813 0.483 255 255 255
-0.0413896 -0.354684 1.445 255 255 255
-0.120316 0.0468617 0.522 255 255 255
0.172109 0.12856 0.467 255 255 255
0.0369213 0.102643 0.45 255 255 255
-0.634041 0.120745 1.345 255 255 255
0.225252 0.0551525 0.49 255 255 255
0.151744 -0.0203947 0.574 255 255 255
0.158163 0.156427 0.464 255 255 255
0.0297732 -0.0977467 0.489 255 255 255
0.206183 -0.14698 0.494 255 255 255
0.0598129 -0.00954439 0.457 255 255 255
-0.139126 0.0816646 0.501 255 255 255
-0.0102651 -0.419376 1.372 255 255 255
0.207258 0.109612 0.464 255 255 255
-0.172657 -0.314861 1.642 255 255 255
0.158806 0.0997456 0.482 255 255 255
0.212713 -0.366102 0.958 255 255 255
0.139976 0.129552 0.482 255 255 255
-0.117076 -0.478881 1.48 255 255 255
0.117757 0.0902458 0.508 255 255 255
0.190992 -0.000763959 0.563 255 255 255
-0.585382 -0.368705 1.668 255 255 255
-0.580453 -0.157896 1.52 255 255 255
-0.322973 -0.339718 1.659 255 255 255
-0.389773 -0.543782 1.779 255 255 255
0.198357 -0.077452 0.454 0 0 0
-0.0178301 0.0903973 0.358 255 255 255
0.170084 -0.126254 0.532 255 255 255
0.216979 0.0710173 0.484 255 255 255
-0.592211 0.265898 1.265 255 255 255
0.0543054 0.0684195 0.518 255 255 255
-0.0955516 0.0463649 0.526 255 255 255
0.169853 0.0770189 0.508 255 255 255
0.181683 0.0556556 0.533 255 255 255
-0.0260923 0.0795848 0.344 255 255 255
0.174723 -0.0624765 0.487 255 255 255
0.0472904 0.00457342 0.544 255 255 255
0.0260592 0.119913 0.428 255 255 255
0.231427 0.0023907 0.464 255 255 255
-0.462905 0.277679 1.244 255 255 255
0.023553 0.0499781 0.528 255 255 255
-0.00596105 0.079838 0.426 255 255 255
-0.684669 0.0388296 1.39 255 255 255
0.193117 -0.337228 1.037 255 255 255
-0.665758 0.254595 1.26 255 255 255
0.056283 0.13432 0.441 255 255 255
0.0594567 0.155827 0.46 255 255 255
0.0740373 -0.0212557 0.453 255 255 255
0.103699 0.0861124 0.508 255 255 255
-0.292195 0.43774 1.139 255 255 255
0.212599 0.0724426 0.483 255 255 255
0.0436679 0.000146819 0.543 255 255 255
0.223538 0.064457 0.488 255 255 255
0.000260898 0.116396 0.397 255 255 255
-0.0678932 0.047894 0.524 255 255 255
0.129739 0.102657 0.5 255 255 255
0.142837 -0.112287 0.634 0 0 0
0.168029 0.0963822 0.477 255 255 255
-0.0220524 0.0555006 0.351 255 255 255
-0.695331 -0.208678 1.567 255 255 255
-0.685487 -0.151267 1.528 255 255 255
-0.0156723 0.0978873 0.362 255 255 255
0.061569 0.158476 0.459 255 255 255
0.15683 0.123291 0.476 255 255 255
0.195565 0.0530535 0.533 255 255 255
0.0205885 -0.384858 1.345 255 255 255
0.0608776 -0.160552 0.477 0 0 0
0.139094 -0.164828 0.676 255 255 255
-0.0249024 0.0595327 0.5 0 0 0
-0.0193955 0.164885 0.448 255 255 255
-0.720627 -0.0757894 1.463 255 255 255
-0.355882 -0.174184 1.555 255 255 255
-0.452916 0.400289 1.176 255 255 255
-0.433966 0.386649 1.187 255 255 255
0.199146 -0.310994 1.051 255 255 255
-0.0933487 -0.239279 1.567 255 255 255
-0.378943 -0.526332 1.769 255 255 255
-0.0919949 0.0641687 0.511 255 255 255
-0.407912 -0.0134714 1.419 255 255 255
0.176043 0.071237 0.514 255 255 255
0.134681 0.054377 0.529 255 255 255
0.192505 -0.192934 0.694 255 255 255
0.201592 0.0685126 0.483 255 255 255
0.163958 0.0987559 0.481 255 255 255
0.180816 -0.0490034 0.495 255 255 255
-0.188013 -0.494084 1.591 255 255 255
-0.0446585 -0.455274 1.4 255 255 255
0.00351848 0.123785 0.4 255 255 255
-0.031583 0.0543551 0.49 255 255 255
0.19241 0.115655 0.461 255 255 255
-0.625845 0.269708 1.254 255 255 255
0.183248 0.0605172 0.53 255 255 255
-0.03258 0.0510653 0.36 255 255 255
0.0691796 -0.0287539 0.455 255 255 255
0.0708693 -0.0975474 0.522 255 255 255
-0.505579 -0.585658 1.81 255 255 255
0.185359 0.0660179 0.519 255 255 255
0.0621319 -0.100874 0.513 255 255 255
-0.86073 -0.338877 1.629 255 255 255
0.0693489 0.0640808 0.517 255 255 255
0.192566 -0.172404 0.465 255 255 255
0.134989 -0.160572 0.672 255 255 255
-0.49566 -0.513218 1.744 255 255 255
0.142263 0.163705 0.459 255 255 255
-0.595706 -0.244915 1.587 255 255 255
-0.0875714 -0.363971 1.555 255 255 255
-0.0755479 0.0557752 0.518 255 255 255
0.0731277 0.149518 0.466 255 255 255
0.254117 -0.324084 0.927 255 255 255
0.179127 -0.0935719 0.6 0 0 0
0.199227 -0.165844 0.47 255 255 255
-0.397746 -0.518809 1.763 255 255 255
0.148974 0.0878349 0.499 255 255 255
-0.452074 0.365613 1.194 255 255 255
0.187017 -0.0310971 0.582 255 255 255
0.208917 -0.0907806 0.433 0 0 0
0.110057 0.124833 0.485 255 255 255
-0.486841 -0.338877 1.629 255 255 255
-0.492145 -0.315019 1.629 255 255 255
0.231709 -0.00075039 0.553 255 255 255
0.0404035 0.172175 0.448 255 255 255
-0.661304 -0.206654 1.571 255 255 255
-0.619359 0.242148 1.27 255 255 255
0.250006 0.0447072 0.498 255 255 255
-0.490514 0.0514968 1.366 255 255 255
0.230928 -0.00891625 0.463 255 255 255
-0.597844 0.353954 1.194 255 255 255
0.030522 0.120331 0.432 255 255 255
-0.66082 -0.525729 1.633 255 255 255
0.0503653 0.0273368 0.539 255 255 255
0.057531 -0.000681186 0.502 255 255 255
0.208154 -0.00533804 0.48 255 255 255
-0.477382 -0.174184 1.555 255 255 255
-0.142928 -0.553738 1.449 255 255 255
-0.386095 -0.287228 1.607 255 255 255
0.171191 0.113757 0.475 255 255 255
0.215751 -0.0236333 0.471 255 255 255
-0.110422 0.0891856 0.493 255 255 255
0.166483 -0.172443 0.68 255 255 255
0.052843 0.0767921 0.512 255 255 255
-0.236027 -0.215961 1.583 255 255 255
0.00741763 0.104183 0.438 255 255 255
-0.365066 -0.166164 1.551 255 255 255
0.214122 -0.0108998 0.566 255 255 255
-0.279656 -0.393052 1.691 255 255 255
0.180738 -0.046775 0.497 255 255 255
0.188945 -0.0754337 0.588 255 255 255
0.101846 -0.0746685 0.469 255 255 255
-0.41428 -0.503016 1.748 255 255 255
0.150262 0.149272 0.47 255 255 255
-0.0220651 0.0366444 0.458 255 255 255
0.013485 -0.0254334 0.476 255 255 255
-0.0135359 0.106696 0.368 255 255 255
0.168762 0.156505 0.462 255 255 255
0.206014 -0.0759166 0.445 0 0 0
0.0945647 0.0398927 0.531 255 255 255
-0.525934 -0.579171 1.799 255 255 255
0.135476 -0.156589 0.669 0 0 0
0.203978 -0.067997 0.455 255 255 255
-0.174444 -0.450408 1.659 255 255 255
0.178115 0.0356885 0.546 255 255 255
0.0861382 0.136173 0.475 255 255 255
-0.616304 -0.539996 1.748 0 0 0
0.213064 -0.0122908 0.477 255 255 255
0.0716665 -0.0565153 0.452 255 255 255
0.175696 -0.0736765 0.605 255 255 255
-0.0216072 -0.0429209 0.481 255 255 255
0.114864 0.0333525 0.537 255 255 255
-0.415047 0.339567 1.205 255 255 255
-0.310768 -0.571693 1.758 255 255 255
0.0938584 -0.0835214 0.504 255 255 255
0.0504157 -0.453991 1.173 255 255 255
-0.391754 -0.442805 1.724 255 255 255
0.182521 -0.0470455 0.592 255 255 255
-0.00643174 -0.0622233 0.599 255 255 255
-0.705007 -0.599794 1.583 255 255 255
-0.0846765 0.0252977 0.533 255 255 255
-0.635037 0.269277 1.252 255 255 255
0.0694918 0.155001 0.462 255 255 255
-0.238553 -0.535884 1.673 255 255 255
-0.317536 -0.466037 1.748 255 255 255
0.123448 0.120047 0.488 255 255 255
-0.893371 -0.501852 1.696 255 255 255
0.228245 0.0349912 0.549 255 255 255
0.213919 -0.162506 0.467 255 255 255
-0.0329843 0.0291898 0.525 255 255 255
-0.566823 0.377326 1.182 255 255 255
-0.486253 -0.385486 1.682 255 255 255
-0.671508 -0.226265 1.583 255 255 255
0.175427 -0.0509212 0.498 255 255 255
-0.593649 -0.101503 1.491 255 255 255
-0.22887 -0.166948 1.535 255 255 255
-0.441319 0.29433 1.229 255 255 255
-0.459179 0.420545 1.158 255 255 255
-0.490826 0.381496 1.189 255 255 255
0.0249036 0.082854 0.458 255 255 255
0.0246018 0.0729099 0.514 255 255 255
-0.157188 0.0870747 0.504 255 255 255
0.213021 -0.0654827 0.443 255 255 255
-0.0267941 0.102904 0.361 255 255 255
-0.613496 0.226503 1.275 255 255 255
-0.255348 -0.237765 1.591 255 255 255
-0.0322907 -0.377115 1.459 255 255 255
-0.32299 0.431838 1.143 255 255 255
-0.762672 -0.0807162 1.466 255 255 255
-0.65522 -0.522272 1.673 255 255 255
-0.459278 -0.201541 1.571 255 255 255
0.0808187 0.161858 0.458 255 255 255
-0.513633 -0.399172 1.682 255 255 255
-0.137198 -0.483128 1.516 255 255 255
-0.840153 -0.313278 1.62 255 255 255
0.0784844 -0.124723 0.495 255 255 255
0.221805 -0.0165574 0.466 255 255 255
0.156238 0.0480288 0.535 255 255 255
-0.767779 -0.295992 1.612 255 255 255
0.158487 0.174448 0.452 255 255 255
0.0351496 0.000148171 0.548 255 255 255
0.149581 0.0513187 0.533 255 255 255
-0.141897 0.0670987 0.508 255 255 255
-0.111214 -0.423407 1.532 255 255 255
-0.532566 -0.479161 1.744 255 255 255
-0.41488 -0.109001 1.494 255 255 255
-0.511783 -0.308766 1.624 255 255 255
-0.061957 -0.384352 1.487 255 255 255
-0.094898 0.0815016 0.5 255 255 255
0.17177 0.139213 0.462 255 255 255
0.163047 -0.375075 1.039 255 255 255
-0.624846 -0.0787045 1.473 255 255 255
-0.623458 -0.298615 1.612 255 255 255
-0.422935 0.412543 1.162 255 255 255
-0.0900509 0.0322971 0.534 255 255 255
-0.610926 0.377966 1.178 255 255 255
-0.369656 0.404995 1.173 255 255 255
-0.116292 0.0816646 0.501 255 255 255
0.0336739 -0.0281901 0.512 255 255 255
0.150809 0.162564 0.46 255 255 255
-0.129038 0.0819906 0.503 255 255 255
0.137464 0.118216 0.487 255 255 255
0.079319 -0.0849359 0.539 255 255 255
-0.667699 -0.549998 1.65 255 255 255
-0.540033 -0.630267 1.837 255 255 255
-0.588625 0.43805 1.135 255 255 255
0.111386 0.106298 0.498 255 255 255
0.18029 -0.120635 0.519 255 255 255
0.0557378 -0.00234269 0.508 255 255 255
0.164855 -0.336795 1.096 255 255 255
0.106985 0.118701 0.489 255 255 255
0.222622 0.0689381 0.486 255 255 255
-0.426791 0.444373 1.137 255 255 255
0.140181 -0.113676 0.636 255 255 255
0.00465953 0.173973 0.447 255 255 255
0.214237 -0.0888937 0.424 0 0 0
0.24109 -0.340575 0.935 255 255 255
-0.0170316 -0.0163963 0.508 255 255 255
-0.611764 0.323254 1.21 255 255 255
0.185153 0.0547882 0.533 255 255 255
-0.00122906 0.0370748 0.473 255 255 255
-0.459807 -0.520084 1.748 255 255 255
0.190527 -0.122212 0.508 0 0 0
0.0353411 0.0888165 0.458 255 255 255
-0.706963 -0.383423 1.673 255 255 255
-0.701968 -0.443026 1.714 255 255 255
0.0904592 0.167832 0.454 255 255 255
-0.893375 -0.619283 1.739 255 255 255
-0.424648 0.323254 1.21 255 255 255
-0.616669 0.0277177 1.4 255 255 255
0.205997 -0.165138 0.468 255 255 255
0.109532 0.0656362 0.516 255 255 255
-0.317119 -0.39791 1.7 255 255 255
-0.414657 -0.119362 1.502 255 255 255
-0.255943 -0.180167 1.563 255 255 255
0.148156 0.00558914 0.557 255 255 255
0.0821994 0.0861124 0.508 255 255 255
0.161572 0.134344 0.474 255 255 255
-0.504526 0.250891 1.262 255 255 255
-0.152931 0.0321762 0.532 255 255 255
-0.809254 -0.558657 1.753 255 255 255
0.172701 -0.113629 0.63 255 255 255
0.195593 0.111362 0.465 255 255 255
-0.657272 -0.016003 1.439 255 255 255
0.214951 -0.0942064 0.42 255 255 255
0.248237 0.02563 0.54 255 255 255
-0.043752 0.168925 0.451 255 255 255
0.0638261 -0.0980199 0.52 255 255 255
0.121936 0.153639 0.467 255 255 255
0.18045 0.03651 0.545 255 255 255
0.253021 -0.328694 0.923 255 255 255
-0.569739 0.30532 1.217 255 255 255
-0.641283 0.301346 1.225 255 255 255
0.238772 -0.325941 0.95 255 255 255
-0.608322 0.207529 1.286 255 255 255
-0.206835 -0.153582 1.502 255 255 255
-0.596816 0.184686 1.302 255 255 255
0.0614146 0.117235 0.447 255 255 255
-0.0557355 0.154741 0.459 255 255 255
0.0109232 0.0221559 0.541 0 0 0
-0.340255 -0.659893 1.705 255 255 255
0.216486 -0.0845539 0.423 255 255 255
0.0390975 0.0466293 0.529 255 255 255
0.198014 -0.0907938 0.601 0 0 0
-0.0988661 0.11632 0.476 255 255 255
-0.127155 -0.243063 1.575 255 255 255
-0.481749 0.0164663 1.412 255 255 255
-0.688138 -0.575481 1.616 255 255 255
0.0466959 0.139312 0.432 255 255 255
-0.097473 0.122514 0.473 255 255 255
0.124368 -0.39149 1.07 255 255 255
-0.637383 0.191974 1.294 255 255 255
0.194914 -0.170865 0.467 255 255 255
0.0216772 0.109172 0.438 255 255 255
0.211074 0.167563 0.436 255 255 255
-0.397609 -0.105857 1.484 255 255 255
-0.407123 -0.23975 1.587 255 255 255
-0.425662 -0.500172 1.748 255 255 255
0.206164 -0.157949 0.514 255 255 255
0.230642 -0.0191283 0.455 0 0 0
0.156383 0.128208 0.477 255 255 255
-0.78241 -0.272788 1.599 255 255 255
-0.0134623 0.104329 0.366 255 255 255
0.149943 0.151244 0.469 255 255 255
0.102284 0.167832 0.454 255 255 255
0.204624 0.051415 0.534 255 255 255
-0.79324 -0.172737 1.52 255 255 255
0.178151 -0.0672092 0.6 255 255 255
-0.546034 0.373127 1.187 255 255 255
0.114149 0.121088 0.489 255 255 255
-0.0579566 0.170411 0.453 255 255 255
-0.465276 -0.636246 1.837 255 255 255
-0.845902 -0.583137 1.758 255 255 255
-0.259006 -0.550066 1.7 255 255 255
0.0284833 0.0229937 0.54 255 255 255
0.183562 0.0928862 0.475 255 255 255
0.0586349 0.174362 0.448 255 255 255
-0.391204 -0.47077 1.734 255 255 255
0.0918598 0.175873 0.45 255 255 255
-0.0923956 -0.229263 1.551 255 255 255
-0.661253 -0.486277 1.739 255 255 255
-0.611151 0.276762 1.249 0 0 0
-0.207799 -0.161664 1.509 255 255 255
-0.177283 -0.375428 1.686 255 255 255
-0.0816019 -0.452344 1.449 255 255 255
-0.739731 0.0322742 1.4 255 255 255
0.142282 0.142829 0.474 255 255 255
0.163102 -0.0109383 0.568 255 255 255
0.141416 0.0922634 0.501 255 255 255
0.190806 -0.0320442 0.582 255 255 255
0.162054 0.103237 0.48 255 255 255
-0.667543 0.0654039 1.378 255 255 255
0.128665 0.140811 0.475 255 255 255
0.19145 -0.124826 0.415 255 255 255
0.182971 -0.111844 0.43 255 255 255
-0.728156 -0.073208 1.459 255 255 255
-0.0856418 0.051207 0.523 255 255 255
-0.270422 -0.583142 1.668 255 255 255
0.161108 -0.127087 0.641 255 255 255
0.174346 -0.128166 0.636 255 255 255
-0.0453777 0.0426627 0.484 255 255 255
0.147373 0.135477 0.478 255 255 255
0.199728 -0.0522135 0.473 255 255 255
0.127612 -0.409876 1.068 255 255 255
0.0270718 0.00993954 0.547 255 255 255
0.204153 -0.104564 0.426 255 255 255
-0.551186 -0.357752 1.655 255 255 255
0.166738 0.132927 0.469 255 255 255
0.192219 -0.160554 0.517 255 255 255
-0.735173 0.0299959 1.4 255 255 255
-0.610527 0.354547 1.196 255 255 255
0.05203 0.165616 0.454 255 255 255
-0.0714412 0.0351702 0.525 255 255 255
-0.477172 0.0492738 1.366 255 255 255
-0.0317219 0.170336 0.447 255 255 255
0.0607996 -0.107698 0.502 255 255 255
-0.708076 0.0299102 1.396 255 255 255
-0.393003 0.440366 1.141 255 255 255
-0.0306609 0.0685875 0.345 255 255 255
-0.555312 -0.057131 1.473 255 255 255
0.0159734 0.109172 0.438 255 255 255
0.202684 0.0774604 0.48 0 0 0
0.180761 0.13861 0.46 255 255 255
0.17021 0.0118912 0.555 255 255 255
0.15483 0.127432 0.477 255 255 255
0.144482 0.0930079 0.492 255 255 255
0.175306 -0.191528 0.693 255 255 255
-0.15072 -0.501872 1.528 255 255 255
0.0841719 -0.0792346 0.542 255 255 255
-0.176547 0.065509 0.515 255 255 255
0.0781791 0.144375 0.469 255 255 255
0.187502 0.153512 0.451 255 255 255
0.204626 0.161957 0.442 255 255 255
-0.69131 -0.582438 1.599 255 255 255
-0.171847 -0.538042 1.539 255 255 255
-0.710051 -0.303862 1.612 255 255 255
0.0290426 0.0808575 0.477 255 255 255
-0.50528 -0.203059 1.563 255 255 255
0.199646 -0.164483 0.484 255 255 255
-0.391719 -0.0935292 1.48 255 255 255
-0.546205 -0.0676705 1.494 255 255 255
-0.361581 -0.431869 1.714 255 255 255
0.109944 0.0720734 0.514 255 255 255
0.0661582 0.0273368 0.539 255 255 255
0.176018 -0.0974967 0.577 0 0 0
-0.590417 0.242148 1.27 255 255 255
-0.108376 0.0912209 0.491 255 255 255
-0.273863 -0.300838 1.624 255 255 255
0.0215386 0.171479 0.45 255 255 255
-0.732181 0.00951192 1.403 255 255 255
0.141037 -0.0613508 0.6 255 255 255
0.103391 0.0256774 0.541 255 255 255
-0.103633 0.123284 0.473 255 255 255
0.154217 0.165199 0.459 255 255 255
0.183151 0.0758982 0.48 255 255 255
0.17831 -0.0857634 0.614 255 255 255
-0.327997 0.440366 1.141 255 255 255
-0.174024 -0.325433 1.655 255 255 255
0.0276231 0.140227 0.42 255 255 255
-0.00352544 0.117243 0.387 255 255 255
-0.441631 -0.0992764 1.494 255 255 255
0.157064 -0.0766458 0.613 255 255 255
-0.57449 -0.109293 1.498 255 255 255
-0.0687139 -0.512729 1.336 255 255 255
-0.0481175 0.00416989 0.496 255 255 255
0.205103 -0.00719001 0.564 255 255 255
-0.731399 -0.0635799 1.456 255 255 255
-0.461389 0.359039 1.198 255 255 255
0.0053028 0.0960663 0.44 255 255 255
0.0694837 -0.0340861 0.457 255 255 255
-0.626627 -0.641385 1.753 255 255 255
0.237228 0.0356231 0.545 255 255 255
0.181956 -0.0340551 0.584 255 255 255
0.187587 -0.135204 0.498 255 255 255
-0.706901 0.12266 1.342 255 255 255
-0.656859 0.278348 1.247 255 255 255
0.0239471 0.0880408 0.454 255 255 255
-0.0588508 -0.00985767 0.472 255 255 255
0.0898931 0.0584166 0.519 255 255 255
-0.119173 0.0117413 0.548 255 255 255
0.201647 0.0797021 0.411 255 255 255
-0.0326449 -0.0247873 0.494 255 255 255
0.245125 -0.288307 0.969 255 255 255
0.106399 0.162958 0.459 255 255 255
0.00501355 0.115874 0.416 255 255 255
-0.728165 -0.464254 1.71 255 255 255
-0.102032 -0.24945 1.583 255 255 255
-0.548898 0.288194 1.237 255 255 255
0.224965 0.0440022 0.539 255 255 255
0.173239 0.125789 0.468 255 255 255
0.146125 0.149717 0.469 255 255 255
-0.555744 0.442419 1.132 255 255 255
0.14592 -0.0584216 0.6 255 255 255
0.112675 0.110847 0.493 255 255 255
0.180125 -0.159855 0.669 255 255 255
-0.60045 0.412817 1.147 255 255 255
0.178546 0.0988615 0.474 255 255 255
0.153951 0.168571 0.456 255 255 255
0.1635 -0.0603744 0.6 255 255 255
-0.463544 -0.703924 1.842 255 255 255
0.196313 -0.0884256 0.446 255 255 255
-0.517706 0.394776 1.171 255 255 255
0.15628 0.174448 0.452 255 255 255
0.00758698 0.0788578 0.448 255 255 255
-0.567867 0.314186 1.213 255 255 255
-0.0368778 -0.00647611 0.508 255 255 255
-0.6354 0.317347 1.21 255 255 255
0.103463 0.109686 0.495 255 255 255
0.171948 -0.114836 0.631 255 255 255
-0.108252 0.145606 0.473 255 255 255
0.0839901 -0.408132 1.162 255 255 255
-0.16778 0.0508154 0.519 255 255 255
-0.0223665 0.0922096 0.356 255 255 255
0.195919 0.105188 0.389 255 255 255
0.204115 -0.359723 0.992 255 255 255
0.159594 -0.0613508 0.6 255 255 255
-0.712136 -0.0935292 1.48 255 255 255
-0.021801 0.0599502 0.347 255 255 255
0.190732 -0.163486 0.513 255 255 255
0.0681167 0.0455954 0.527 255 255 255
0.0699263 -0.0790884 0.541 255 255 255
-0.0909263 0.144676 0.475 255 255 255
0.112872 0.0996011 0.501 255 255 255
-0.00230649 0.138599 0.394 255 255 255
0.0616553 -0.0989453 0.516 255 255 255
0.10347 0.154826 0.466 255 255 255
0.191402 -0.17843 0.686 255 255 255
0.131848 0.0559927 0.528 255 255 255
-0.622102 0.0956744 1.362 255 255 255
-0.127845 0.0411506 0.525 255 255 255
0.19143 0.0472463 0.536 255 255 255
-0.109022 0.142527 0.473 255 255 255
0.0330162 -0.09381 0.502 255 255 255
0.0105509 0.170015 0.45 255 255 255
0.145358 -0.113676 0.636 0 0 0
0.0861382 0.116849 0.475 255 255 255
0.0854476 0.149839 0.467 255 255 255
0.0606893 -0.00732933 0.458 255 255 255
0.189211 0.061655 0.525 255 255 255
-0.199239 -0.463225 1.686 255 255 255
-0.633013 -0.126357 1.498 255 255 255
0.180075 -0.168736 0.476 255 255 255
0.0682926 -0.156094 0.48 255 255 255
0.108469 0.1347 0.478 255 255 255
-0.0488263 0.00255042 0.495 255 255 255
-0.158792 0.0483746 0.52 255 255 255
0.104578 0.132366 0.478 255 255 255
0.0299614 -0.0103028 0.535 255 255 255
-0.10364 0.0633371 0.511 255 255 255
-0.812074 -0.618274 1.705 255 255 255
-0.0318519 -0.0398727 0.482 255 255 255
-0.530751 0.401197 1.162 255 255 255
0.231307 -0.327607 0.964 255 255 255
-0.648957 -0.549017 1.714 255 255 255
-0.544461 0.299842 1.227 255 255 255
-0.377403 -0.561395 1.789 255 255 255
-0.17622 0.0427777 0.524 255 255 255
0.0871463 0.164119 0.456 255 255 255
-0.383227 -0.558484 1.789 255 255 255
0.201501 -0.127434 0.404 255 255 255
0.103884 0.127199 0.482 255 255 255
-0.335566 -0.478781 1.753 255 255 255
0.17878 -0.109631 0.527 255 255 255
-0.807252 -0.295074 1.607 255 255 255
0.19801 -0.133625 0.397 255 255 255
-0.0365434 0.0581146 0.353 255 255 255
-0.225962 -0.270862 1.603 255 255 255
-0.142061 0.106085 0.497 255 255 255
0.132583 -0.0747844 0.606 255 255 255
0.099321 0.074979 0.511 255 255 255
-0.728626 -0.193928 1.551 255 255 255
0.150935 0.157521 0.465 255 255 255
0.145787 0.0928189 0.491 255 255 255
0.00268164 -0.0266485 0.484 255 255 255
-0.189792 -0.205602 1.563 255 255 255
0.187499 -0.103703 0.434 255 255 255
0.215088 -0.0480052 0.455 255 255 255
0.0695056 -0.151567 0.483 255 255 255
0.0542283 -0.149845 0.48 0 0 0
0.198887 0.00563931 0.562 255 255 255
-0.422275 -0.40621 1.7 255 255 255
0.171602 0.113517 0.474 255 255 255
-0.423461 0.435558 1.143 255 255 255
-0.486012 0.390791 1.182 255 255 255
-0.690574 -0.0570147 1.47 255 255 255
-0.294595 -0.374537 1.682 255 255 255
-0.0433604 -0.0160413 0.497 255 255 255
0.189593 0.108801 0.467 255 255 255
0.0354183 -0.0693417 0.459 255 255 255
-0.45844 0.295049 1.232 255 255 255
0.186376 -0.058606 0.592 255 255 255
0.0703812 0.119374 0.458 255 255 255
0.121397 0.128249 0.483 255 255 255
-0.0832583 0.0956239 0.489 255 255 255
-0.00289548 0.118503 0.387 255 255 255
-0.0269221 -0.476125 1.313 255 255 255
0.0167625 0.0996464 0.44 255 255 255
-0.602285 0.02331 1.409 255 255 255
-0.541894 0.385634 1.178 255 255 255
-0.720627 -0.0781702 1.463 255 255 255
0.17201 0.115587 0.473 255 255 255
-0.46691 -0.0447167 1.459 255 255 255
-0.116371 -0.207355 1.502 255 255 255
-0.390313 -0.181308 1.551 255 255 255
0.106242 0.136946 0.475 255 255 255
0.213407 -0.0999116 0.421 255 255 255
-0.425182 -0.574642 1.794 255 255 255
0.0235802 0.0764922 0.51 255 255 255
0.117153 0.0568367 0.52 255 255 255
-0.136398 0.0996146 0.497 255 255 255
0.0456963 0.0698348 0.516 255 255 255
0.217671 -0.0692554 0.435 0 0 0
-0.0961583 0.0141798 0.539 255 255 255
-0.184398 0.041845 0.523 0 0 0
0.0508391 0.172212 0.45 255 255 255
0.202036 -0.0663539 0.459 255 255 255
0.179811 -0.112632 0.525 0 0 0
0.077846 0.0776253 0.512 255 255 255
0.239275 -0.32043 0.952 255 255 255
-0.15284 -0.334319 1.659 255 255 255
0.107493 0.153639 0.467 255 255 255
-0.0259009 0.170336 0.447 255 255 255
-0.585721 -0.595144 1.821 255 255 255
-0.18629 -0.551228 1.555 255 255 255
-0.223054 -0.345118 1.659 255 255 255
-0.344705 -0.149851 1.539 255 255 255
0.144865 0.131358 0.48 255 255 255
0.197329 -0.135468 0.496 255 255 255
0.211813 0.0803026 0.483 255 255 255
-0.00531504 -0.0127546 0.495 255 255 255
0.0830553 0.160367 0.458 255 255 255
0.0220482 0.134117 0.418 255 255 255
-0.548338 -0.602044 1.815 255 255 255
-0.465276 -0.633257 1.837 255 255 255
-0.0954447 0.0262633 0.535 255 255 255
0.0572795 -0.131946 0.486 255 255 255
-0.598495 0.390858 1.165 255 255 255
-0.435389 -0.444318 1.719 255 255 255
-0.126384 0.0525045 0.519 255 255 255
0.0928464 -0.113097 0.49 255 255 255
0.197579 -0.170649 0.507 255 255 255
0.185725 -0.056775 0.593 255 255 255
0.190447 -0.121033 0.51 255 255 255
0.0721526 0.0777769 0.513 255 255 255
0.183824 0.0694353 0.501 255 255 255
0.0120693 0.0729419 0.452 255 255 255
0.0165254 0.134152 0.416 255 255 255
-0.486102 -0.406811 1.691 255 255 255
-0.471272 0.00964073 1.422 255 255 255
0.155658 0.0463741 0.536 255 255 255
-0.316201 -0.606173 1.71 255 255 255
0.22407 0.0733802 0.484 255 255 255
0.14917 0.168942 0.455 255 255 255
0.0271647 0.0705375 0.515 255 255 255
0.188853 -0.108392 0.517 0 0 0
0.180849 -0.065713 0.476 255 255 255
-0.551193 -0.58404 1.805 255 255 255
-0.69043 -0.27347 1.603 255 255 255
-0.439436 0.429225 1.141 255 255 255
0.203906 0.164115 0.442 255 255 255
-0.423997 -0.570129 1.789 255 255 255
0.133346 0.0392491 0.534 255 255 255
-0.528165 0.336481 1.208 255 255 255
0.0994127 0.120593 0.487 255 255 255
0.17743 0.13008 0.467 255 255 255
0.117559 0.136746 0.477 255 255 255
-0.70033 -0.433644 1.71 255 255 255
0.188878 -0.169307 0.469 0 0 0
0.0745123 -0.104011 0.512 255 255 255
-0.150328 0.0526057 0.52 255 255 255
-0.109056 0.0619154 0.513 255 255 255
0.194553 0.168431 0.442 255 255 255
0.234954 0.0182867 0.465 255 255 255
-0.165132 0.041925 0.524 255 255 255
-0.590458 0.180449 1.302 255 255 255
-0.639835 -0.289843 1.607 255 255 255
-0.404748 0.378579 1.192 255 255 255
-0.030137 0.0625325 0.352 255 255 255
-0.449586 -0.250711 1.591 255 255 255
0.138123 0.0836207 0.513 255 255 255
-0.131346 0.0642942 0.512 255 255 255
0.0252571 0.163787 0.451 0 0 0
-0.587137 -0.375256 1.673 255 255 255
-0.676383 -0.175805 1.547 255 255 255
-0.385391 -0.402494 1.696 255 255 255
0.188435 -0.101845 0.545 255 255 255
-0.599869 0.0718172 1.372 255 255 255
0.225343 0.00872208 0.48 255 255 255
0.179275 0.0888056 0.478 0 0 0
-0.471139 0.35709 1.198 255 255 255
-0.230789 -0.488052 1.696 255 255 255
-0.613269 0.0718172 1.372 255 255 255
-0.607726 0.285317 1.242 255 255 255
0.00815305 -0.0638515 0.596 255 255 255
0.0864983 0.0238725 0.54 255 255 255
0.121459 -0.0559982 0.595 255 255 255
-0.805217 -0.314052 1.624 255 255 255
-0.172336 0.0483746 0.52 255 255 255
-0.78113 -0.199489 1.555 255 255 255
-0.105369 0.0413858 0.528 255 255 255
-0.243578 -0.59126 1.616 255 255 255
-0.430008 -0.132547 1.513 255 255 255
0.188945 -0.0409864 0.588 255 255 255
-0.565255 -0.434658 1.714 255 255 255
0.00033713 0.0777769 0.513 255 255 255
0.0333327 0.166723 0.451 255 255 255
-0.03371 0.0231209 0.523 255 255 255
0.16657 0.170798 0.456 255 255 255
-0.497268 -0.383423 1.673 255 255 255
0.162753 -0.356154 1.048 255 255 255
0.138138 -0.0137113 0.568 255 255 255
-0.557477 -0.523453 1.769 255 255 255
-0.36765 0.391782 1.185 255 255 255
-0.43318 -0.271538 1.607 255 255 255
0.134569 0.117664 0.488 255 255 255
0.205948 -0.327414 1.017 255 255 255
-0.118011 0.0651274 0.512 255 255 255
0.120595 0.164452 0.459 255 255 255
0.177145 -0.052331 0.496 255 255 255
0.0254634 0.0442965 0.532 255 255 255
0.0356106 -0.427181 1.257 255 255 255
0.0952127 0.107856 0.494 255 255 255
0.159963 -0.341105 1.087 255 255 255
0.168516 0.116603 0.474 255 255 255
-0.301323 -0.475928 1.753 255 255 255
-0.425124 0.313242 1.217 255 255 255
-0.0262065 0.104079 0.361 255 255 255
0.0755082 -0.00137873 0.462 255 255 255
-0.0584767 -0.0304019 0.469 255 255 255
0.207317 -0.0404957 0.471 255 255 255
-0.630272 0.116887 1.351 255 255 255
-0.0341905 -0.40473 1.439 255 255 255
-0.856199 -0.592683 1.744 255 255 255
0.161394 0.148191 0.469 255 255 255
0.182292 -0.327513 1.083 255 255 255
0.0447791 0.109478 0.448 255 255 255
-0.155695 -0.491925 1.528 255 255 255
0.177282 -0.0970709 0.569 255 255 255
0.155077 0.049677 0.534 255 255 255
-0.383717 0.444079 1.141 255 255 255
-0.573558 0.361121 1.192 255 255 255
-0.398947 -0.100755 1.48 255 255 255
0.198417 -0.377779 0.972 255 255 255
-0.610255 -0.179905 1.539 255 255 255
0.0608983 -0.0515938 0.454 255 255 255
0.192413 -0.0768213 0.584 255 255 255
0.13631 0.0434308 0.532 255 255 255
-0.645914 -0.118726 1.494 255 255 255
-0.139021 -0.493175 1.509 255 255 255
-0.611469 -0.716147 1.882 255 255 255
0.0776791 0.12146 0.466 255 255 255
-0.646906 -0.0207296 1.442 255 255 255
-0.116957 0.041229 0.526 255 255 255
0.0945647 0.0407568 0.531 255 255 255
-0.0569498 -0.0304019 0.469 255 255 255
-0.590166 0.143207 1.33 255 255 255
0.00963103 -0.0247106 0.477 255 255 255
0.0539396 -0.0940446 0.531 255 255 255
-0.0665392 -0.508381 1.336 255 255 255
0.0981799 0.161464 0.459 255 255 255
0.218264 -0.350061 0.983 255 255 255
-0.111118 0.0956239 0.489 255 255 255
-0.0413452 -0.0121181 0.502 255 255 255
-0.426938 0.401177 1.173 255 255 255
0.0678406 -0.00287615 0.461 255 255 255
-0.648388 0.0892866 1.366 255 255 255
-0.676554 -0.194928 1.559 255 255 255
0.160911 0.0171855 0.551 255 255 255
-0.37875 -0.398556 1.691 255 255 255
-0.408774 -0.0204421 1.422 255 255 255
0.069246 0.0903554 0.504 255 255 255
0.0419691 0.0858021 0.492 255 255 255
-0.0920534 -0.511936 1.393 255 255 255
-0.157798 0.0362304 0.528 255 255 255
-0.649303 0.269277 1.252 255 255 255
-0.522365 0.408531 1.156 255 255 255
0.0527329 -0.0195091 0.503 255 255 255
-0.798027 -0.27539 1.599 255 255 255
-0.0935278 0.0296902 0.534 255 255 255
0.173884 -0.0791188 0.609 255 255 255
0.158354 0.167075 0.458 255 255 255
-0.400135 -0.0134429 1.416 255 255 255
-0.124329 0.0620361 0.514 255 255 255
-0.0828017 -0.47168 1.429 255 255 255
-0.121835 0.0866741 0.497 255 255 255
-0.541404 0.268307 1.257 255 255 255
0.233985 0.00104754 0.552 255 255 255
-0.0486555 0.0307209 0.47 255 255 255
0.192123 -0.0231326 0.493 255 255 255
0.181009 0.0634844 0.526 255 255 255
-0.629488 -0.38434 1.677 255 255 255
-0.0583439 0.0571283 0.515 255 255 255
0.00252651 0.0253534 0.456 255 255 255
-0.601824 0.428473 1.139 255 255 255
-0.455167 0.285487 1.234 255 255 255
-0.139546 0.111196 0.491 255 255 255
0.190518 -0.0311553 0.493 255 255 255
0.0112333 0.0846902 0.448 255 255 255
-0.0405665 -0.0297374 0.483 255 255 255
-0.0132784 0.0946796 0.361 255 255 255
-0.817876 -0.480667 1.729 255 255 255
0.0412699 -0.105456 0.503 255 255 255
0.0472843 -0.0149461 0.515 255 255 255
-0.0490696 -0.0353541 0.474 255 255 255
0.0795942 0.0948983 0.502 255 255 255
0.0554514 0.0761073 0.513 255 255 255
0.0275351 -0.42888 1.262 255 255 255
-0.0566656 -0.0175758 0.473 255 255 255
0.230629 0.0424831 0.542 255 255 255
0.0083348 0.171098 0.449 255 255 255
-0.160788 0.088891 0.505 255 255 255
-0.677492 -0.58988 1.591 255 255 255
0.039486 -0.0374211 0.491 255 255 255
-0.445505 -0.29719 1.633 255 255 255
-0.000422225 0.0871878 0.435 255 255 255
0.118756 0.172977 0.452 255 255 255
-0.442977 0.417496 1.16 255 255 255
-0.873871 -0.563889 1.734 255 255 255
0.186847 -0.293884 1.089 255 255 255
0.175136 0.110793 0.469 255 255 255
-0.250798 -0.24615 1.595 255 255 255
-0.406168 0.422115 1.152 255 255 255
0.156637 0.0932632 0.485 255 255 255
-0.115324 0.117297 0.48 255 255 255
-0.0637608 0.0104129 0.486 255 255 255
-0.749098 -0.401909 1.682 255 255 255
-0.0060393 -0.39029 1.429 255 255 255
0.207521 -0.162092 0.468 255 255 255
-0.615347 0.288194 1.237 255 255 255
-0.849106 -0.300304 1.607 255 255 255
0.00250435 0.160473 0.452 255 255 255
0.163655 -0.0552149 0.597 255 255 255
0.213919 -0.0317922 0.467 255 255 255
0.0361685 0.133972 0.424 255 255 255
-0.044164 -0.0467221 0.488 255 255 255
-0.10034 0.12456 0.472 255 255 255
-0.337452 -0.648527 1.719 255 255 255
0.204925 -0.0911999 0.435 255 255 255
0.210756 0.0594475 0.486 255 255 255
0.19738 0.0581267 0.524 255 255 255
-0.0374742 0.159316 0.455 255 255 255
-0.714545 -0.0935292 1.48 255 255 255
-0.738768 -0.546011 1.696 255 255 255
-0.104403 0.123284 0.473 255 255 255
-0.494332 -0.00430332 1.442 255 255 255
0.126079 0.141286 0.474 255 255 255
0.141372 -0.0981726 0.623 0 0 0
0.0501548 0.089225 0.464 255 255 255
-0.663691 0.0431665 1.384 255 255 255
-0.672481 -0.566036 1.642 255 255 255
-0.728419 -0.608159 1.612 255 255 255
0.0795361 -0.0455688 0.468 255 255 255
-0.274679 -0.215961 1.583 255 255 255
0.0626511 -0.0288171 0.456 255 255 255
0.191463 0.110085 0.466 255 255 255
-0.133572 0.0427777 0.524 255 255 255
-0.0367112 -0.0439763 0.484 255 255 255
0.0385978 0.0331661 0.534 255 255 255
0.206814 -0.0587562 0.458 255 255 255
-0.0638957 -0.0179965 0.464 255 255 255
0.13925 -0.127926 0.656 255 255 255
-0.349459 -0.253936 1.595 255 255 255
0.191706 -0.121546 0.42 255 255 255
-0.537591 0.305333 1.225 255 255 255
0.14894 -0.0213288 0.574 255 255 255
0.128152 0.106894 0.497 255 255 255
0.050741 -0.029799 0.484 255 255 255
-0.887714 -0.627773 1.739 255 255 255
-0.698838 0.0894827 1.369 255 255 255
-0.535216 -0.734199 1.905 255 255 255
0.1657 0.113459 0.477 255 255 255
0.237064 0.0530833 0.493 255 255 255
-0.0935278 0.0314282 0.534 255 255 255
0.150304 -0.162759 0.672 255 255 255
-0.0131001 -0.00489869 0.516 255 255 255
0.210544 0.160402 0.432 255 255 255
-0.491269 -0.203578 1.567 255 255 255
-0.79962 -0.468129 1.714 255 255 255
-0.669085 0.0231611 1.4 255 255 255
0.200641 -0.0479976 0.477 255 255 255
0.00314692 0.088704 0.439 255 255 255
0.177012 0.0546854 0.532 255 255 255
-0.243009 -0.261723 1.595 255 255 255
-0.66082 -0.602795 1.633 255 255 255
0.0420595 0.0597179 0.523 255 255 255
-0.573865 -0.604034 1.821 255 255 255
0.0768157 0.142388 0.47 255 255 255
0.0827598 0.144375 0.469 255 255 255
-0.576855 0.27583 1.254 255 255 255
-0.0147513 0.0663471 0.515 255 255 255
0.0234724 0.0986063 0.445 255 255 255
0.0348217 0.145976 0.433 0 0 0
-0.468863 0.42097 1.154 255 255 255
0.206817 -0.118737 0.408 255 255 255
-0.734419 -0.111209 1.491 255 255 255
0.00471165 0.16415 0.452 255 255 255
-0.0124271 0.0368044 0.46 255 255 255
0.137051 0.102041 0.497 0 0 0
-0.0829416 0.114475 0.478 255 255 255
-0.868226 -0.600572 1.734 255 255 255
-0.122262 0.100398 0.489 255 255 255
0.0271612 -0.0543274 0.485 255 255 255
-0.636679 0.306072 1.22 255 255 255
-0.0346692 -0.0185791 0.5 255 255 255
0.21436 0.0587774 0.487 255 255 255
-0.119572 0.0363676 0.53 255 255 255
-0.55318 -0.258478 1.591 255 255 255
0.156479 0.152445 0.468 255 255 255
0.216787 -0.0301426 0.465 255 255 255
0.181024 -0.0943516 0.575 255 255 255
0.00100082 0.0927785 0.438 255 255 255
0.0122668 0.113563 0.433 255 255 255
-0.678326 -0.32198 1.624 255 255 255
0.114602 0.156764 0.465 255 255 255
-0.802574 -0.316695 1.624 255 255 255
0.211087 -0.0941657 0.426 255 255 255
-0.307399 -0.202568 1.579 255 255 255
0.0700739 0.111433 0.456 255 255 255
-0.0951632 0.157152 0.473 255 255 255
-0.0999204 0.0672308 0.509 255 255 255
-0.651341 0.271315 1.252 255 255 255
0.0973774 0.100416 0.501 255 255 255
-0.158672 -0.542288 1.509 255 255 255
-0.151964 0.0918132 0.503 255 255 255
0.189776 -0.123377 0.506 255 255 255
-0.321298 -0.475928 1.753 255 255 255
0.198656 -0.133625 0.397 255 255 255
0.177586 0.0448794 0.539 255 255 255
0.197797 0.0595267 0.514 255 255 255
0.0528008 0.00975783 0.537 255 255 255
0.202568 -0.28534 1.051 255 255 255
0.185394 -0.0741908 0.466 255 255 255
-0.053414 0.168564 0.452 255 255 255
0.142224 0.134202 0.479 255 255 255
-0.386139 -0.657468 1.789 255 255 255
-0.772664 -0.261723 1.595 255 255 255
-0.0366354 -0.0399554 0.483 255 255 255
-0.667093 -0.291467 1.616 255 255 255
-0.0251175 0.0811736 0.346 255 255 255
0.038582 -0.0307841 0.5 255 255 255
0.0377972 -0.0511175 0.47 255 255 255
0.16316 -0.00628332 0.565 255 255 255
-0.376888 0.421271 1.16 255 255 255
0.0420209 0.115204 0.442 255 255 255
-0.484556 0.318506 1.222 255 255 255
-0.621426 0.250415 1.27 255 255 255
-0.126242 0.104377 0.489 255 255 255
-0.0364871 0.0650324 0.347 255 255 255
0.0546947 0.0026071 0.506 255 255 255
0.176268 0.140107 0.46 255 255 255
-0.620406 -0.0159585 1.435 255 255 255
-0.723521 -0.0372331 1.445 255 255 255
-0.0995839 0.0952159 0.491 255 255 255
-0.725382 -0.447558 1.71 255 255 255
-0.23436 -0.519607 1.682 255 255 255
0.126137 0.0197672 0.548 255 255 255
-0.603961 -0.304616 1.616 255 255 255
0.0449749 0.133458 0.429 255 255 255
-0.229238 -0.473995 1.705 255 255 255
0.202339 -0.0994792 0.431 255 255 255
0.179721 -0.0914596 0.612 255 255 255
-0.567851 -0.0818724 1.487 255 255 255
0.247458 0.0181806 0.554 255 255 255
0.143608 0.0644627 0.527 255 255 255
-0.622437 0.367951 1.189 255 255 255
0.235886 0.0348 0.546 255 255 255
0.0768157 0.141623 0.47 255 255 255
0.17472 -0.0713056 0.472 255 255 255
-0.145928 -0.314861 1.642 255 255 255
-0.516371 -0.401909 1.682 255 255 255
-0.00967173 0.102523 0.437 255 255 255
-0.688018 -0.470918 1.714 255 255 255
0.178821 -0.0272148 0.58 255 255 255
-0.809068 -0.377515 1.659 255 255 255
0.206667 0.0707238 0.482 0 0 0
0.091894 0.152224 0.465 255 255 255
-0.20685 -0.334319 1.659 255 255 255
0.1063 -0.00350004 0.561 255 255 255
0.226198 0.120814 0.455 255 255 255
0.130759 0.137523 0.477 255 255 255
-0.643824 -0.232587 1.591 255 255 255
-0.00612338 0.104724 0.392 255 255 255
-0.47438 -0.605693 1.826 255 255 255
-0.516431 0.42215 1.147 255 255 255
-0.739544 -0.0957432 1.477 255 255 255
-0.0793605 -0.366184 1.543 255 255 255
0.226943 -0.00712627 0.559 255 255 255
-0.689209 -0.0232362 1.452 255 255 255
-0.52957 -0.121806 1.502 255 255 255
-0.115511 0.0659606 0.512 255 255 255
0.0629669 0.0786118 0.513 255 255 255
-0.800989 -0.596027 1.729 255 255 255
0.20443 0.0746859 0.402 255 255 255
0.132666 0.147742 0.47 255 255 255
-0.426403 0.316681 1.215 255 255 255
0.048122 -0.0623998 0.452 0 0 0
0.0191261 0.0949854 0.445 255 255 255
-0.131764 -0.212463 1.539 255 255 255
-0.0196276 0.00762225 0.511 255 255 255
-0.466403 -0.0718532 1.48 255 255 255
0.207997 0.166237 0.44 255 255 255
0.0498254 -0.0425225 0.468 0 0 0
0.205551 -0.0779136 0.444 255 255 255
0.085112 -0.0905911 0.526 255 255 255
0.0259911 -0.100993 0.478 255 255 255
-0.563237 -0.529211 1.769 255 255 255
-0.00101599 0.127363 0.391 255 255 255
-0.107166 0.0704054 0.508 255 255 255
-0.360633 -0.337056 1.646 255 255 255
-0.567872 0.185657 1.294 255 255 255
0.0113586 0.00749428 0.453 255 255 255
0.186354 0.16855 0.45 255 255 255
0.172859 0.0765307 0.484 0 0 0
0.10618 0.0861124 0.508 255 255 255
0.167409 -0.0311505 0.583 255 255 255
0.0563849 0.0049369 0.492 255 255 255
-0.629189 -0.315915 1.62 255 255 255
0.133309 0.0750181 0.517 255 255 255
0.0131215 0.104183 0.438 255 255 255
-0.576893 0.3253 1.203 255 255 255
0.198098 -0.0433671 0.486 255 255 255
0.172592 -0.0450425 0.591 255 255 255
-0.680352 0.154548 1.316 255 255 255
0.189859 -0.0320442 0.582 255 255 255
0.213319 0.0315892 0.552 255 255 255
0.0241968 0.157263 0.445 255 255 255
0.224423 -0.342452 0.975 255 255 255
-0.445788 0.35514 1.198 255 255 255
-0.156988 0.0717751 0.506 255 255 255
0.0912625 0.0545069 0.522 255 255 255
0.104346 0.0179181 0.546 255 255 255
0.0236569 -0.0955479 0.478 255 255 255
-0.122841 0.116941 0.485 255 255 255
-0.0579154 -0.479165 1.39 255 255 255
-0.666081 -0.511164 1.646 255 255 255
-0.245605 -0.24615 1.595 255 255 255
-0.0447741 -0.0228042 0.486 255 255 255
-0.781699 -0.113102 1.484 255 255 255
-0.0253422 0.16196 0.45 255 255 255
-0.062469 -0.506296 1.342 255 255 255
0.0290561 0.0930071 0.453 255 255 255
-0.0649603 0.0416849 0.521 255 255 255
-0.766869 -0.412315 1.691 255 255 255
0.151099 -0.370503 1.05 255 255 255
0.097911 0.0828057 0.508 255 255 255
-0.364796 0.394638 1.182 255 255 255
-0.668487 -0.437447 1.714 255 255 255
-0.617812 0.000386381 1.429 255 255 255
0.0542017 -0.0239834 0.494 255 255 255
-0.605993 0.405946 1.154 255 255 255
-0.31448 -0.506147 1.779 255 255 255
0.190323 -0.0829876 0.456 255 255 255
0.123877 0.0490258 0.527 255 255 255
0.0626106 -0.422708 1.187 255 255 255
0.207306 -0.00720276 0.565 255 255 255
-0.126322 0.0313693 0.533 255 255 255
-0.0156723 0.0990655 0.362 255 255 255
-0.196387 -0.581607 1.535 255 255 255
0.0805558 0.131258 0.474 255 255 255
-0.0211038 -0.445934 1.351 255 255 255
0.187262 -0.0320873 0.495 255 255 255
0.181102 -0.0363338 0.498 255 255 255
-0.890544 -0.633433 1.739 255 255 255
