ply
format ascii 1.0
comment Created by Open3D
element vertex 1338
property double x
property double y
property double z
property uchar red
property uchar green
property uchar blue
end_header
-0.585787 -0.796787 2.085 148 143 139
0.18167 0.239513 1.563 6 7 3
-0.0751539 -0.137386 2.356 126 116 114
-0.478717 0.48886 2.459 103 100 95
0.127304 0.337892 1.583 3 7 2
-0.0582995 -0.568324 2.158 140 135 131
-0.621623 0.679652 1.739 111 109 101
0.694462 -0.0667899 3.198 54 54 48
-0.610221 -0.767979 2.099 146 145 145
0.249084 -0.00450327 1.509 10 11 5
0.721805 -0.321587 2.572 79 74 72
-0.419991 -0.127296 2.312 138 129 122
0.00142804 -0.780909 2.173 22 25 28
-0.255962 -0.6797 2.166 149 144 142
-0.0918256 0.652919 2.121 115 108 102
0.784627 -0.057263 3.248 29 31 18
-0.355866 0.650869 1.959 115 111 102
-0.954836 -0.133305 2.286 137 130 122
-0.086445 -0.0593591 2.459 123 113 111
-0.745661 -0.399651 2.196 136 134 126
-1.17373 0.0119999 2.329 123 123 117
0.0213748 0.261648 2.43 112 102 102
1.24409 -0.183785 2.519 140 141 130
-0.4598 0.164821 2.402 130 120 120
0.407755 0.124462 1.412 183 183 187
0.230192 -0.524061 2.303 147 137 137
-0.445873 0.694751 1.831 119 119 113
0.0894129 -0.423312 2.347 139 129 127
-0.734314 -0.420218 2.173 133 134 125
-0.0794844 -0.540259 2.261 142 132 130
0.268925 -0.0739894 1.524 31 31 27
1.06455 -0.641627 2.392 175 173 165
-0.0768887 0.467763 2.54 123 115 114
-0.758729 0.107576 2.347 127 125 117
0.204488 0.418187 1.07 15 15 17
-1.09339 0.349842 2.411 123 115 112
1.15911 -0.115851 2.469 137 138 132
-0.477797 0.6598 1.911 117 114 109
-0.299236 0.605275 2.173 124 117 109
-0.595106 -0.703868 2.143 145 145 141
0.826814 -0.609093 2.449 54 53 53
0.410016 0.301679 0.908 153 164 162
0.785337 -0.642192 2.469 25 51 53
0.506744 0.118963 1.375 208 210 216
-0.590629 -0.0795716 2.347 136 128 125
0.0354335 0.526353 1.624 4 9 0
-0.897875 0.129102 2.392 126 122 113
-0.00712544 0.62327 1.686 66 59 49
0.446791 0.219865 1.046 196 204 205
-0.388019 -0.687665 2.136 155 148 142
-0.27458 -0.175726 2.356 130 118 116
1.17248 -0.895639 2.374 179 183 176
0.0331047 0.488983 2.42 122 118 109
0.396643 0.278497 0.977 138 146 145
0.0946635 -0.135083 2.383 126 116 116
0.411905 -0.260074 2.356 136 126 124
-0.0486021 -0.674819 2.196 147 137 135
-0.642666 0.628701 1.911 107 108 102
0.371808 0.310634 1.096 68 79 75
-1.01093 0.47787 2.365 112 110 98
-0.622808 -0.39752 2.204 144 135 138
0.11818 0.15916 1.599 11 12 8
0.849472 -0.499328 2.604 66 66 68
0.943701 -0.928483 2.572 45 54 64
0.953576 -0.197501 2.707 5 7 0
-0.938376 -0.716046 2.107 137 137 133
-0.0264034 -0.00333672 2.459 122 112 110
0.408954 -0.721276 2.196 163 158 154
1.11874 -0.914546 2.383 187 187 181
-0.00931464 -0.662931 2.204 147 138 133
0.427874 0.287867 0.875 170 178 175
-0.476323 -0.582371 2.158 149 145 138
-1.23336 0.449213 2.356 110 108 100
-0.574077 -0.614068 2.196 143 140 137
-0.722012 -0.0555934 2.303 132 127 123
0.375019 -0.608513 2.228 153 145 144
-0.338699 0.442169 2.489 127 119 116
0.290981 0.376956 1.33 20 26 26
0.154068 -0.214337 2.402 131 122 117
-0.889899 0.454075 2.402 119 116 111
0.516805 0.118704 1.372 203 208 215
0.108099 -0.398861 2.338 138 130 127
1.1515 -0.678112 2.411 168 169 163
-0.319979 0.629537 2.078 117 114 109
-0.141983 0.600916 2.32 113 111 103
-0.585159 0.121204 2.469 129 125 118
0.998128 -0.309031 2.572 67 69 58
0.164261 0.409917 1.104 12 13 2
0.0973019 0.620365 1.642 0 4 0
-0.678763 -0.62416 2.121 142 139 136
0.487848 0.225319 1.032 105 112 116
1.0105 -0.36219 2.593 40 42 33
-1.16216 -0.158357 2.22 131 129 121
-0.38942 0.000649466 2.402 124 115 110
0.574745 -0.0768368 2.982 63 56 50
0.338353 0.353753 1.227 41 45 38
-1.21443 0.254724 2.402 119 124 114
0.157826 0.396138 1.579 1 5 0
-0.739627 -0.00318475 2.347 138 136 128
-0.704426 -0.538198 2.136 138 139 128
-0.0446429 -0.172549 2.365 129 119 119
0.436021 -0.561655 2.383 154 144 142
0.468817 -0.275726 2.392 135 127 124
-0.854845 -0.793286 2.121 135 140 130
0.449594 -0.706496 2.151 162 156 158
-0.642056 0.377307 2.411 128 122 124
-0.443029 -0.411244 2.22 139 132 126
-0.832053 -0.551464 2.107 141 134 124
-0.93178 0.389787 2.44 127 123 114
0.433538 -0.827322 2.212 171 165 167
0.382683 0.143498 1.396 155 161 163
1.00227 -0.452531 2.509 47 44 39
-0.762274 -0.796787 2.085 139 140 136
0.707037 -0.264239 2.626 53 52 54
0.0648883 -0.817167 2.166 57 57 61
-0.118949 0.302008 2.469 112 101 94
-0.357515 0.391983 2.479 128 120 117
0.976506 -0.424283 2.638 7 15 12
-0.370939 -0.814148 2.158 157 153 144
-0.135863 -0.591878 2.22 140 130 130
-1.21898 0.38123 2.411 119 124 114
1.11178 -0.197798 2.489 140 141 132
-0.597216 0.177454 2.469 130 121 114
-0.776509 0.360263 2.402 127 123 112
-0.0911857 -0.184795 2.374 126 117 112
-0.0651344 0.561711 2.411 108 103 99
0.39549 -0.19219 2.469 131 121 119
-0.685151 0.66923 1.779 109 119 107
-0.687785 0.217252 2.42 127 120 112
-0.914494 -0.14339 2.269 127 128 115
-0.384324 -0.159778 2.347 137 127 125
0.401897 -0.219064 2.411 134 126 123
-0.913045 -0.527771 2.136 131 131 127
-0.0511694 -0.319178 2.312 131 123 122
-0.476155 -0.0865414 2.329 139 131 130
0.476466 -0.262222 2.411 131 123 120
1.13622 -0.831982 2.347 178 181 180
-0.617044 0.529054 2.303 119 116 113
-1.07758 0.274269 2.402 121 123 114
0.715192 -0.792418 2.449 89 95 97
-0.729271 -0.773822 2.078 149 146 141
-0.608768 -0.170505 2.286 135 127 124
0.801558 0.0376789 3.231 51 52 46
-0.148401 0.708773 1.876 120 115 111
-1.08203 -0.250468 2.204 129 129 123
-0.738511 -0.392504 2.196 136 128 125
0.408867 -0.232031 2.383 135 127 126
-0.65092 -0.574836 2.143 139 138 138
-0.977938 -0.204582 2.212 129 125 114
-0.0691138 0.678789 1.966 106 102 93
-0.727178 0.414159 2.42 126 122 113
0.678228 -0.401045 2.519 42 41 41
0.696878 -0.254043 3.071 24 25 14
0.460812 -0.596674 2.294 155 146 149
0.562302 0.129211 1.342 171 174 177
1.21959 -0.79433 2.383 176 180 175
-0.421876 -0.811309 2.114 165 158 150
1.08908 -0.0737147 2.54 141 139 131
-0.112638 -0.254282 2.338 130 120 120
-0.17138 -0.586145 2.212 139 128 132
-0.193119 -0.742011 2.173 146 138 135
-0.732058 0.621317 1.917 109 110 99
0.524348 0.161375 1.237 106 113 117
0.105899 -0.312284 2.374 137 128 121
0.997976 -0.269739 2.638 14 22 19
-0.951755 -0.179679 2.261 131 124 116
-0.762632 0.260571 2.42 127 123 116
-0.826144 0.347016 2.365 127 125 117
0.993087 0.0502973 2.768 74 72 62
0.497327 0.100114 1.459 209 214 219
-0.802263 0.586354 2.057 109 110 106
-0.715643 -0.615831 2.128 139 135 138
0.00552965 -0.184438 2.42 131 120 115
0.162078 -0.525746 2.294 144 139 137
0.419994 0.13637 1.348 198 197 201
-0.557025 0.285937 2.469 127 119 118
-0.887861 0.64028 1.779 100 107 101
0.443779 -0.565533 2.383 152 144 141
1.03854 -0.372995 2.469 155 156 145
1.22481 -0.271047 2.53 152 153 142
0.134466 0.484231 1.607 2 7 0
-0.567447 0.64173 1.941 112 112 106
1.20734 -0.34487 2.469 149 150 144
0.376615 0.226524 1.178 147 143 144
-0.439305 -0.697324 2.166 155 147 146
0.722887 -0.328547 2.561 81 68 72
0.236764 0.382589 1.124 6 11 1
0.281329 0.161615 1.524 8 10 1
0.623533 -0.579833 2.53 16 22 20
0.0615608 -0.696041 2.173 139 131 128
0.404938 0.310738 0.9 151 162 162
-0.407496 0.135663 2.44 127 119 118
-1.2072 0.294914 2.411 115 116 112
0.330738 0.408266 1.09 0 11 0
-0.389374 0.570276 2.244 114 110 115
1.10739 -0.672768 2.392 172 172 166
0.108038 0.56911 1.603 3 4 0
-0.00646751 0.405715 2.489 147 142 138
-0.665968 -0.258878 2.278 135 130 126
-0.0128145 -0.715415 2.189 126 120 122
0.322528 -0.139063 2.32 73 62 66
0.353221 -0.401139 2.374 144 136 133
1.35141 0.112797 2.649 124 124 120
0.170069 -0.670104 2.204 154 143 147
-1.14049 0.27922 2.411 119 120 107
0.337764 -0.420455 2.374 144 136 135
0.794165 -0.831668 2.459 37 57 72
0.37518 0.376398 1.07 56 61 47
0.280157 0.381285 1.33 13 17 12
0.985948 -0.567482 2.53 9 15 15
1.08074 -0.570042 2.402 168 167 167
-1.07936 0.516556 2.128 98 100 89
-0.0843787 -0.391354 2.294 137 128 123
-0.392244 0.466741 2.469 121 116 112
0.743696 0.0223798 3.301 59 60 51
0.130006 0.636813 1.65 1 5 0
0.0792469 -0.784446 2.173 62 62 64
0.95434 -0.323933 2.66 5 16 14
0.361677 0.157285 1.439 98 94 95
-0.866478 -0.757732 2.099 131 133 124
0.362832 -0.671356 2.22 162 149 153
-0.104123 0.423612 2.499 125 117 116
-0.857725 -0.411118 2.181 134 132 124
-0.937658 0.626219 1.831 95 108 103
-0.499288 -0.545478 2.151 146 140 142
-0.207216 -0.618146 2.136 140 134 136
1.02648 -0.204244 2.469 144 145 139
-0.0555737 -0.629922 2.189 149 137 137
-0.312666 -0.339004 2.244 133 127 129
1.08594 -0.820315 2.449 167 166 166
0.394307 0.135214 1.381 175 171 174
-0.302577 -0.0647873 2.365 129 121 118
0.715587 -0.272785 2.626 61 55 59
-1.02081 -0.424341 2.158 134 132 122
0.902236 -0.155539 2.911 6 6 0
0.0687252 0.362124 1.599 9 10 6
1.11783 -0.338091 2.449 155 156 152
-0.537412 -0.0801818 2.365 136 129 123
-0.458398 0.339539 2.479 126 121 117
-0.356493 -0.642741 2.114 153 147 149
0.35316 0.396211 1.116 2 6 0
-0.426116 0.420222 2.479 106 99 93
-0.607719 0.643295 1.899 110 111 105
1.22837 -0.491496 2.479 163 160 155
0.577665 0.161407 1.222 158 161 162
-0.42513 -0.034257 2.383 136 126 126
-0.297876 -0.494557 2.189 142 134 131
-0.523862 0.529727 2.356 122 117 113
-0.655027 0.439596 2.43 121 111 109
-0.253252 0.608811 2.173 130 122 121
-0.375258 -0.376 2.204 104 98 83
-0.412427 -0.490942 2.173 148 141 135
-0.604241 -0.195084 2.269 136 127 122
-0.87556 -0.796738 2.121 137 138 132
-0.796988 -0.0930708 2.303 130 123 117
0.712825 -0.391988 2.54 61 61 63
-0.446695 0.144723 2.459 135 125 125
-0.555955 -0.475004 2.181 141 133 130
1.16284 -0.659945 2.402 169 165 166
-1.0819 0.472838 2.303 107 105 97
-0.869178 0.656597 1.753 96 104 103
0.439169 0.260855 0.942 150 158 159
0.211115 0.218043 1.555 4 8 3
-0.71082 0.530107 2.244 116 112 103
0.00921852 -0.317584 2.356 136 126 126
1.16445 -0.303109 2.489 146 143 138
0.377174 0.22912 1.162 153 154 148
0.512866 -0.671311 2.244 159 149 149
-0.887518 -0.248674 2.22 132 129 124
-0.156977 -0.560947 2.212 139 128 132
-0.734641 -0.634121 2.143 140 140 136
0.257584 -0.375514 2.383 141 132 135
1.11874 -0.910668 2.383 187 187 181
-0.574486 0.671947 1.842 114 115 111
0.269447 0.106281 1.513 6 7 1
-0.799989 0.00447101 2.356 138 131 125
-0.165492 -0.705045 2.136 147 138 133
1.18133 -0.0196578 2.499 133 134 123
-0.768389 0.656595 1.784 102 115 112
-0.295698 -0.731403 2.173 136 132 133
-0.730646 0.668949 1.763 115 118 119
0.144607 0.225974 1.575 6 7 1
0.257063 0.406226 1.057 10 15 3
1.25862 -0.296193 2.499 143 144 131
0.247858 -0.142285 2.44 130 120 118
-0.761896 -0.251377 2.212 132 128 119
0.212423 -0.00704653 1.528 8 9 5
-0.0988537 0.370312 2.469 115 107 106
0.489267 0.173605 1.21 192 199 203
-0.471046 0.131692 2.44 133 124 115
-0.692786 0.260465 2.383 126 123 120
0.213122 -0.634238 2.204 156 147 142
0.563518 0.149665 1.257 128 136 133
-0.249564 0.425967 2.489 123 115 114
-0.692781 -0.445803 2.143 140 138 130
0.308393 0.365734 1.227 8 13 18
0.593408 -0.642591 2.44 14 11 6
1.19113 -0.853757 2.365 181 187 185
-0.782004 0.34578 2.383 128 124 113
-0.932954 -0.0994745 2.278 125 126 117
-1.03438 -0.544774 2.121 130 134 129
-0.209462 -0.571184 2.196 138 130 129
0.444787 0.196792 1.118 198 204 204
1.03769 -0.646724 2.411 161 159 147
-0.696665 0.116982 2.383 131 121 119
-0.31848 -0.656382 2.136 153 147 149
1.2696 0.149841 2.695 120 119 104
0.760271 -0.636725 2.479 58 47 51
-0.264234 -0.337795 2.236 138 130 127
-0.461948 -0.561666 2.173 150 145 143
-0.499102 -0.266292 2.278 139 134 132
0.47188 0.184528 1.167 200 205 210
0.252707 -0.0563318 1.516 15 16 10
0.277008 0.349276 1.357 11 25 45
-0.344214 -0.420561 2.212 147 136 140
-0.0406033 0.609648 2.151 111 107 98
-0.635384 -0.0221106 2.329 126 121 119
-0.586208 -0.499963 2.136 143 137 139
-0.843568 -0.24957 2.228 132 128 121
0.549573 -0.642361 2.338 85 76 81
0.289529 0.176959 1.528 9 9 3
-1.10269 -0.325937 2.181 124 124 118
-0.681148 0.497019 2.383 122 118 111
-0.384324 -0.1445 2.347 137 127 125
-1.21505 0.396924 2.411 113 117 110
-0.0378025 0.551993 2.42 106 104 92
-0.692079 0.62586 1.893 109 110 101
-0.379583 0.620676 2.071 117 117 111
0.356577 0.206238 1.278 154 155 151
0.466565 0.244174 0.967 193 204 204
-1.0807 0.473242 2.269 106 99 91
0.201427 0.000416123 1.539 9 10 4
-0.520649 -0.33057 2.212 131 119 117
-0.522984 -0.239393 2.269 137 129 128
0.141683 0.110356 1.571 8 12 5
0.729071 -0.674335 2.469 64 70 72
-0.161661 -0.262585 2.278 129 119 119
1.2594 -0.0283583 2.55 133 132 117
0.509209 -0.688278 2.228 160 152 149
0.68609 -0.679607 2.459 77 88 84
-0.0664311 0.104707 2.459 122 112 110
0.288357 -0.047046 1.535 35 29 31
-1.17269 0.463398 2.312 98 105 99
-0.0724676 0.515327 2.53 121 114 108
0.285775 0.392581 1.081 4 12 1
0.778154 -0.855678 2.459 63 81 88
-0.980367 -0.086207 2.32 129 125 116
-1.22952 0.203838 2.356 123 122 122
-0.664135 0.211885 2.449 127 123 116
0.505277 0.232978 1 122 135 132
0.0371897 -0.614068 2.196 160 156 159
-0.767392 -0.522044 2.099 139 137 127
-0.628833 -0.0490168 2.347 132 129 124
0.586355 -0.658494 2.411 13 13 7
0.668785 -0.678353 2.469 71 87 78
-0.66586 -0.318614 2.204 137 132 130
-0.184236 -0.226773 2.329 125 117 114
-0.99925 -0.0484529 2.32 118 119 110
-0.0755516 0.709858 1.887 77 70 60
1.24991 0.0690839 2.626 129 126 112
-0.567306 -0.261548 2.269 137 129 128
-0.734007 0.612029 1.947 111 109 101
-0.949313 -0.619556 2.071 135 137 128
-0.116326 0.289411 2.499 111 101 99
0.0673629 0.586293 1.629 3 4 0
-0.615322 -0.202469 2.269 138 129 124
0.358094 0.187523 1.322 132 132 126
-0.742019 -0.256821 2.228 133 128 126
-0.827339 0.27036 2.402 125 121 114
-1.05076 -0.759464 2.085 134 138 131
0.426659 0.304695 0.839 193 204 202
0.200543 0.368136 1.378 12 24 38
1.0266 -0.269618 2.479 102 99 85
-1.03286 0.485922 2.294 102 103 92
0.980392 -0.277564 2.672 5 16 14
0.297911 0.109247 1.52 12 12 12
0.278241 0.378899 1.244 2 15 14
-1.06976 0.223454 2.402 122 122 116
0.0191141 -0.734939 2.173 51 63 65
-0.162498 -0.0993752 2.459 123 114 109
0.196386 -0.270539 2.347 132 123 126
0.992664 0.101181 2.805 73 68 66
0.880491 -0.186106 2.871 9 9 5
-0.898431 -0.0852409 2.294 130 126 115
0.439806 0.256887 0.95 159 170 168
-0.339341 -0.819752 2.136 158 155 152
0.147171 0.497656 1.575 1 5 0
-0.433469 0.531751 2.365 119 116 111
0.559918 0.104297 1.419 206 211 216
-0.683106 0.622482 1.911 118 110 96
-0.911765 -0.478786 2.166 138 131 121
-0.825339 0.537634 2.143 114 110 103
-0.52685 -0.689739 2.121 149 145 146
-0.309847 -0.575811 2.173 135 125 123
0.368901 0.347445 1.072 69 73 66
0.239784 0.184418 1.528 6 7 1
-0.00223537 -0.250476 2.303 131 121 119
0.912006 0.137579 3.231 21 26 14
-0.46317 -0.804429 2.114 154 149 145
-0.956562 0.291489 2.383 119 120 111
0.933505 -0.837764 2.489 37 50 61
-1.0337 -0.783967 2.078 133 138 128
0.354108 -0.533767 2.329 152 144 143
1.02264 -0.679798 2.489 40 48 47
-1.18662 0.462775 2.347 105 107 98
0.375399 -0.475073 2.32 146 138 135
-0.354685 -0.746671 2.166 155 152 149
0.506378 0.226847 1.039 121 135 141
-0.319376 -0.0451975 2.347 134 123 118
0.0319829 -0.429298 2.338 140 128 126
-0.81325 0.435642 2.43 112 107 103
-0.00646751 0.393564 2.489 134 127 117
-1.03521 -0.199529 2.196 124 126 117
-0.630415 0.35711 2.489 130 121 112
0.624277 0.0991533 1.445 183 189 191
-0.760559 -0.737237 2.099 139 140 136
0.374808 0.381213 1.064 54 56 40
0.281016 0.0568877 1.509 9 13 6
-0.398729 0.149744 2.411 121 111 111
-0.0500407 -0.485068 2.261 138 130 129
-0.731986 0.00445394 2.347 139 136 131
0.433036 0.265454 0.942 149 158 151
-0.877648 0.575354 2.03 110 110 104
0.500176 -0.738475 2.173 165 160 156
0.0379471 -0.0154663 2.479 122 114 111
-0.0228561 0.355897 2.509 109 100 93
-0.383102 -0.768201 2.128 154 152 144
-0.649464 0.153347 2.469 131 123 122
-0.160578 -0.568147 2.212 139 131 130
1.24819 -0.183785 2.519 137 138 127
-1.14447 0.494057 2.166 100 108 97
-0.952683 0.338024 2.383 123 116 108
-0.315882 0.261829 2.469 111 104 96
0.601991 -0.46191 2.561 11 18 12
1.10437 -0.13406 2.509 139 140 131
-0.558378 -0.156556 2.356 134 129 125
0.382755 0.350272 1.034 74 79 67
-0.717673 -0.190871 2.22 130 125 121
0.303284 -0.518183 2.261 149 139 139
0.168107 0.365303 1.579 0 7 1
0.399876 0.328097 0.843 138 149 145
0.17632 -0.0126411 1.607 50 40 40
-0.923512 -0.0145305 2.329 138 135 132
0.225138 0.206851 1.547 4 8 3
1.04191 -0.679501 2.43 140 138 128
0.436103 0.103856 1.445 200 203 206
0.121357 -0.304557 2.374 135 125 125
0.383865 0.31585 1.037 76 78 67
0.130934 -0.0906805 2.338 126 117 112
0.215197 -0.216835 2.43 129 122 114
-1.04741 -0.164378 2.253 125 122 119
0.634105 0.165668 1.239 127 128 119
0.485253 -0.602034 2.286 156 147 142
-0.838913 -0.565179 2.107 136 137 126
-0.0807043 0.502975 2.53 121 113 110
0.2294 0.389412 1.265 13 8 4
-0.823429 0.239089 2.402 137 130 122
1.19078 -0.257571 2.519 148 146 138
-0.33122 -0.783504 2.151 158 155 150
-0.666012 -0.453708 2.181 144 137 131
0.396921 0.186331 1.229 177 176 176
-0.102779 -0.196385 2.374 124 114 112
0.347806 0.292274 1.165 86 82 71
0.905909 -0.766746 2.469 53 52 56
-0.848582 -0.580818 2.114 136 136 130
-0.296453 0.111395 2.347 118 108 106
0.565891 0.186107 1.165 86 97 97
1.14632 -0.735049 2.392 175 175 171
0.0373501 -0.118461 2.44 128 116 114
0.373066 0.293525 1.079 83 84 75
1.04503 -0.550021 2.383 161 163 152
-0.227463 0.189508 2.469 115 106 109
0.511865 -0.556915 2.43 156 146 146
-0.993112 -0.687463 2.114 136 138 129
-0.435654 0.173166 2.356 130 123 115
0.0306116 0.166023 2.54 114 106 105
-0.379041 0.653219 1.947 118 114 103
-0.329707 0.703448 1.815 118 118 114
-0.225735 0.705375 1.859 127 124 119
-0.94319 0.423107 2.449 121 117 118
0.410599 0.27194 0.954 134 140 138
0.0413584 -0.532374 2.228 139 132 141
0.387804 0.306523 1.034 85 92 84
0.813354 -0.288724 2.695 44 44 46
-0.0631623 -0.22765 2.338 128 117 121
1.00621 -0.348048 2.582 51 49 39
-0.410395 0.572012 2.181 115 115 115
-0.918249 -0.462653 2.173 135 133 123
-1.13539 0.253664 2.392 120 121 112
-0.387269 -0.300033 2.253 141 133 130
-1.01469 0.238094 2.392 119 120 116
-1.0781 -0.288869 2.196 124 125 121
-0.60367 0.141865 2.479 128 124 117
0.493692 0.136267 1.305 182 188 190
0.207965 0.307346 1.429 24 18 24
-0.0926547 0.480292 2.519 119 110 105
-0.418435 -0.814749 2.114 165 158 150
0.547759 -0.469607 2.449 43 34 41
-0.542317 -0.666822 2.114 144 143 143
0.0761509 0.269695 1.591 127 121 123
-0.274881 0.132994 2.392 115 105 105
0.390139 0.20084 1.208 164 164 168
-0.302928 -0.258087 2.338 138 129 122
-0.978938 0.609127 1.87 94 100 102
0.152272 -0.0882135 2.374 128 118 116
0.0592786 -0.599103 2.22 157 152 160
-0.638273 0.527359 2.312 119 117 109
1.1604 -0.201848 2.489 136 137 124
-0.0591384 0.268001 2.489 109 101 98
0.418341 -0.847217 2.189 170 162 159
0.445127 0.265669 0.932 147 160 157
1.26366 -0.199387 2.509 133 128 126
0.923783 0.0422724 3.181 17 19 10
0.531274 -0.226197 2.582 33 24 27
0.200922 0.387825 1.118 4 12 1
0.385547 0.212743 1.176 140 144 139
-0.430631 -0.337769 2.212 123 118 114
0.465743 0.237623 0.999 200 207 201
1.15911 -0.553799 2.469 161 159 149
-0.282436 0.700494 1.815 122 122 122
0.687272 0.142573 1.387 210 219 231
0.307706 -0.328921 2.411 142 132 130
-0.674181 -0.356567 2.173 148 141 135
-0.941356 0.0779075 2.374 126 124 116
-1.23037 0.216163 2.365 119 122 121
0.174656 0.41458 1.524 1 5 0
0.750459 -0.2195 3.149 24 25 12
1.0145 -0.503598 2.479 109 109 103
-0.995585 0.0615073 2.338 124 121 118
0.903212 -0.670385 2.44 26 38 42
-1.05429 -0.744992 2.092 129 134 122
-0.791133 0.634813 1.865 104 113 106
-0.381065 -0.764137 2.136 156 152 143
0.48824 -0.556484 2.411 153 146 140
-0.12412 -0.623478 2.204 142 134 133
-0.986347 -0.79073 2.078 139 138 138
0.993979 -0.470523 2.54 5 15 3
1.19352 0.100732 2.672 126 127 116
-0.254189 -0.759002 2.151 151 145 147
-0.147677 -0.680857 2.181 144 135 138
0.682087 -0.771644 2.459 67 69 75
-0.751756 0.660545 1.779 110 120 108
0.847762 -0.576795 2.499 19 20 11
0.490886 0.23813 0.981 138 152 143
-0.945942 -0.629667 2.071 134 133 133
0.678326 0.146132 1.378 199 209 216
-0.706384 -0.544774 2.121 141 141 137
0.111474 -0.191599 2.411 130 120 118
0.266444 0.159135 1.524 8 10 1
0.0191141 -0.720794 2.173 88 96 95
0.220101 -0.0902109 1.547 48 37 43
-0.311354 -0.319496 2.261 139 132 126
0.234967 0.0348792 1.513 7 11 6
0.927998 -0.361798 2.684 26 46 57
0.793082 -0.0311674 3.283 41 40 25
-1.02667 0.436159 2.411 95 100 88
0.217399 0.383263 1.232 37 16 1
0.410046 0.311736 0.847 142 155 154
0.0512083 -0.415674 2.347 139 129 127
-0.856701 -0.149712 2.253 121 116 114
-0.473012 0.586457 2.143 119 117 107
-0.811897 -0.209114 2.261 129 125 118
-0.760559 -0.754316 2.099 134 130 123
0.378646 -0.746289 2.228 164 154 154
-1.02431 -0.496487 2.136 139 135 124
1.10349 -0.676661 2.392 169 171 162
0.116997 0.314708 1.583 3 8 0
-0.366212 -0.238143 2.329 134 126 123
0.360643 0.242122 1.208 115 115 111
0.465896 0.190033 1.143 202 208 206
0.605722 0.158621 1.247 121 113 112
-0.4087 0.184982 2.312 131 122 117
-0.905662 0.456078 2.392 112 112 106
1.05461 -0.272548 2.469 112 113 102
-0.530214 0.0754789 2.42 132 127 123
0.0985425 -0.162228 2.383 129 119 117
0.899282 -0.204591 2.743 9 26 42
0.235424 -0.0718847 1.532 18 18 12
-0.857911 0.306684 2.411 125 121 110
0.521 0.232202 1.018 113 130 135
0.342278 -0.666518 2.204 161 148 152
-0.00568798 -0.597862 2.189 143 132 136
0.475829 -0.693406 2.143 161 152 155
-0.537944 0.655912 1.882 118 115 110
-0.460568 0.434598 2.469 104 96 93
0.574561 -0.858719 2.286 112 111 111
0.637224 -0.409243 2.519 75 82 76
0.122459 0.405893 1.587 3 8 0
-0.877923 -0.306737 2.196 135 129 135
-0.0286874 -0.316507 2.32 133 123 121
-0.555229 0.487218 2.392 124 115 108
-0.461251 -0.786383 2.121 154 149 145
-0.74205 0.443551 2.43 105 101 92
-1.00674 -0.193783 2.212 127 128 119
-0.331004 -0.729159 2.22 154 150 151
-0.869791 0.607559 1.953 107 108 104
1.00225 -0.462256 2.54 12 19 11
0.909844 0.0314376 3.133 18 19 6
0.282401 0.286417 1.429 16 38 62
1.01135 -0.097337 2.871 6 15 8
-0.210531 0.148724 2.459 115 107 106
-0.143643 0.432324 2.479 110 102 99
1.00654 -0.888619 2.53 62 69 75
0.401543 0.193935 1.178 172 175 178
0.50795 0.19374 1.154 117 124 132
0.732235 -0.352034 2.55 77 51 51
0.0638272 -0.494351 2.253 136 131 129
-0.970864 -0.324605 2.196 129 127 115
0.214524 0.313879 1.396 7 12 17
-0.895876 0.628271 1.837 96 102 102
-1.11139 -0.508576 2.143 90 105 104
-0.684467 -0.484238 2.128 129 127 119
-0.110012 0.140149 2.449 117 108 103
0.261238 0.378157 1.203 4 10 8
-0.919526 -0.508576 2.143 127 128 119
0.316666 0.133152 1.539 20 24 17
-1.10104 0.180456 2.402 122 120 110
-0.18922 -0.182304 2.392 125 115 113
0.343494 0.381438 1.126 0 7 0
-0.103706 0.288253 2.489 111 101 99
-0.562775 0.196743 2.459 132 125 119
-0.076672 -0.75894 2.181 135 129 131
0.729071 -0.6663 2.469 67 73 71
0.445362 0.225899 1.027 196 206 209
0.136058 0.43649 1.595 2 6 0
-0.832399 0.579659 2.057 113 113 107
-0.459133 -0.314832 2.228 131 122 115
-0.269067 0.691433 1.887 126 122 113
-0.17189 0.117661 2.479 117 109 108
0.459827 0.223036 1.037 197 205 204
1.03488 -0.658129 2.499 42 49 43
1.16972 -0.00340457 2.509 130 130 124
0.1983 0.379348 1.378 8 19 28
-0.805697 -0.813079 2.092 139 146 138
-0.112708 0.445722 2.509 117 107 105
-1.08179 -0.305759 2.189 129 124 120
-0.828553 0.411704 2.383 127 125 117
-0.24799 -0.551553 2.189 150 142 141
-0.259656 0.70281 1.821 123 124 115
-0.720638 -0.406798 2.196 140 136 127
-0.356098 0.644306 1.978 117 114 109
0.411214 -0.765286 2.189 163 158 154
-0.987834 0.474021 2.365 111 112 103
-0.270542 -0.401849 2.228 143 138 136
-0.00568798 -0.562239 2.189 139 128 132
0.35434 0.222065 1.419 76 76 72
-0.368703 0.532303 2.42 115 113 103
-0.60367 0.162036 2.479 132 123 118
-0.964875 -0.546937 2.143 138 136 128
0.505037 0.156843 1.249 101 107 105
0.580517 -0.445722 2.54 8 17 8
1.16651 0.0916218 2.66 129 131 122
1.01044 -0.864911 2.509 42 55 54
0.369245 0.346023 1.073 70 75 65
0.38389 0.369331 0.961 81 92 90
-0.223401 -0.603442 2.158 145 136 129
-0.631409 -0.57991 2.136 139 140 136
0.151138 0.168295 1.563 6 7 1
-0.295317 0.076726 2.338 117 109 106
0.0911357 0.159277 2.499 117 107 105
-0.384366 0.638821 1.991 118 118 112
-0.164642 -0.229672 2.32 126 116 116
0.0355132 0.49898 2.32 125 115 115
-0.26385 -0.268464 2.329 126 117 112
0.479496 -0.166723 2.509 123 115 114
0.548517 0.174462 1.189 86 89 90
0.627937 -0.798787 2.42 10 14 7
-0.995828 -0.177692 2.236 127 124 121
-0.119596 0.672319 2.064 108 104 97
0.14722 0.385842 1.139 8 12 5
-1.01376 -0.26028 2.196 126 127 114
-0.602054 0.369261 2.489 127 119 118
-0.939203 0.427092 2.449 115 112 109
0.333142 0.381909 1.122 0 7 0
1.06235 -0.779647 2.459 101 98 95
-0.712525 -0.249587 2.261 136 127 122
-0.791429 -0.332961 2.204 137 130 120
-0.335992 0.407345 2.499 132 122 122
0.243541 0.290536 1.393 18 40 66
-0.770317 -0.767477 2.107 134 134 128
0.284609 0.39381 1.07 10 11 0
-0.815122 -0.414667 2.181 136 134 126
-0.802195 0.0461103 2.329 132 123 114
0.77934 0.0484483 3.248 57 58 54
-0.903679 0.624697 1.853 107 109 100
-0.720766 0.655802 1.774 110 114 107
-0.304781 0.677289 1.899 129 122 114
-0.52675 0.468852 2.459 108 98 96
0.966795 -0.245958 2.707 9 12 11
-1.02356 -0.625032 2.078 129 136 128
-0.352241 0.62821 2.03 121 117 110
0.231442 0.329296 1.375 2 12 15
0.337841 0.239774 1.302 104 106 95
0.240411 -0.0843501 1.532 23 20 17
-1.0613 0.186785 2.383 129 127 117
-0.941912 -0.809675 2.092 136 136 140
-0.192841 0.511026 2.489 106 99 91
-0.670509 0.632021 1.893 108 114 112
0.193911 0.195764 1.539 9 9 3
0.277822 0.0812282 1.505 8 12 5
0.38704 0.28827 1.041 117 115 105
-1.02394 -0.574275 2.128 133 133 127
-0.935049 -0.0258005 2.32 129 130 117
-1.03169 -0.343683 2.181 131 132 121
0.380234 0.116319 1.484 147 153 153
0.419575 -0.532287 2.356 153 144 139
0.130131 -0.753439 2.196 29 37 36
-0.31279 0.618403 2.121 114 110 111
-0.0409484 -0.126846 2.374 125 117 114
0.42274 0.117902 1.416 197 197 199
0.037197 0.253739 2.43 111 103 102
-0.970193 -0.630262 2.051 133 133 127
-0.288622 0.621855 2.121 119 114 110
0.905909 -0.827015 2.469 94 72 46
-0.200194 -0.353031 2.173 133 123 121
0.441521 0.269279 0.934 153 166 163
-0.112174 -0.698603 2.181 148 139 142
-0.966096 0.59324 1.917 96 101 91
-0.874349 -0.371062 2.196 140 140 136
0.51854 0.205895 1.128 121 129 128
-0.481136 -0.38893 2.196 131 123 122
-0.901082 0.389077 2.411 124 122 112
0.0262581 0.160551 2.519 115 107 106
0.356745 0.298436 1.145 106 101 99
-1.03163 -0.310311 2.196 126 127 121
-0.652755 0.619619 1.941 112 113 104
-0.223047 -0.569364 2.189 140 130 130
0.380893 0.34553 1.02 80 85 73
-0.502682 -0.751868 2.121 152 152 146
-0.899233 0.544259 2.128 105 115 103
-0.615463 0.626628 1.953 106 106 100
-0.796933 -0.0146428 2.347 132 130 118
-0.958955 -0.736618 2.107 140 139 122
0.294345 0.37513 1.316 17 18 14
0.725726 -0.527995 2.499 94 94 94
-0.811474 -0.541178 2.107 141 134 124
1.21822 -0.6428 2.411 154 162 159
-0.637716 0.620272 1.953 110 111 102
-0.93117 -0.653061 2.114 130 130 126
0.355612 0.391463 1.118 2 6 0
-0.239241 0.656995 1.997 127 122 120
-0.288915 0.37988 2.479 139 134 132
-0.491075 -0.0187453 2.383 136 126 124
0.549526 0.178032 1.187 81 84 83
0.134457 -0.538478 2.269 149 145 150
-1.16751 0.387625 2.402 114 118 113
0.548213 -0.45737 2.469 48 37 41
-0.366622 -0.129719 2.356 120 111 114
0.428379 0.287304 0.9 174 185 185
-0.625213 -0.765418 2.092 147 144 139
0.151912 0.539853 1.571 1 4 3
0.308346 0.167778 1.535 11 12 3
0.061869 0.507853 1.624 0 5 3
0.313213 -0.630007 2.253 151 145 149
0.0530193 -0.117975 2.43 128 116 114
-0.320601 -0.0990466 2.356 131 122 115
-0.136848 0.309101 2.43 112 103 98
0.122151 0.240002 1.583 8 9 5
-0.498118 0.6651 1.882 115 112 109
-0.39275 -0.188873 2.329 137 127 125
0.223985 -0.59622 2.278 149 139 137
0.288771 -0.0318286 1.524 25 22 19
-0.468912 -0.519493 2.189 156 146 146
0.449802 0.234609 1.007 196 202 204
1.0022 -0.449407 2.561 9 12 11
0.0957597 -0.561379 2.228 151 150 161
-1.06041 -0.252326 2.189 127 124 119
-0.595031 0.634929 1.959 113 113 107
-0.465276 0.688059 1.837 116 111 107
-0.339776 -0.187228 2.356 131 121 121
0.0262581 0.176948 2.519 116 105 109
0.641324 -0.376449 2.519 76 83 77
-0.771043 0.00443686 2.338 141 134 128
-0.979347 -0.776907 2.114 137 137 131
-0.345226 -0.611986 2.151 153 145 144
0.797395 -0.602014 2.469 36 33 30
-1.12214 0.437711 2.356 107 109 96
-0.155041 -0.486982 2.236 136 128 125
-0.774911 -0.431365 2.158 140 136 129
-0.610012 -0.279576 2.236 137 129 128
-0.937787 0.47787 2.365 109 110 106
-0.482942 0.276324 2.42 131 121 121
0.219971 0.391951 1.104 11 19 6
0.514572 0.120937 1.372 202 209 215
0.461425 -0.408866 2.374 146 138 135
0.8948 -0.041071 2.857 5 12 4
-0.345541 -0.364566 2.244 138 130 127
0.449756 0.177139 1.194 206 209 212
-0.416357 0.644041 1.929 112 110 102
1.26686 -0.057181 2.54 132 133 129
-0.0130897 -0.534285 2.236 141 133 130
0.0993282 -0.186975 2.402 130 120 118
0.866215 -0.61158 2.459 71 62 55
1.16218 0.16521 2.66 160 160 162
1.09532 0.00494165 2.604 135 133 123
0.543928 0.210867 1.135 114 122 121
-0.800406 -0.725305 2.114 143 140 137
0.280234 -0.273992 2.411 137 127 127
0.673179 0.104144 1.449 200 206 206
0.151545 0.0290259 2.489 121 111 109
0.18162 0.440701 1.52 7 8 0
0.431738 0.28993 0.86 167 178 178
1.13156 -0.679489 2.402 173 174 168
-0.289203 -0.748501 2.151 139 134 132
-0.434169 0.580026 2.158 117 115 105
-0.00581011 -0.537924 2.236 142 132 130
-0.896965 0.635515 1.815 104 111 103
-0.461531 -0.242031 2.294 139 129 129
0.745147 -0.662282 2.469 74 69 77
-0.922907 0.635593 1.774 101 114 101
-0.364111 0.438616 2.469 124 116 113
0.254289 0.377626 1.171 10 12 3
0.701318 -0.527995 2.499 68 74 76
0.181857 0.130988 1.543 6 10 5
-0.187273 0.326115 2.469 110 103 93
1.18562 0.0340332 2.561 122 119 114
-0.371256 0.0908922 2.411 134 118 111
-0.788362 0.539879 2.166 110 112 101
-0.778654 0.103359 2.338 127 125 115
1.14252 0.064539 2.615 132 133 124
-0.133202 -0.399653 2.236 135 125 123
-0.333561 0.630376 2.037 113 114 105
-0.25253 0.0506717 2.365 118 110 107
-0.0234816 0.652566 1.899 107 101 88
0.22782 -0.271576 2.356 135 125 125
-1.21959 0.374777 2.42 114 119 107
-0.296985 0.504939 2.479 122 111 115
-0.75116 0.67593 1.744 115 122 114
0.418916 -0.385686 2.374 142 135 129
-0.151713 0.416187 2.479 125 112 116
-0.18879 0.511026 2.489 109 103 88
0.252586 -0.745424 2.204 73 67 73
-0.716205 -0.10977 2.261 136 132 133
1.01681 0.0558031 3.071 11 16 6
0.134011 0.27653 1.571 3 7 0
-0.0283659 -0.230831 2.294 129 119 117
1.07413 0.0727427 2.604 134 135 126
0.380678 0.32897 1.015 89 91 82
-0.271513 -0.385098 2.236 142 137 135
-1.00323 0.47787 2.365 110 112 103
0.786159 -0.695614 2.459 11 28 31
-0.155272 0.643992 2.092 115 110 108
-0.364437 0.0590353 2.392 130 119 123
-1.06845 0.0236409 2.356 127 122 118
0.217705 0.392253 1.281 50 21 0
-0.913538 -0.682836 2.121 142 138 129
-0.976094 -0.793394 2.085 137 138 129
-0.59217 -0.0868758 2.338 135 127 126
0.336707 0.178233 1.539 22 29 21
-0.634816 -0.166785 2.286 134 126 123
-0.264595 0.69274 1.899 119 117 109
-1.17924 0.430622 2.402 92 100 89
0.964635 0.0467358 2.572 134 132 120
1.01882 -0.369057 2.582 83 83 77
-0.825239 0.527801 2.189 115 110 106
-0.0962665 0.638767 2.143 116 111 93
0.190392 0.404347 1.089 7 12 0
0.972511 -0.936064 2.593 14 43 71
-0.692574 -0.620708 2.121 143 140 137
1.03213 0.0967502 3.102 9 13 8
-1.0069 0.206953 2.392 113 112 97
-1.0069 0.448292 2.392 105 107 98
-0.193941 -0.696894 2.143 146 138 135
0.0942797 0.295585 1.591 4 8 3
0.0533737 0.411008 1.607 8 8 8
0.906153 -0.366165 2.684 12 38 67
0.339275 0.263988 1.528 45 49 42
-0.213099 0.502925 2.489 101 99 91
-0.322819 -0.519493 2.189 136 130 134
-0.804574 -0.0681135 2.347 128 124 115
-0.145647 -0.383174 2.204 132 124 121
-0.98024 0.0619808 2.356 127 125 115
-0.745299 0.119947 2.365 129 125 118
-0.879553 -0.680583 2.114 141 139 131
0.680842 -0.630139 2.469 70 84 88
-1.13168 -0.38769 2.189 133 133 129
0.291391 -0.238881 2.374 135 125 123
-0.989495 -0.593095 2.121 135 130 126
-0.861654 -0.434363 2.173 136 133 128
0.503343 0.136581 1.308 172 175 176
0.538223 -0.742664 2.228 127 121 123
0.0144785 0.568305 1.646 9 15 13
-0.450893 -0.782932 2.121 151 146 142
-0.943498 -0.464687 2.166 133 134 123
0.42784 0.254927 0.972 184 190 188
-0.850062 0.165438 2.411 128 126 116
0.215746 0.388662 1.11 10 11 2
1.19352 0.0963834 2.672 127 128 119
-0.610547 -0.708521 2.136 147 146 146
0.245133 0.37925 1.182 7 12 2
-0.98874 -0.276575 2.212 133 130 125
0.0016035 0.238901 2.44 112 106 108
-0.361942 0.697247 1.799 127 120 114
0.398191 0.329754 0.908 101 105 98
0.105428 0.543024 1.603 1 5 0
1.27965 0.176939 2.707 171 175 170
0.0996703 0.613148 1.637 0 6 0
-0.77999 -0.571348 2.143 138 138 132
-0.991777 0.02737 2.347 126 124 112
-0.431152 -0.742229 2.143 156 151 149
0.191903 0.0581695 1.543 7 11 6
0.381909 0.325601 0.98 84 91 83
0.0830889 -0.673759 2.181 156 145 140
-0.22387 0.0995173 2.43 118 110 107
0.295436 0.032567 1.52 9 10 6
1.21246 -0.168119 2.53 145 147 138
-1.12969 0.293283 2.43 124 122 112
-1.20383 0.323581 2.42 116 117 108
0.906021 -0.526676 2.572 10 31 48
-0.0947696 -0.661982 2.189 145 138 132
0.564809 -0.485378 2.489 19 15 16
-1.01022 -0.36364 2.173 134 132 122
1.04678 -0.713374 2.479 66 61 57
-0.942571 -0.622927 2.071 138 138 134
0.453696 -0.412729 2.374 144 136 133
-0.956281 0.467755 2.392 113 113 109
-0.897954 0.489735 2.312 109 110 106
-0.328618 -0.745424 2.204 155 150 148
0.853083 -0.588315 2.479 28 24 15
0.680591 -0.00438428 3.231 62 59 54
-0.387422 -0.370166 2.212 114 107 97
0.854719 -0.684814 2.449 108 108 110
0.357899 -0.495867 2.329 148 140 137
0.161888 -0.061892 2.402 130 119 114
0.0902761 0.53558 1.612 3 4 0
0.861574 -1.00358 2.615 103 117 106
0.890623 -1.00812 2.638 83 89 87
-0.278415 -0.214066 2.356 129 119 119
0.350326 0.213301 1.47 73 76 60
0.0524084 -0.233881 2.402 131 121 119
0.290488 0.0449347 1.52 9 13 6
-0.949559 0.0389769 2.356 128 126 116
0.151118 -0.286912 2.356 135 126 121
-0.64316 0.372371 2.43 129 121 120
0.828771 -0.349905 2.66 50 52 60
-0.723566 -0.0803352 2.261 130 126 119
0.344969 0.22898 1.313 111 106 102
-0.615188 -0.484238 2.128 135 127 124
-0.0444123 -0.838315 2.166 69 50 48
1.04695 -0.230201 2.489 140 145 135
-0.777643 -0.767979 2.099 141 141 137
0.0899961 0.546994 1.607 1 5 0
-0.854365 -0.0812235 2.286 129 127 115
-0.0780153 0.649468 2.121 117 108 103
0.798061 -0.562771 2.509 37 38 34
-0.192067 -0.152627 2.479 123 113 111
-0.917822 0.609973 1.882 103 106 107
0.494207 -0.499608 2.383 152 142 140
-1.07253 0.450929 2.365 103 107 102
0.947888 -0.526676 2.572 13 21 22
0.507894 -0.314179 2.449 97 90 84
-0.761595 0.18749 2.392 128 123 121
-1.19903 0.0307242 2.312 125 125 121
-0.318089 -0.514045 2.181 134 125 130
-0.217855 0.685848 1.923 121 118 113
-0.646833 0.356807 2.459 130 123 115
0.847456 0.12844 3.266 35 33 25
0.891226 -0.917439 2.53 106 105 109
0.259488 -0.234127 2.365 135 125 123
0.389988 0.246172 1.087 164 168 161
-0.21507 0.0676026 2.42 121 110 114
0.318847 0.406978 1.068 15 19 12
0.954705 -0.443296 2.649 18 26 25
-0.0825396 -0.463162 2.244 137 128 123
0.554142 -0.225385 2.672 16 16 18
0.391741 -0.63523 2.22 158 150 147
-0.559638 -0.446688 2.253 142 134 131
1.00641 -0.552395 2.499 7 15 12
-0.688054 0.339415 2.449 124 121 118
-0.0182557 -0.0906659 2.44 126 115 110
0.56994 0.195618 1.154 103 111 108
1.22072 0.12739 2.684 122 123 114
0.0981482 0.51984 1.612 3 4 0
-0.955557 0.508197 2.244 113 108 106
-0.363806 0.274637 2.44 125 117 114
0.110663 -0.559756 2.236 165 163 172
0.258024 0.381944 1.254 11 15 10
0.00573301 0.437556 2.509 129 119 119
0.0506315 0.412593 1.603 8 8 8
-0.481136 -0.363915 2.196 139 129 129
0.0949908 0.394333 1.603 4 5 0
-0.0235795 -0.710555 2.196 143 134 137
0.319171 0.168215 1.539 18 25 19
0.621863 -0.544924 2.54 22 26 19
0.425613 -0.518796 2.347 151 142 137
-0.662702 -0.486059 2.136 131 128 123
0.704076 -0.275898 2.615 78 76 66
-1.0149 0.322378 2.411 122 120 110
-0.714501 0.28159 2.365 126 121 117
-0.27416 0.536241 2.42 118 110 107
0.604301 -0.680643 2.42 10 14 7
-1.08515 -0.580112 2.099 125 135 123
-0.144163 0.162118 2.42 114 107 101
-0.0189291 0.490624 2.53 122 113 118
-0.788963 -0.624512 2.158 137 138 129
-0.113999 0.140149 2.449 117 108 103
0.0957758 -0.054277 2.411 125 116 111
-0.28371 -0.764137 2.136 136 130 132
-0.904079 -0.726332 2.107 138 138 134
-0.856062 -0.633755 2.107 141 136 132
-1.02104 -0.293508 2.204 127 123 116
0.918605 0.161333 3.181 104 110 110
-0.377588 -0.426967 2.136 135 131 124
0.474372 0.1321 1.372 207 209 217
-0.926945 -0.799367 2.128 135 137 126
0.0719583 -0.190884 2.402 129 119 119
-0.773802 -0.148582 2.236 123 123 117
0.768342 -0.61252 2.479 33 33 27
1.14303 -0.0957614 2.469 136 137 131
0.136568 0.192165 1.571 6 7 1
1.01569 -0.068339 2.831 16 17 11
-0.401871 0.0955628 2.43 124 115 108
0.109267 0.288947 1.583 4 8 3
0.918581 -0.518305 2.572 14 39 46
0.324612 -0.310458 2.42 139 129 127
0.00552965 -0.0623558 2.42 125 117 116
-0.987962 -0.00316032 2.329 129 123 110
1.13188 -0.595718 2.411 166 167 163
-0.62279 0.654773 1.87 115 116 103
0.865831 -1.01209 2.615 55 73 80
-0.208208 0.105558 2.479 118 110 107
0.967889 0.0152871 2.967 17 20 21
-0.475064 0.0518501 2.42 133 122 126
0.205901 0.0428802 1.535 8 9 3
-0.0140029 -0.186197 2.392 128 116 114
-0.890359 -0.716046 2.107 139 140 134
-0.230227 0.504946 2.499 106 102 95
-0.702211 0.59234 2.078 111 113 104
-0.490423 0.672138 1.876 113 110 105
-1.21171 0.418097 2.42 105 110 96
0.989353 -0.414577 2.604 7 15 14
0.235942 -0.126402 2.44 126 116 114
-0.388399 0.236942 2.42 121 109 109
-0.26652 0.64326 2.057 125 120 116
0.0653933 0.287606 2.449 112 103 98
0.325599 0.30067 1.247 94 91 86
0.185911 0.117819 1.535 6 10 3
-0.62999 -0.532987 2.143 142 140 130
-0.152042 0.343272 2.42 111 103 100
0.34268 0.296037 1.18 85 83 71
-0.190754 -0.48524 2.228 139 127 127
-0.574314 0.437435 2.44 122 119 116
0.359184 0.261941 1.165 125 126 117
0.0914594 0.266434 1.587 27 26 26
0.131522 0.488243 1.603 2 6 0
-0.5565 0.415136 2.449 129 121 118
-0.530976 -0.640927 2.166 146 143 140
1.00644 -0.0218682 2.78 54 56 47
-1.08171 0.343272 2.42 121 118 115
-0.499009 -0.524727 2.196 142 139 136
0.574561 -0.866159 2.286 115 112 107
-0.277117 -0.725522 2.166 153 146 138
-0.558392 -0.694617 2.136 145 145 139
0.522962 0.144409 1.283 125 130 135
0.425089 0.273485 0.938 162 170 171
-0.658516 0.324521 2.519 127 123 116
-0.533966 -0.278035 2.253 136 131 127
1.02237 -0.57906 2.44 131 128 123
0.294906 0.296584 1.422 16 38 62
0.311443 -0.647733 2.189 158 148 146
0.450943 0.187519 1.162 197 203 201
0.487622 0.218737 1.057 91 101 104
1.12035 -0.94056 2.42 187 187 183
-0.751389 -0.625987 2.151 138 138 134
-0.037084 0.57627 2.374 111 107 100
-1.01321 0.565105 2.017 95 99 92
0.019319 0.58737 1.603 7 8 0
0.212275 -0.462148 2.312 145 137 136
-0.370939 -0.708795 2.158 154 148 150
-0.847257 0.32373 2.392 125 123 115
0.573292 -0.155871 2.831 38 30 27
0.270003 0.379092 1.225 5 14 7
-0.575898 0.631741 1.959 109 110 104
1.09037 -0.339471 2.459 151 153 144
-0.908468 0.63848 1.774 105 104 104
1.09995 0.0517726 2.615 135 132 127
0.210486 0.00789343 1.532 9 10 6
-0.119545 -0.421024 2.253 136 126 126
0.290732 -0.496129 2.278 150 141 136
0.424881 0.27902 0.921 173 184 182
-0.783239 0.02337 2.329 130 126 119
0.377789 0.380699 1.053 61 61 55
-0.704199 0.591708 2.064 111 111 105
0.0915082 -0.253425 2.402 130 122 121
-0.598059 0.479433 2.392 122 120 112
-1.15486 0.253664 2.392 114 118 111
0.0931306 0.473794 1.616 5 6 2
0.291916 0.380547 1.118 7 14 6
-0.546904 -0.23119 2.261 138 128 126
1.33971 0.108937 2.66 124 124 120
0.185324 0.283106 1.551 7 8 0
0.225099 -0.783784 2.181 75 71 72
1.10222 -0.84284 2.356 179 182 181
-0.868655 -0.796738 2.121 139 141 132
0.666076 -0.955718 2.459 26 20 26
-0.871371 -0.215707 2.253 131 129 119
0.509686 0.226998 1.032 115 127 131
-0.17138 0.59814 2.212 113 108 104
-1.14245 0.483032 2.196 100 103 102
-0.951997 0.617644 1.859 93 105 95
0.611537 -0.734213 2.402 10 13 12
-0.253615 0.340908 2.489 112 103 96
-0.723647 -0.706997 2.121 143 143 137
-0.406845 0.575561 2.181 116 116 116
-1.24962 0.266451 2.402 121 123 114
0.119026 -0.80447 2.189 63 75 79
-0.707416 -0.0107404 2.329 128 124 115
0.471328 -0.146308 2.509 124 115 118
0.350476 0.27458 1.491 43 45 32
-1.01959 0.56106 1.991 94 106 96
-0.0765859 0.486507 2.53 123 115 112
0.992464 -0.11081 2.857 4 11 3
0.751725 -0.202099 3.198 23 25 14
-0.560256 -0.323371 2.212 129 124 120
0.077156 0.401794 1.612 5 7 0
-0.683799 -0.41904 2.204 139 135 136
0.241715 -0.00941454 1.509 4 9 0
1.33105 0.0959505 2.66 129 127 119
-0.866085 0.60305 1.959 107 111 106
-0.360401 -0.621001 2.158 152 142 140
-0.17189 0.125729 2.479 118 110 109
-0.798085 0.236942 2.42 135 131 122
0.390359 0.237942 1.098 150 154 149
-0.98478 0.504545 2.244 103 112 103
-1.05058 0.336782 2.43 120 121 112
1.19205 -0.49553 2.479 160 160 154
-0.0704339 0.0526857 2.459 122 112 112
0.0635195 0.362124 1.599 11 10 10
-0.681302 0.451853 2.411 107 100 92
-0.698309 0.121824 2.402 131 121 119
-1.00315 -0.187933 2.228 131 128 123
0.430402 -0.77488 2.196 166 157 160
0.885814 -0.762729 2.469 90 103 100
1.1315 0.0826213 2.649 131 133 124
-0.891884 0.524244 2.204 118 116 106
0.0947538 0.336103 1.599 6 7 3
-0.45704 0.624497 1.997 117 117 113
-0.519945 0.590791 2.121 112 113 104
0.802171 -0.863681 2.459 15 39 53
-0.24483 0.554843 2.365 119 114 110
0.0037108 0.634707 1.624 6 7 3
-0.968407 0.359927 2.374 120 118 110
0.207272 0.352439 1.378 5 20 33
0.262197 0.410371 1.05 13 16 17
0.551574 -0.317586 2.54 10 11 7
0.741314 -0.207303 3.198 23 25 12
0.418558 -0.495867 2.329 150 142 139
0.362135 0.179842 1.345 136 132 137
0.187297 -0.435226 2.329 143 132 136
0.293548 0.341697 1.362 4 19 34
0.193029 0.184901 1.532 8 9 3
-0.175177 -0.279022 2.261 131 121 119
0.860458 -0.528591 2.561 14 22 19
0.298352 0.147794 1.535 6 13 7
-0.37111 -0.339004 2.244 143 136 130
-1.08706 0.478983 2.244 103 101 93
0.399184 0.207961 1.16 163 167 162
-0.739196 -0.607718 2.136 142 139 134
-0.713649 0.62586 1.893 108 111 110
-0.776018 -0.13138 2.253 132 128 117
-0.278196 0.662875 1.929 121 117 108
0.322921 -0.623838 2.244 151 146 144
0.227402 0.389504 1.351 12 8 0
0.946099 -0.694425 2.469 95 96 92
-0.863589 -0.72797 2.092 142 139 136
0.135717 0.370669 1.591 3 7 0
0.36967 0.270531 1.122 109 110 104
-0.852901 -0.324605 2.196 134 130 121
-0.268738 0.375846 2.479 132 127 123
-0.996185 0.518773 2.181 101 108 102
0.466155 0.205731 1.079 194 205 205
1.09751 -0.0657055 2.55 139 139 133
0.17181 0.389617 1.543 2 6 0
-0.409643 0.568798 2.196 117 114 109
-0.140061 0.605275 2.173 115 111 102
-0.633387 0.233704 2.469 125 121 114
-0.53018 0.121824 2.402 129 124 122
-0.403181 0.620676 2.071 111 111 105
-0.93833 -0.283774 2.212 137 128 121
0.593852 -0.554605 2.509 12 13 9
1.03004 -0.406647 2.43 157 161 154
0.723609 0.177191 3.283 56 56 52
-0.58989 -0.0221106 2.329 132 124 123
-0.876112 -0.653061 2.114 134 135 126
0.0946635 -0.259177 2.383 130 125 123
-0.684994 0.634474 1.882 106 111 101
0.52966 -0.859718 2.269 170 164 166
-0.594918 0.663022 1.859 108 109 103
-0.114929 -0.771344 2.166 148 143 141
0.0509158 0.401794 1.612 10 11 7
0.253881 0.287439 1.4 15 36 65
-0.972674 0.0732021 2.347 126 124 114
-0.871224 0.611406 1.935 106 107 98
0.74652 -0.196895 3.198 25 27 16
0.348172 0.261941 1.502 47 48 39
-0.613152 -0.23119 2.261 135 127 124
-0.967136 -0.272975 2.212 124 125 114
0.239258 0.061799 1.509 7 11 6
-0.857516 0.100321 2.356 126 121 117
-0.464513 -0.729377 2.136 142 137 135
-0.504262 0.649393 1.917 116 112 105
-0.0450274 -0.681966 2.196 148 140 139
-0.573286 0.568078 2.166 114 110 103
-0.12501 0.591071 2.356 111 109 97
1.10643 -0.853757 2.365 181 185 180
0.993149 0.0140711 2.731 93 91 83
1.07254 -0.0778481 2.54 143 140 135
0.255603 0.409051 1.051 15 20 6
-1.18588 -0.0107819 2.338 123 123 117
0.422277 0.211909 1.102 188 191 194
-0.0607675 0.698029 1.905 89 87 79
-0.334618 -0.422082 2.22 132 125 119
-0.527099 -0.791945 2.136 153 145 142
-0.532911 0.410491 2.469 125 122 119
0.512347 0.156592 1.247 110 109 116
1.02269 -0.61585 2.509 15 21 21
-0.50281 0.2 2.402 131 122 115
-1.12093 0.516556 2.128 100 105 95
0.388677 0.256588 1.05 158 157 159
-1.04291 0.495536 2.22 109 111 102
0.834193 -0.595574 2.459 42 37 35
0.064619 -0.212005 2.42 131 119 117
-0.25947 -0.110066 2.43 124 114 112
0.187509 -0.0547047 2.43 125 115 113
0.305146 0.36967 1.176 7 11 4
-0.143063 0.539063 2.469 108 100 97
0.0514527 0.493511 1.629 4 5 0
-0.989482 -0.781642 2.099 137 137 133
-0.696208 0.671818 1.763 106 111 101
0.0088781 -0.497862 2.269 138 130 129
0.237744 0.383051 1.12 6 11 1
-0.171032 -0.206398 2.356 128 118 118
-0.578786 0.18874 2.459 131 122 117
0.889274 -0.522491 2.572 10 26 36
1.11475 -0.0576538 2.561 140 138 130
0.0155769 -0.738475 2.173 47 59 65
-0.816916 0.338024 2.383 126 121 117
0.160947 -0.462766 2.278 143 133 131
1.05654 -0.652252 2.374 170 170 166
0.239205 0.282949 1.435 21 32 55
-0.1711 0.0124224 2.411 124 112 112
-0.126473 0.0967033 2.459 118 111 105
-0.803879 0.309448 2.402 125 120 116
-0.370321 -0.396077 2.196 105 90 91
1.02316 0.127291 2.593 123 127 120
-0.342729 -0.470732 2.114 142 138 131
0.405534 0.136674 1.351 191 190 192
-0.94639 -0.380566 2.189 141 138 124
-0.293043 0.566938 2.32 124 117 111
-0.137332 -0.496028 2.244 136 128 127
0.0653377 -0.726997 2.181 33 44 40
-0.99505 0.150303 2.42 122 123 112
0.060454 -0.191599 2.411 129 119 119
1.13833 -0.0157845 2.53 133 130 125
0.962389 -0.245958 2.707 9 14 4
1.10772 -0.299058 2.489 156 157 148
0.711483 -0.185495 3.181 25 26 17
-0.911119 0.591668 1.953 97 105 102
0.27936 -0.448322 2.338 146 136 134
0.906544 -0.720682 2.449 24 41 46
-0.525059 -0.266292 2.278 140 130 130
-0.779138 0.613302 1.941 112 113 102
-0.0401692 0.613518 2.128 109 105 96
-0.939952 -0.107264 2.286 128 124 117
-0.351839 -0.319496 2.261 135 130 128
0.0414744 0.0484861 2.449 121 111 109
-1.02459 -0.401241 2.166 135 128 120
-0.0177365 0.63104 1.947 113 105 102
0.33039 -0.766765 2.173 166 158 155
-0.662938 0.261648 2.43 133 124 119
0.270657 0.382115 1.128 1 9 0
0.0263814 -0.669106 2.189 151 142 137
1.03064 -0.269618 2.479 108 104 95
1.08677 -0.220316 2.469 143 140 137
-0.983045 0.145311 2.469 129 125 114
-0.298593 -0.602735 2.143 129 125 118
-0.363528 -0.382343 2.22 110 104 91
-0.457598 0.27922 2.411 130 120 118
-0.159139 0.386384 2.469 141 133 130
1.04634 -0.707619 2.459 87 83 76
-0.339997 0.342187 2.469 115 106 109
1.11486 -0.685748 2.383 170 170 166
0.270575 -0.299878 2.43 140 128 126
0.702233 0.0329428 3.283 60 61 52
1.15315 -0.891775 2.374 185 186 180
0.341762 0.239123 1.528 35 40 30
-0.992316 -0.194484 2.22 131 132 123
0.445718 0.245861 0.98 181 194 191
-1.07453 -0.22097 2.196 125 126 117
0.433116 0.224123 1.05 189 195 193
0.416943 0.164709 1.247 195 195 197
-0.167816 -0.330745 2.166 131 123 120
-0.872107 -0.800189 2.121 143 144 135
-1.19994 0.471412 2.278 101 105 98
0.183412 0.16528 1.535 4 9 0
-0.906576 0.464235 2.374 113 113 107
0.11442 0.250306 1.583 6 10 3
0.326686 0.140666 1.539 24 28 23
0.998114 -0.0447808 2.54 139 135 126
0.230708 -0.0917435 2.469 124 116 113
0.260673 0.02 1.505 9 13 6
-1.09615 -0.568608 2.107 130 123 113
-0.921237 0.20306 2.392 121 117 108
-1.12399 0.49038 2.181 97 104 98
0.00516633 -0.488748 2.261 138 130 129
0.00389589 0.552606 1.705 102 97 93
-0.921237 0.195275 2.392 123 124 113
0.716377 -0.460697 2.509 102 107 93
0.910522 -0.431682 2.684 9 34 57
0.104113 0.263186 1.583 5 12 6
-0.989149 -0.316446 2.189 135 130 128
-0.916726 -0.337769 2.212 134 130 123
-0.185559 0.590895 2.253 114 109 107
-0.807288 -0.542976 2.114 139 132 122
0.443554 0.148559 1.265 200 205 210
-0.774911 -0.477018 2.158 147 142 138
-0.87556 0.542469 2.121 108 116 105
0.850166 -0.249229 2.743 12 8 9
-0.802242 0.5685 2.128 108 109 103
1.00227 -0.868994 2.509 57 62 67
0.482823 0.210607 1.077 116 123 129
-0.762549 0.0884794 2.347 131 124 116
0.160077 0.550649 1.551 2 3 0
0.393234 0.21952 1.132 172 172 172
0.0194757 0.442237 1.616 93 87 91
-1.04205 -0.384857 2.173 128 129 125
-0.342537 0.186514 2.43 128 121 115
-0.525618 0.580522 2.173 118 111 105
-0.0364127 0.672293 1.929 100 96 89
-1.06791 0.531648 2.092 100 101 95
0.83019 -0.807659 2.459 82 93 102
-0.815913 -0.632647 2.092 141 137 130
0.37654 0.291176 1.064 89 91 80
0.982125 -0.764857 2.489 54 54 54
-0.950642 -0.0445235 2.312 120 115 111
-0.231751 -0.544572 2.204 142 134 133
-0.962279 -0.140745 2.286 136 134 124
-0.107901 -0.163522 2.402 127 119 118
