ply
format ascii 1.0
comment Created by Open3D
element vertex 1291
property double x
property double y
property double z
property uchar red
property uchar green
property uchar blue
end_header
-0.780004 -0.352678 1.528 255 255 255
0.459931 -0.249574 1.324 255 255 255
0.479104 -0.204264 1.283 255 255 255
-0.39734 -0.524933 1.774 255 255 255
-0.312539 -0.171733 1.579 255 255 255
0.423757 -0.312506 1.299 255 255 255
-0.449637 0.0637247 0.867 255 255 255
0.486032 -0.185536 1.313 255 255 255
-0.466719 0.330091 1.158 255 255 255
0.217741 0.088715 0.504 255 255 255
0.48781 -0.255728 1.192 255 255 255
0.413318 -0.393466 1.267 255 255 255
-0.543413 0.124393 1.173 255 255 255
-0.261374 -0.46737 1.753 255 255 255
0.264403 -0.421189 1.739 255 255 255
-0.0892889 0.0159867 1.203 255 255 255
-0.322488 -0.442266 1.744 255 255 255
0.113152 0.0531115 0.525 255 255 255
-0.333936 0.073754 1.409 255 255 255
-0.721036 -0.497347 1.789 255 255 255
-0.138271 0.157155 1.357 255 255 255
0.0553282 -0.746343 1.953 255 255 255
0.224221 0.0567274 0.519 255 255 255
-0.787184 -0.284057 1.547 255 255 255
-0.714569 -0.343519 1.691 255 255 255
0.058586 0.031899 0.542 255 255 255
0.187223 0.121166 0.435 255 255 255
0.469955 -0.403042 1.037 255 255 255
-0.243241 0.442798 1.162 255 255 255
-0.414806 0.27057 0.928 255 255 255
-0.629481 -0.441696 1.753 255 255 255
0.114822 0.163053 0.451 255 255 255
-0.778477 -0.266307 1.607 255 255 255
0.0548612 0.145298 0.472 255 255 255
0.0170877 0.0318401 0.541 255 255 255
0.20871 0.078152 0.51 255 255 255
-0.308817 -0.339815 1.7 255 255 255
-0.294689 0.314101 1.252 255 255 255
0.234344 0.111539 0.489 255 255 255
0.126926 0.072455 0.505 255 255 255
-0.248998 0.0377515 1.435 255 255 255
0.294076 -0.578196 1.513 255 255 255
0.0630633 0.155488 0.459 255 255 255
-0.450891 0.29617 1.039 255 255 255
0.02639 -0.386695 1.724 255 255 255
-0.674034 -0.317811 1.686 255 255 255
0.200327 -0.440436 1.748 255 255 255
-0.193509 -0.0993085 1.532 255 255 255
0.49887 -0.333384 0.981 255 255 255
-0.390139 -0.630111 1.794 255 255 255
-0.252771 0.418933 1.18 255 255 255
-0.592703 -0.158885 1.579 255 255 255
-0.417554 -0.57401 1.774 255 255 255
-0.0480403 -0.190681 1.587 255 255 255
-0.18487 0.121201 1.375 255 255 255
0.478822 -0.197148 1.305 255 255 255
-0.514426 -0.258554 1.624 255 255 255
0.334217 -0.21294 1.599 255 255 255
-0.391054 -0.286859 1.65 255 255 255
-0.728554 -0.269125 1.624 255 255 255
0.0348576 0.101218 0.505 255 255 255
0.448095 -0.167831 1.416 255 255 255
0.350154 -0.316566 1.637 255 255 255
0.232123 0.140065 0.455 0 0 0
-0.350416 0.0378567 1.439 255 255 255
-0.0209571 -0.00164869 1.215 255 255 255
0.0762795 -0.35851 1.71 255 255 255
0.385904 -0.337522 1.442 255 255 255
-0.353653 0.389903 1.203 255 255 255
-0.586405 -0.0096519 1.227 255 255 255
0.0566368 0.1382 0.474 255 255 255
0.102228 0.10955 0.354 255 255 255
0.210812 0.138544 0.434 255 255 255
0.0934149 0.103627 0.493 255 255 255
0.0691733 0.033663 0.542 255 255 255
-0.243018 -0.406333 1.724 255 255 255
0.210823 -0.0336149 0.593 0 0 0
-0.270023 -0.601392 1.831 0 0 0
-0.344209 -0.438168 1.739 255 255 255
-0.542909 0.00514304 1.459 255 255 255
0.215092 -0.016009 0.496 255 255 255
-0.372412 0.269261 1.281 255 255 255
-0.52775 -0.391903 1.71 255 255 255
0.0819763 0.0267542 0.545 255 255 255
0.503829 -0.279721 1.096 255 255 255
0.509693 -0.281339 1.012 255 255 255
0.126846 -0.108491 1.487 255 255 255
0.0685372 0.103627 0.493 255 255 255
0.0991832 -0.267302 1.629 255 255 255
-0.585368 0.0260754 1.435 255 255 255
-0.378823 0.235637 0.782 255 255 255
0.0663872 0.0922634 0.501 255 255 255
-0.536268 -0.0453603 1.48 255 255 255
-0.159402 0.356225 1.215 0 0 0
-0.00412372 -0.188099 1.587 255 255 255
0.479422 -0.258685 1.215 255 255 255
-0.572584 -0.250625 1.624 255 255 255
-0.060147 -0.522092 1.794 255 255 255
-0.168041 0.0489798 1.422 255 255 255
-0.197297 0.0625989 1.416 255 255 255
0.0170206 -0.723719 1.935 255 255 255
0.469278 -0.396887 1.043 255 255 255
0.110659 0.0169268 0.449 255 255 255
-0.193989 -0.45856 1.763 255 255 255
0.159517 -0.623331 1.87 255 255 255
0.075941 0.109152 0.489 255 255 255
0.463385 -0.384264 1.089 255 255 255
0.222934 -0.0484143 0.597 255 255 255
-0.522102 -0.170449 1.591 255 255 255
-0.271684 0.27071 1.278 255 255 255
-0.00870497 -0.0625137 1.487 255 255 255
-0.839111 -0.675298 1.905 255 255 255
0.120475 0.0779988 0.509 255 255 255
-0.170146 0.269261 1.281 255 255 255
-0.193572 -0.0734554 1.513 255 255 255
0.383899 -0.373495 1.384 255 255 255
0.0167087 0.0552379 0.529 255 255 255
-0.362349 0.23114 0.743 255 255 255
-0.0536361 0.392815 1.194 255 255 255
-0.198039 -0.0505501 1.491 255 255 255
0.303573 -0.467661 1.616 255 255 255
-0.859138 -0.538531 1.81 255 255 255
-0.252123 -0.198429 1.587 255 255 255
-0.0227768 -0.572032 1.842 255 255 255
-0.444785 0.233966 0.909 255 255 255
0.0858242 0.0856038 0.505 255 255 255
0.392747 -0.426161 1.254 255 255 255
0.423929 -0.294988 1.375 255 255 255
0.246787 -0.318843 1.677 255 255 255
-0.442865 0.285703 1.044 255 255 255
-0.239745 -0.692721 1.805 255 255 255
0.165662 -0.003823 0.486 255 255 255
0.447017 -0.282911 1.299 255 255 255
0.306204 -0.233612 1.616 255 255 255
-0.612399 -0.550694 1.821 255 255 255
-0.816992 -0.398371 1.551 255 255 255
-0.276555 -0.182011 1.579 255 255 255
-0.853245 -0.526749 1.81 255 255 255
-0.131903 -0.429678 1.739 255 255 255
-0.512 -0.0896202 0.969 255 255 255
-0.517153 -0.223093 1.616 255 255 255
-0.343358 0.19948 1.33 255 255 255
0.012686 -0.00957324 1.217 255 255 255
-0.0442947 0.254595 1.26 255 255 255
-0.723857 -0.314418 1.668 255 255 255
-0.388608 -0.320554 1.686 255 255 255
0.462036 -0.377522 1.09 255 255 255
-0.43574 0.216862 0.918 255 255 255
0.222085 0.0614377 0.516 255 255 255
0.419397 -0.400384 1.213 255 255 255
-0.535013 -0.149405 1.022 255 255 255
0.113568 0.0983313 0.343 255 255 255
-0.535199 0.119223 1.378 0 0 0
-0.118663 0.370326 1.203 255 255 255
0.215899 -0.0152018 0.496 255 255 255
0.257492 -0.24534 1.624 255 255 255
-0.374491 -0.581774 1.789 0 0 0
0.049851 0.0851178 0.507 255 255 255
0.0278942 0.0827859 0.513 255 255 255
-0.0762094 0.359587 1.213 255 255 255
-0.0688182 -0.00165818 1.222 255 255 255
0.356838 -0.411219 1.429 255 255 255
-0.292612 0.429725 1.178 255 255 255
-0.628467 0.0507167 1.406 255 255 255
-0.566092 0.0464688 1.416 255 255 255
0.143389 0.00252981 0.491 255 255 255
0.289771 -0.318083 1.673 255 255 255
0.215059 0.00881294 0.485 0 0 0
0.13483 -0.128304 1.551 255 255 255
-0.336989 0.202582 1.322 255 255 255
0.127418 -0.3895 1.724 255 255 255
0.0872951 0.0878949 0.504 255 255 255
-0.473158 0.177257 1.342 255 255 255
-0.485336 -0.549572 1.779 255 255 255
-0.244658 -0.299222 1.659 255 255 255
0.220665 -0.618536 1.729 255 255 255
0.404831 -0.436315 1.182 255 255 255
0.112476 0.0588442 0.361 255 255 255
0.371185 -0.523273 1.387 255 255 255
-0.472075 -0.0483497 1.498 255 255 255
0.102734 0.0890564 0.346 255 255 255
0.17305 -0.0053158 0.478 255 255 255
0.400131 -0.374916 1.333 255 255 255
0.116506 0.168906 0.449 255 255 255
-0.422619 -0.0882282 1.513 255 255 255
-0.69708 -0.276607 1.637 255 255 255
-0.312068 0.0424219 1.435 255 255 255
-0.57136 -0.406333 1.724 255 255 255
0.21606 -0.0153857 0.502 255 255 255
-0.447015 0.0940635 0.887 255 255 255
-0.724289 -0.160725 1.456 255 255 255
0.12731 0.0115997 0.47 255 255 255
0.375258 -0.2783 1.543 255 255 255
-0.377575 0.101724 1.384 255 255 255
-0.327416 -0.333495 1.696 255 255 255
0.034792 0.048351 0.529 255 255 255
0.103773 0.0746697 0.342 255 255 255
-0.362018 0.437445 1.173 255 255 255
-0.273671 -0.0405434 1.48 255 255 255
0.480362 -0.174737 1.345 255 255 255
-0.409855 -0.284174 1.65 255 255 255
-0.391151 -0.057674 1.487 255 255 255
-0.859615 -0.642644 1.882 255 255 255
-0.349525 0.0309601 1.445 255 255 255
-0.120621 0.374241 1.203 255 255 255
0.0619971 -0.342581 1.7 255 255 255
-0.289446 -0.342581 1.7 255 255 255
0.200234 0.142898 0.428 255 255 255
0.0163882 0.0276175 1.198 255 255 255
0.0721526 0.0752725 0.513 255 255 255
0.194661 0.00237524 0.461 255 255 255
0.117728 0.103033 0.494 255 255 255
-0.28337 -0.595144 1.821 0 0 0
0.187029 -0.490151 1.784 255 255 255
-0.353136 -0.12262 1.543 255 255 255
0.0952672 0.148555 0.463 255 255 255
-0.212526 -0.467195 1.774 255 255 255
-0.624256 -0.601071 1.821 0 0 0
-0.655122 -0.175186 1.587 255 255 255
-0.238422 0.00987124 1.456 255 255 255
-0.865821 -0.703584 1.923 255 255 255
-0.143933 -0.0904506 1.509 255 255 255
-0.357355 0.0842508 1.393 255 255 255
-0.311862 0.367934 1.208 255 255 255
0.22396 -0.026314 0.439 255 255 255
-0.189773 0.144436 1.362 255 255 255
-0.570549 0.149199 1.345 255 255 255
0.205098 -0.0337849 0.596 0 0 0
0.313779 -0.556036 1.513 255 255 255
0.101939 0.109282 0.355 255 255 255
-0.48391 0.0423332 1.432 255 255 255
0.0968504 0.143759 0.467 255 255 255
-0.00932987 -0.0240142 1.247 255 255 255
0.109895 0.152914 0.458 255 255 255
-0.229174 0.16181 1.359 255 255 255
0.091852 0.00289563 0.562 255 255 255
-0.358227 0.212134 0.704 255 255 255
-0.0639569 -0.106997 1.535 255 255 255
0.175312 0.148953 0.412 255 255 255
0.434366 -0.414906 1.124 255 255 255
0.0974059 0.031017 0.542 255 255 255
0.384697 -0.434533 1.31 255 255 255
0.353438 -0.395116 1.473 255 255 255
0.122865 -0.409869 1.739 255 255 255
0.0747169 -0.223093 1.616 0 0 0
-0.0966339 -0.166594 1.579 255 255 255
0.106309 0.0966568 0.343 255 255 255
0.121244 0.116463 0.354 255 255 255
-0.616715 -0.529403 1.799 255 255 255
0.459644 -0.306138 1.215 255 255 255
-0.466521 0.161556 0.944 255 255 255
0.14314 -0.0615122 1.267 255 255 255
0.0805862 0.00379663 0.56 255 255 255
0.470514 -0.314002 1.11 255 255 255
-0.0412363 0.424083 1.173 255 255 255
0.390525 -0.481511 1.26 255 255 255
-0.327891 -0.58404 1.805 255 255 255
0.108324 0.0645827 0.357 255 255 255
-0.357144 0.279767 0.799 255 255 255
-0.196164 -0.00435405 1.459 255 255 255
0.153949 -0.0301068 0.489 255 255 255
-0.40136 -0.0678516 1.498 255 255 255
0.0771052 -0.713329 1.941 255 255 255
0.145868 -0.350162 1.71 255 255 255
0.179609 0.129361 0.427 255 255 255
-0.261095 -0.0092149 1.477 255 255 255
-0.396558 -0.227081 1.607 255 255 255
0.154095 -0.0299089 1.239 255 255 255
-0.222078 -0.378873 1.714 255 255 255
0.371992 -0.419207 1.357 255 255 255
-0.328636 0.309128 1.265 255 255 255
-0.533233 -0.545448 1.794 255 255 255
-0.85185 -0.618629 1.865 255 255 255
0.293194 -0.408901 1.677 255 255 255
0.225653 0.00402697 0.479 0 0 0
0.117064 0.0134213 0.454 255 255 255
-0.779253 -0.373012 1.7 255 255 255
0.178222 -0.120114 1.452 255 255 255
0.0106881 -0.0699609 1.491 255 255 255
-0.664032 -0.0755822 1.459 255 255 255
0.205421 0.0965734 0.498 255 255 255
0.21628 -0.429678 1.739 255 255 255
-0.666137 -0.254672 1.633 255 255 255
0.36148 -0.464056 1.359 255 255 255
0.158226 -0.190201 1.583 255 255 255
0.216738 -0.013341 0.487 255 255 255
-0.489098 -0.307193 1.673 255 255 255
0.308457 -0.266763 1.642 255 255 255
-0.370749 -0.445104 1.744 255 255 255
-0.344577 -0.296523 1.659 255 255 255
0.0198026 0.026656 0.543 255 255 255
-0.491563 -0.045588 0.939 255 255 255
-0.19204 -0.21869 1.603 255 255 255
-0.120503 0.208951 1.308 255 255 255
-0.415675 0.284152 1.273 255 255 255
0.260877 -0.0491156 0.513 0 0 0
-0.0228406 0.00229623 1.21 255 255 255
-0.104955 0.382072 1.203 255 255 255
-0.0169115 -0.161046 1.575 255 255 255
0.173714 -0.000654047 0.482 255 255 255
-0.516298 -0.114211 1.005 255 255 255
0.497617 -0.248974 1.11 255 255 255
0.22768 -0.0793964 0.461 255 255 255
-0.174845 0.43826 1.16 255 255 255
0.111111 0.029145 0.54 255 255 255
-0.0254814 -0.54773 1.821 255 255 255
0.352437 -0.220746 1.599 255 255 255
-0.250856 0.331789 1.227 255 255 255
-0.136996 0.26133 1.283 255 255 255
0.183424 0.0220906 0.45 255 255 255
0.0796741 0.152833 0.46 255 255 255
-0.353617 0.310318 0.794 255 255 255
0.0703219 0.0127022 0.551 255 255 255
-0.135407 0.21108 1.308 255 255 255
-0.585288 -0.0235243 1.47 255 255 255
-0.431075 0.127914 1.375 255 255 255
-0.072993 -0.323298 1.686 255 255 255
-0.703748 -0.296523 1.659 255 255 255
-0.23528 -0.427207 1.729 255 255 255
-0.213892 -0.567985 1.81 255 255 255
-0.618382 -0.0629762 1.498 255 255 255
0.383621 -0.48839 1.278 255 255 255
-0.409458 0.28208 1.273 255 255 255
0.441397 -0.336395 1.203 255 255 255
-0.343749 0.0887845 1.393 255 255 255
-0.553132 -0.0405434 1.48 255 255 255
-0.556517 0.0215541 1.445 255 255 255
0.390944 -0.325685 1.452 255 255 255
0.471374 -0.297319 1.18 255 255 255
0.045454 0.0936361 0.504 255 255 255
-0.346784 0.0929163 1.387 255 255 255
0.246284 0.027984 0.489 255 255 255
0.371185 -0.403647 1.387 255 255 255
0.492537 -0.365301 0.994 255 255 255
-0.739237 -0.525294 1.805 255 255 255
-0.153869 0.123708 1.378 255 255 255
-0.770629 -0.242771 1.607 255 255 255
-0.0595665 0.38958 1.196 255 255 255
-0.306828 -0.149645 1.563 255 255 255
-0.702616 -0.21662 1.607 255 255 255
0.192162 0.148097 0.421 255 255 255
-0.123912 0.166709 1.345 255 255 255
0.341921 -0.472679 1.425 255 255 255
-0.0201925 -0.252014 1.633 255 255 255
0.027385 -0.506081 1.789 255 255 255
-0.676959 -0.753555 1.947 255 255 255
0.114266 -0.0615122 1.267 255 255 255
-0.696705 -0.298131 1.668 255 255 255
0.163835 -0.00225968 0.49 255 255 255
0.442908 -0.28733 1.281 255 255 255
-0.701327 -0.52995 1.821 255 255 255
-0.0564662 0.296945 1.257 255 255 255
-0.267581 -0.011587 1.473 255 255 255
0.245105 -0.194238 1.595 255 255 255
-0.100185 -0.387816 1.729 255 255 255
-0.6244 -0.132664 1.543 255 255 255
0.137612 -0.167016 1.583 255 255 255
-0.305322 -0.00677905 1.47 255 255 255
0.254204 -0.117845 1.297 255 255 255
-0.793603 -0.468757 1.769 255 255 255
0.233828 0.0142786 0.483 255 255 255
-0.428189 0.294604 0.983 255 255 255
0.198748 0.0773221 0.51 255 255 255
-0.326589 0.114738 1.378 255 255 255
0.432895 -0.185685 1.466 255 255 255
-0.242446 0.000396385 1.466 255 255 255
-0.0640207 -0.21294 1.599 255 255 255
-0.762751 -0.321787 1.664 255 255 255
-0.395196 -0.707395 1.859 255 255 255
0.201777 -0.0483655 1.247 255 255 255
-0.698734 -0.334273 1.686 255 255 255
-0.304508 0.42335 1.187 255 255 255
0.147515 0.0752736 0.481 255 255 255
-0.560008 -0.537043 1.805 255 255 255
-0.795847 -0.475856 1.774 255 255 255
-0.460619 0.356494 1.196 255 255 255
0.327535 -0.464112 1.543 255 255 255
-0.123712 0.221968 1.297 255 255 255
-0.743224 -0.275931 1.633 255 255 255
0.0827157 -0.50317 1.789 255 255 255
0.458351 -0.405833 1.053 255 255 255
0.214188 -0.0474428 0.597 0 0 0
-0.0563245 0.0121416 1.21 255 255 255
0.215396 0.104429 0.493 255 255 255
0.00395073 -0.387816 1.729 255 255 255
0.00689824 -0.45856 1.763 255 255 255
0.00428662 -0.613119 1.876 255 255 255
0.116548 0.111795 0.352 255 255 255
0.386534 -0.273108 1.528 255 255 255
-0.226324 0.0889757 1.396 255 255 255
0.0699274 0.088539 0.503 255 255 255
-0.448023 0.0884888 0.889 255 255 255
0.312224 -0.473881 1.567 255 255 255
0.417587 -0.307386 1.422 255 255 255
0.0884198 0.0327205 0.541 255 255 255
-0.494349 0.192568 1.094 255 255 255
-0.953421 -0.612167 1.81 255 255 255
0.346363 -0.347378 1.595 255 255 255
-0.439097 0.327658 1.234 255 255 255
-0.474588 0.281768 1.281 255 255 255
0.424029 -0.29142 1.39 255 255 255
0.410845 -0.369165 1.305 255 255 255
-0.252966 -0.61532 1.837 0 0 0
-0.462247 0.220089 0.883 255 255 255
-0.284073 -0.0527278 1.484 255 255 255
-0.374886 -0.317811 1.686 255 255 255
-0.0622334 0.0141106 1.21 255 255 255
-0.350839 0.251477 1.286 255 255 255
-0.0430643 0.343209 1.225 255 255 255
0.0752913 0.0215508 0.548 255 255 255
0.104763 0.0343538 0.539 255 255 255
-0.0416866 -0.272108 1.642 255 255 255
0.49941 -0.235369 1.114 255 255 255
0.181267 0.14296 0.418 255 255 255
-0.126496 0.368368 1.203 255 255 255
-0.149515 0.181218 1.339 255 255 255
-0.199602 0.0672075 1.416 255 255 255
0.275886 -0.449023 1.705 255 255 255
-0.323638 -0.187624 1.583 255 255 255
0.217922 -0.638821 1.686 255 255 255
0.34527 -0.447477 1.555 255 255 255
0.228239 -0.067858 1.27 255 255 255
-0.120233 -0.419978 1.734 255 255 255
0.0978723 0.0620331 0.521 255 255 255
-0.421014 0.16378 1.357 255 255 255
0.200081 -0.0743496 1.275 255 255 255
0.338457 -0.387273 1.547 255 255 255
0.24286 0.0363826 0.495 255 255 255
0.0832434 0.171791 0.447 255 255 255
-0.61952 0.0309371 1.342 255 255 255
-0.441898 -0.581418 1.779 255 255 255
0.381467 -0.481618 1.299 255 255 255
0.208169 0.0558829 0.519 0 0 0
0.159866 0.000133841 0.495 255 255 255
0.0975305 0.130487 0.474 255 255 255
0.238585 -0.0453815 0.583 255 255 255
0.165766 -0.464308 1.774 255 255 255
-0.0568097 -0.233612 1.616 255 255 255
-0.410623 0.328985 1.239 255 255 255
0.102734 0.156698 0.456 255 255 255
0.40265 -0.330039 1.327 255 255 255
0.449233 -0.236109 1.384 255 255 255
0.0385764 0.0196951 0.546 255 255 255
0.215403 -0.0211351 0.484 255 255 255
-0.109161 0.278374 1.275 255 255 255
-0.361122 0.0377515 1.435 255 255 255
-0.361093 -0.0187782 1.473 255 255 255
-0.566351 0.182165 1.33 255 255 255
0.482486 -0.283747 1.156 255 255 255
0.433739 -0.170254 1.477 255 255 255
0.123457 -0.00139365 0.467 255 255 255
-0.129443 -0.601197 1.744 255 255 255
0.487371 -0.347978 1 255 255 255
-0.412628 -0.146725 1.559 255 255 255
0.203189 -0.3895 1.724 255 255 255
-0.163207 0.320191 1.244 255 255 255
-0.598708 -0.20462 1.595 255 255 255
0.107038 -0.45726 1.758 255 255 255
0.128071 0.0764462 0.34 255 255 255
-0.41086 0.366574 1.21 255 255 255
0.104676 0.139497 0.468 255 255 255
-0.356001 0.278279 0.718 255 255 255
0.212599 0.00563259 0.483 0 0 0
-0.541886 0.070183 1.13 255 255 255
0.110145 0.126512 0.363 255 255 255
0.0728283 -0.00966763 1.229 255 255 255
-0.0581222 0.427611 1.167 255 255 255
0.0981416 0.0533138 0.527 255 255 255
-0.104469 0.229878 1.294 255 255 255
0.261572 -0.418359 1.739 255 255 255
-0.430449 0.128539 0.83 255 255 255
-0.358232 0.267925 0.776 255 255 255
0.443171 -0.417055 1.096 255 255 255
0.414406 -0.430349 1.171 255 255 255
0.162561 -0.608115 1.87 255 255 255
0.240189 0.124328 0.48 255 255 255
-0.0659875 -0.522092 1.794 255 255 255
-0.0894766 -0.0704771 1.502 255 255 255
-0.214043 -0.307193 1.673 255 255 255
-0.695982 -0.133081 1.39 255 255 255
-0.501928 0.0725197 1.009 0 0 0
-0.223064 -0.603363 1.837 255 255 255
-0.324748 0.210229 1.316 255 255 255
0.166313 0.00577253 0.495 255 255 255
0.0283933 0.0991438 0.507 255 255 255
-0.542814 0.130896 1.18 255 255 255
0.404831 -0.430545 1.182 255 255 255
0.0327763 0.0824631 0.511 255 255 255
-0.455808 0.0496729 0.868 255 255 255
0.0813481 0.150915 0.461 255 255 255
0.0972105 0.0613027 0.522 255 255 255
0.103922 0.129216 0.475 255 255 255
-0.419005 0.195238 1.316 255 255 255
0.231403 -0.0667504 0.467 255 255 255
-0.316101 0.417555 1.187 255 255 255
-0.417216 0.249981 0.882 255 255 255
0.333487 -0.467882 1.491 255 255 255
0.40605 -0.37454 1.324 255 255 255
0.495997 -0.347018 0.988 255 255 255
-0.155694 0.43562 1.158 255 255 255
-0.363597 0.29721 0.841 255 255 255
0.136137 0.0305478 0.456 255 255 255
0.105881 -0.404209 1.739 255 255 255
0.225127 0.114488 0.488 255 255 255
-0.283254 0.413692 1.187 255 255 255
-0.61169 -0.202025 1.595 255 255 255
-0.776868 -0.354597 1.484 255 255 255
-0.382156 -0.545311 1.784 255 255 255
-0.371552 -0.251397 1.612 255 255 255
0.269426 -0.49771 1.682 255 255 255
0.486698 -0.199776 1.281 255 255 255
0.205755 -0.246699 1.633 255 255 255
-0.578325 0.0863313 1.39 255 255 255
0.202645 0.155947 0.42 255 255 255
0.224913 0.108 0.491 255 255 255
-0.354268 0.302583 0.784 255 255 255
0.0524462 0.125365 0.478 255 255 255
0.206925 0.0574611 0.518 255 255 255
0.0027534 0.372903 1.205 255 255 255
-0.167294 -0.206696 1.591 255 255 255
-0.441034 0.0192956 1.452 255 255 255
0.158258 0.137889 0.413 255 255 255
0.109555 0.0300794 0.541 255 255 255
-0.243219 0.174048 1.351 255 255 255
0.40324 -0.204354 1.516 255 255 255
-0.45364 0.233194 0.906 255 255 255
-0.333091 0.0470923 1.435 255 255 255
-0.776882 -0.353067 1.498 255 255 255
0.0797552 0.067707 0.519 255 255 255
0.0521934 0.0206967 0.549 255 255 255
-0.497131 -0.380772 1.71 255 255 255
0.384942 -0.426978 1.333 255 255 255
0.42129 -0.400784 1.185 255 255 255
0.297941 -0.318083 1.673 255 255 255
-0.370684 -0.0187782 1.473 255 255 255
0.0285613 0.0939209 0.51 255 255 255
0.120075 0.0540893 0.518 0 0 0
-0.426402 0.23674 0.914 255 255 255
-0.443644 -0.21662 1.607 255 255 255
0.208502 0.11097 0.49 255 255 255
-0.881642 -0.550066 1.7 255 255 255
0.467664 -0.242411 1.286 255 255 255
-0.147421 0.384383 1.198 255 255 255
-0.584992 -0.161455 1.579 255 255 255
-0.418923 -0.275931 1.633 255 255 255
-0.531712 -0.361095 1.696 255 255 255
0.208662 -0.655191 1.7 255 255 255
0.0680584 0.0644526 0.52 255 255 255
0.338886 -0.117633 1.422 255 255 255
0.511956 -0.220007 1.083 255 255 255
-0.589346 0.0904631 1.384 255 255 255
0.171684 -0.0136401 0.47 255 255 255
-0.426402 0.127604 0.807 255 255 255
0.161535 0.135477 0.418 255 255 255
-0.361122 0.347267 0.896 255 255 255
-0.50023 -0.0826983 1.502 255 255 255
0.222427 -0.0133789 0.461 255 255 255
-0.503696 0.212855 1.319 255 255 255
-0.651092 -0.531168 1.805 255 255 255
-0.628433 0.0330119 1.432 255 255 255
-0.864716 -0.487675 1.744 255 255 255
-0.0344154 -0.131165 1.555 255 255 255
-0.44483 0.0744498 0.877 255 255 255
-0.137243 -0.210864 1.603 255 255 255
-0.337574 -0.562964 1.794 255 255 255
0.342015 -0.467556 1.445 255 255 255
-0.35643 -0.242167 1.603 255 255 255
-0.224419 0.168197 1.357 255 255 255
-0.260351 0.449139 1.154 255 255 255
-0.547918 0.170028 1.354 255 255 255
0.00858773 0.0276175 1.198 255 255 255
0.502961 -0.226628 1.098 255 255 255
0.0978873 0.132241 0.472 255 255 255
0.490886 -0.378084 0.981 255 255 255
-0.379252 -0.603374 1.784 255 255 255
0.109793 0.0635984 0.358 255 255 255
0.045003 0.10164 0.499 255 255 255
0.169439 0.0134367 0.481 255 255 255
0.243084 0.0555598 0.516 255 255 255
0.159712 0.122932 0.424 0 0 0
-0.474187 0.157963 0.999 255 255 255
-0.448173 0.239903 0.898 255 255 255
-0.776718 -0.339291 1.47 255 255 255
-0.578038 -0.0299411 1.162 255 255 255
-0.761041 -0.268462 1.62 255 255 255
-0.0219831 -0.150411 1.571 255 255 255
0.111861 -0.748074 1.941 255 255 255
0.0660407 0.0468056 0.531 255 255 255
-0.107833 -0.307193 1.673 255 255 255
0.176166 0.0331312 0.441 255 255 255
0.104763 0.0352309 0.539 255 255 255
0.129799 0.0382413 0.442 0 0 0
-0.232849 -0.257329 1.633 255 255 255
-0.0742858 -0.00575067 1.247 255 255 255
0.107164 0.0898176 0.501 255 255 255
-0.716524 -0.221298 1.603 255 255 255
0.0418285 -0.49886 1.784 255 255 255
-0.433622 0.233418 1.302 255 255 255
0.0436393 0.098166 0.502 255 255 255
0.0956812 0.0019846 0.563 255 255 255
0.168983 -0.016735 0.471 255 255 255
0.339423 -0.207736 1.599 255 255 255
-0.17387 0.152964 1.359 255 255 255
-0.28539 -0.566601 1.815 255 255 255
-0.499886 -0.465878 1.769 255 255 255
-0.0375967 0.299465 1.242 255 255 255
-0.169575 -0.585509 1.748 0 0 0
0.384306 -0.255039 1.539 255 255 255
-0.710673 -0.294914 1.65 255 255 255
-0.63996 -0.0775569 1.33 255 255 255
0.102063 0.135505 0.47 255 255 255
0.172016 -0.0444846 1.252 255 255 255
-0.373572 0.204734 1.322 255 255 255
-0.238515 -0.481629 1.774 255 255 255
-0.308532 0.293122 1.267 255 255 255
0.10826 0.11441 0.353 255 255 255
0.196747 0.0148333 0.452 255 255 255
0.0547744 0.0224426 0.548 255 255 255
0.131136 -0.0151698 0.47 255 255 255
-0.335672 -0.166594 1.579 255 255 255
0.335977 -0.202025 1.595 255 255 255
-0.876965 -0.661803 1.893 255 255 255
-0.353522 0.270539 0.713 255 255 255
0.111216 -0.335264 1.691 255 255 255
-0.782534 -0.526749 1.81 255 255 255
-0.515357 -0.0371582 1 255 255 255
0.162695 0.0265533 0.464 255 255 255
-0.355087 0.0842508 1.393 255 255 255
-0.169997 0.0627315 1.419 255 255 255
-0.129072 -0.593814 1.739 255 255 255
-0.0507259 -0.0857661 1.513 255 255 255
-0.199164 0.114988 1.381 255 255 255
-0.579349 0.0531178 1.409 255 255 255
-0.153105 0.42951 1.167 255 255 255
-0.366425 0.0842508 1.393 255 255 255
-0.412612 -0.481634 1.753 255 255 255
0.229296 -0.472969 1.774 255 255 255
-0.230315 -0.425621 1.734 255 255 255
-0.47574 0.17999 0.944 255 255 255
0.16033 0.15029 0.403 255 255 255
-0.432184 0.34441 1.068 255 255 255
-0.407677 -0.252644 1.62 255 255 255
-0.478129 0.233418 1.302 255 255 255
-0.345786 0.0122659 1.459 255 255 255
-0.36464 0.26133 1.283 255 255 255
0.070874 0.11346 0.487 255 255 255
0.119874 0.106034 0.35 255 255 255
-0.605819 -0.56749 1.837 255 255 255
0.126952 0.0704755 0.346 255 255 255
-0.556898 0.0774502 1.393 255 255 255
0.189302 -0.144558 1.563 255 255 255
0.45105 -0.200133 1.369 255 255 255
-0.500123 0.012207 1.452 255 255 255
0.134344 0.0801938 0.502 255 255 255
0.227146 -0.0130887 0.451 255 255 255
-0.0928239 0.200437 1.308 255 255 255
-0.329417 0.33248 1.237 255 255 255
0.227234 -0.0193884 0.444 255 255 255
-0.531789 0.112676 1.132 255 255 255
0.0625614 0.123032 0.478 255 255 255
-0.131163 0.303431 1.267 255 255 255
0.119002 0.0615568 0.517 255 255 255
0.1894 -0.22185 1.607 255 255 255
0.0585891 0.152981 0.465 255 255 255
-0.165847 0.21616 1.313 255 255 255
-0.542343 0.215001 1.319 255 255 255
-0.468067 0.266126 1.286 255 255 255
-0.0738784 0.160108 1.275 255 255 255
-0.784978 -0.337759 1.528 255 255 255
-0.707618 -0.602587 1.853 255 255 255
-0.292309 -0.155128 1.567 255 255 255
-0.250254 -0.0237483 1.484 255 255 255
0.501225 -0.235478 1.106 255 255 255
-0.54507 0.132801 1.215 255 255 255
0.141847 0.0651389 0.47 255 255 255
-0.24556 0.21909 1.305 255 255 255
0.170617 0.0346164 0.451 255 255 255
-0.0225763 0.38958 1.196 0 0 0
0.465077 -0.311669 1.169 255 255 255
0.112508 0.126512 0.363 255 255 255
-0.124741 0.0510444 1.354 255 255 255
-0.420804 0.240971 0.902 255 255 255
-0.064097 0.0160531 1.208 255 255 255
0.119148 0.0628725 0.514 255 255 255
0.066023 0.0572739 0.524 255 255 255
0.175185 0.112672 0.435 255 255 255
0.105146 0.0785174 0.507 255 255 255
-0.642846 -0.189047 1.595 255 255 255
0.154816 0.135215 0.411 255 255 255
0.337499 -0.457194 1.52 255 255 255
0.119612 0.0597583 0.516 255 255 255
0.156084 -0.337048 1.7 255 255 255
-0.788724 -0.277934 1.555 255 255 255
-0.690245 -0.285724 1.659 255 255 255
0.123951 -0.00821569 0.466 0 0 0
0.129958 -0.238872 1.616 255 255 255
-0.135121 -0.43659 1.744 255 255 255
0.0335975 -0.308248 1.664 255 255 255
0.126168 0.0136873 0.463 255 255 255
-0.0822684 0.354248 1.215 255 255 255
-0.522532 -0.454399 1.758 255 255 255
0.0334916 -0.0995029 1.535 255 255 255
0.204486 -0.59744 1.81 255 255 255
-0.283126 -0.427207 1.729 255 255 255
-0.302183 -0.483007 1.758 255 255 255
-0.515625 -0.176069 1.595 255 255 255
0.117705 0.169988 0.448 255 255 255
-0.778813 -0.349908 1.516 255 255 255
0.178484 0.0142849 0.458 255 255 255
0.162431 0.000935573 0.493 255 255 255
0.0831127 0.138092 0.471 255 255 255
-0.451317 0.401856 1.192 255 255 255
-0.363793 0.424565 1.185 255 255 255
-0.258096 0.42014 1.178 255 255 255
-0.552676 -0.0877617 1.505 255 255 255
0.0202545 0.0236788 1.196 255 255 255
0.324764 -0.514716 1.452 255 255 255
0.381003 -0.316597 1.487 255 255 255
0.386598 -0.402857 1.354 255 255 255
-0.421968 0.181218 1.339 255 255 255
-0.28346 -0.39282 1.714 255 255 255
0.181547 -0.0111525 0.462 255 255 255
0.373871 -0.40598 1.372 255 255 255
-0.322931 0.39803 1.198 0 0 0
-0.215414 -0.472969 1.774 255 255 255
0.0538532 -0.343589 1.705 255 255 255
-0.114588 -0.428443 1.734 255 255 255
-0.133681 0.0788587 1.378 255 255 255
0.480515 -0.379836 1.02 255 255 255
-0.530286 0.167825 1.354 255 255 255
-0.263393 0.324953 1.239 255 255 255
0.0413027 -0.624836 1.893 255 255 255
-0.410037 0.254287 0.882 255 255 255
0.374434 -0.475722 1.342 255 255 255
0.256611 0.0803535 0.503 255 255 255
-0.442435 0.200431 1.322 255 255 255
0.339505 -0.294914 1.65 255 255 255
0.362704 -0.452866 1.372 255 255 255
0.23611 0.0408371 0.521 255 255 255
-0.394847 0.0169794 1.456 255 255 255
-0.156728 0.311264 1.257 255 255 255
-0.467482 0.0118671 0.893 255 255 255
-0.300983 -0.0527278 1.484 255 255 255
0.0930846 0.155956 0.456 255 255 255
0.413105 -0.313025 1.319 255 255 255
0.0701297 -0.687938 1.923 255 255 255
0.260341 -0.598893 1.659 255 255 255
-0.412628 -0.154336 1.559 255 255 255
0.28449 -0.527665 1.583 255 255 255
-0.614841 -0.732281 1.941 255 255 255
-0.435191 0.221826 0.92 255 255 255
-0.300977 0.397366 1.196 255 255 255
-0.451032 -0.030847 1.477 255 255 255
-0.272136 0.354248 1.215 255 255 255
0.28779 -0.539961 1.559 255 255 255
-0.622112 -0.0980769 1.513 255 255 255
0.178567 -0.0104907 0.466 255 255 255
0.0831938 -0.585245 1.865 255 255 255
-0.170987 0.353665 1.213 255 255 255
0.168133 0.151409 0.406 255 255 255
-0.206528 0.353665 1.213 255 255 255
0.0416809 0.0492119 0.529 255 255 255
-0.780922 -0.276383 1.575 255 255 255
-0.438096 -0.0963098 1.524 255 255 255
0.164701 0.0122168 0.495 255 255 255
0.0570549 -0.0237638 1.234 255 255 255
0.447619 -0.31092 1.242 255 255 255
-0.374348 -0.327975 1.696 255 255 255
0.483486 -0.273594 1.145 255 255 255
0.494448 -0.24551 1.162 255 255 255
0.0588131 0.0874202 0.506 255 255 255
-0.0325537 0.0317007 1.205 255 255 255
-0.528024 0.0604223 1.419 255 255 255
0.19466 0.151484 0.419 255 255 255
0.228976 -0.115814 1.322 255 255 255
-0.248319 0.380746 1.205 255 255 255
-0.574048 0.00996233 1.185 255 255 255
0.067491 0.140559 0.469 255 255 255
-0.855711 -0.4775 1.65 255 255 255
0.171437 0.154052 0.406 255 255 255
-0.486804 -0.447401 1.753 255 255 255
0.068155 0.0188755 0.548 255 255 255
-0.449319 -0.524933 1.774 0 0 0
0.370891 -0.229078 1.567 255 255 255
0.134125 0.143807 0.379 255 255 255
0.220462 0.117245 0.483 255 255 255
-0.540828 -0.238872 1.616 255 255 255
-0.389058 0.314602 1.254 255 255 255
-0.76033 -0.429678 1.739 255 255 255
-0.365775 0.204116 0.712 255 255 255
0.0107213 0.0589032 0.531 255 255 255
-0.530306 -0.228352 1.616 255 255 255
-0.481084 -0.513385 1.774 255 255 255
0.223742 -0.511837 1.799 255 255 255
-0.0323106 0.393473 1.196 255 255 255
-0.776539 -0.27347 1.603 255 255 255
-0.304074 0.267593 1.283 255 255 255
0.0849195 0.160409 0.456 255 255 255
0.168094 0.127672 0.426 255 255 255
-0.634285 -0.529403 1.799 255 255 255
-0.287571 -0.673136 1.848 255 255 255
-0.125152 -0.281489 1.65 255 255 255
-0.581074 -0.267959 1.633 255 255 255
-0.166139 0.448361 1.152 255 255 255
-0.625179 -0.649916 1.859 255 255 255
0.440447 -0.303605 1.262 255 255 255
0.142513 0.000131948 0.488 255 255 255
-0.50937 -0.0881342 0.97 255 255 255
0.240818 0.112437 0.486 255 255 255
0.338603 -0.190201 1.583 255 255 255
-0.0622062 0.313348 1.249 255 255 255
-0.748381 -0.736315 1.935 255 255 255
-0.230223 0.363535 1.213 255 255 255
-0.0840191 0.43505 1.132 255 255 255
0.1639 -0.386695 1.724 255 255 255
-0.124741 0.101723 1.354 255 255 255
0.244533 0.0651274 0.512 255 255 255
-0.314935 0.22918 1.302 255 255 255
0.425797 -0.315657 1.286 255 255 255
-0.36339 0.337813 0.898 255 255 255
-0.859928 -0.628384 1.876 255 255 255
0.0865507 0.116391 0.486 255 255 255
-0.145202 -0.464298 1.763 255 255 255
0.0877973 0.104429 0.493 255 255 255
-0.481898 0.202889 1.324 255 255 255
0.248944 -0.208255 1.603 255 255 255
0.46523 -0.13866 1.378 255 255 255
-0.481896 0.177257 1.342 255 255 255
-0.116174 -0.474425 1.758 255 255 255
0.241796 0.0704054 0.508 255 255 255
-0.31165 0.00516771 1.466 255 255 255
-0.130294 0.0803949 1.366 255 255 255
0.154398 -0.520858 1.81 255 255 255
-0.574928 0.140444 1.345 255 255 255
-0.1963 -0.478538 1.784 255 255 255
0.198756 -0.369641 1.71 255 255 255
-0.611652 -0.0165982 1.302 255 255 255
-0.067652 0.19123 1.275 255 255 255
0.144563 -0.0131218 0.479 255 255 255
0.0144983 0.0159867 1.203 255 255 255
-0.162058 0.26133 1.283 255 255 255
0.192364 0.140843 0.426 255 255 255
-0.413202 0.404473 1.194 255 255 255
0.122981 0.00855854 0.471 255 255 255
-0.490038 -0.141287 1.555 255 255 255
0.100281 0.00559917 0.558 255 255 255
0.455395 -0.19246 1.362 255 255 255
-0.286859 0.427808 1.178 255 255 255
-0.322226 0.362636 1.21 255 255 255
0.0826496 -0.101004 1.52 255 255 255
0.0588411 0.148319 0.467 255 255 255
-0.766752 -0.287729 1.567 255 255 255
-0.18259 -0.375206 1.71 255 255 255
0.0325664 -0.703584 1.923 255 255 255
-0.793766 -0.64332 1.893 255 255 255
0.0297934 0.0451623 0.532 255 255 255
-0.48731 0.190392 1.327 255 255 255
-0.479438 -0.00718189 0.913 255 255 255
-0.700693 -0.270616 1.633 255 255 255
-0.199285 0.34889 1.217 255 255 255
0.177315 0.0275191 0.455 255 255 255
-0.31175 -0.646087 1.831 255 255 255
0.328842 -0.34345 1.664 255 255 255
-0.256264 -0.328005 1.682 255 255 255
-0.277949 0.331136 1.232 255 255 255
0.321487 -0.34699 1.668 255 255 255
-0.148621 -0.109281 1.532 255 255 255
-0.278299 -0.436908 1.734 255 255 255
0.250979 -0.0926584 1.27 255 255 255
-0.463938 0.101752 0.945 255 255 255
-0.20478 0.252064 1.289 255 255 255
-0.45443 0.0560241 0.879 255 255 255
-0.497601 -0.166594 1.579 255 255 255
-0.358224 0.247264 0.737 255 255 255
0.116879 0.070178 0.353 255 255 255
0.114746 0.108882 0.35 255 255 255
-0.454018 0.36367 1.194 255 255 255
-0.318016 -0.549896 1.799 255 255 255
0.0782884 0.167828 0.452 255 255 255
0.428518 -0.388592 1.189 255 255 255
-0.209265 0.424083 1.173 255 255 255
0.317578 -0.224466 1.607 255 255 255
-0.704008 -0.173861 1.575 255 255 255
0.0859612 0.169229 0.446 255 255 255
-0.217967 0.127635 1.372 255 255 255
-0.173959 0.343794 1.22 255 255 255
0.070674 0.129989 0.475 255 255 255
-0.042925 0.42951 1.167 255 255 255
-0.371361 -0.687802 1.831 255 255 255
-0.691135 -0.11615 1.524 255 255 255
0.461292 -0.402201 1.048 255 255 255
0.392074 -0.427841 1.265 255 255 255
0.174126 -0.175186 1.587 255 255 255
-0.277434 0.161572 1.357 255 255 255
0.374613 -0.326096 1.52 0 0 0
0.228236 0.102022 0.493 255 255 255
0.0255553 -0.0806281 1.509 255 255 255
0.392313 -0.291808 1.484 255 255 255
0.0399587 0.0500727 0.529 255 255 255
-0.318693 0.26133 1.283 255 255 255
-0.434336 -0.0530831 1.494 255 255 255
-0.657178 -0.232126 1.624 255 255 255
-0.462706 0.305855 1.26 255 255 255
-0.254397 -0.0140505 1.48 255 255 255
0.109229 0.0869019 0.503 255 255 255
0.485972 -0.307593 1.1 255 255 255
0.498266 -0.224435 1.132 255 255 255
-0.526369 -0.219917 1.612 255 255 255
0.411256 -0.379033 1.267 255 255 255
0.102805 0.114224 0.356 0 0 0
0.0580568 -0.414835 1.748 255 255 255
0.290694 -0.203038 1.603 255 255 255
-0.529891 0.228652 1.299 255 255 255
0.468583 -0.335075 1.114 255 255 255
0.233138 -0.627224 1.677 255 255 255
-0.147005 0.182987 1.336 255 255 255
-0.572394 -0.241501 1.616 255 255 255
0.225712 0.011319 0.491 255 255 255
0.216638 -0.0416993 0.485 255 255 255
-0.834213 -0.439612 1.629 255 255 255
-0.173559 -0.109281 1.532 255 255 255
-0.448896 0.358792 1.217 255 255 255
-0.445242 0.229709 1.305 255 255 255
-0.313814 0.331002 1.239 255 255 255
0.11601 0.0846142 0.504 255 255 255
0.466329 -0.397268 1.044 255 255 255
-0.789302 -0.358966 1.686 255 255 255
-0.305229 -0.585658 1.81 255 255 255
0.0353462 -0.247372 1.62 255 255 255
-0.0621066 -0.0118385 1.247 255 255 255
-0.379673 -0.0405434 1.48 255 255 255
-0.359689 0.26118 0.771 255 255 255
-0.073915 -0.472969 1.774 255 255 255
-0.385438 0.258827 0.832 255 255 255
0.135243 0.0284459 0.458 255 255 255
-0.00903808 0.00425825 1.208 255 255 255
-0.31121 0.274869 1.278 255 255 255
0.144005 -0.0274928 0.485 255 255 255
0.14145 -0.378278 1.724 255 255 255
0.195687 -0.0321313 1.247 255 255 255
-0.354602 0.280131 0.732 255 255 255
-0.597305 -0.674177 1.876 255 255 255
-0.175515 0.446486 1.152 255 255 255
0.476698 -0.355711 1.083 255 255 255
-0.480398 -0.0160788 0.912 255 255 255
0.176277 0.132592 0.424 255 255 255
-0.46632 0.048683 0.902 255 255 255
-0.687043 -0.346271 1.691 255 255 255
-0.540878 -0.163984 1.03 255 255 255
-0.516475 0.0650407 1.419 255 255 255
0.133243 -0.0794844 1.291 255 255 255
-0.334125 0.161215 1.354 255 255 255
0.154312 0.149544 0.401 255 255 255
0.220042 -0.0234673 0.453 255 255 255
-0.456622 0.228049 0.909 255 255 255
-0.768263 -0.31798 1.505 255 255 255
0.204951 -0.054759 1.254 255 255 255
-0.448938 0.38958 1.196 255 255 255
-0.388404 -0.217598 1.595 255 255 255
-0.242868 0.344929 1.217 255 255 255
-0.0986443 0.0490399 1.247 0 0 0
0.285539 -0.585818 1.52 255 255 255
-0.457048 0.357345 1.167 255 255 255
-0.61046 -0.0307634 1.473 255 255 255
-0.185929 0.0260754 1.435 255 255 255
-0.36736 0.0376725 1.432 255 255 255
-0.806123 -0.376318 1.642 255 255 255
-0.297762 -0.0429519 1.48 255 255 255
-0.354615 0.276713 0.742 255 255 255
0.220812 0.111539 0.489 255 255 255
-0.450457 -0.147478 1.567 255 255 255
0.0617494 0.148001 0.466 255 255 255
0.0583332 0.083797 0.509 255 255 255
0.0957643 -0.35851 1.71 255 255 255
-0.259657 0.385988 1.203 255 255 255
-0.87918 -0.553657 1.821 255 255 255
-0.253309 0.324953 1.239 255 255 255
-0.466446 0.106459 1.387 255 255 255
-0.0209571 -0.0056031 1.215 255 255 255
0.388653 -0.369447 1.369 255 255 255
0.193996 -0.267413 1.646 255 255 255
-0.428236 -0.392306 1.724 255 255 255
0.405214 -0.207769 1.505 255 255 255
-0.411779 -0.510498 1.774 0 0 0
-0.324959 0.265505 1.283 0 0 0
0.328058 -0.376549 1.62 255 255 255
-0.00139796 0.0430451 0.538 255 255 255
-0.535862 0.228219 1.273 255 255 255
-0.320895 0.370942 1.205 255 255 255
0.393575 -0.28481 1.498 255 255 255
0.164512 0.111449 0.433 0 0 0
0.229039 0.102824 0.493 255 255 255
-0.130286 -0.0139176 1.466 255 255 255
-0.214672 0.286224 1.273 255 255 255
-0.375907 0.0734399 1.403 255 255 255
0.407368 -0.199025 1.513 255 255 255
-0.312606 0.215666 1.31 255 255 255
0.158758 -0.0529706 1.26 255 255 255
0.12741 0.0230258 0.454 255 255 255
-0.362642 0.247619 0.764 255 255 255
-0.53606 -0.153031 1.024 255 255 255
0.133031 -0.383889 1.724 255 255 255
-0.109486 -0.558484 1.789 255 255 255
0.144684 0.0126803 0.482 255 255 255
0.193614 0.0653818 0.514 255 255 255
0.224263 -0.0257162 0.441 255 255 255
-0.337986 -0.0830837 1.509 255 255 255
0.0244153 -0.196834 1.595 255 255 255
0.4948 -0.230674 1.154 255 255 255
-0.324394 -0.438168 1.739 255 255 255
-0.0861701 -0.250625 1.624 255 255 255
0.183478 -0.0867987 1.275 255 255 255
0.114214 0.119418 0.476 255 255 255
0.0745437 0.0484424 0.53 255 255 255
-0.500264 0.0225919 0.98 0 0 0
0.430509 -0.290316 1.333 255 255 255
-0.451003 0.192662 0.931 255 255 255
-0.868517 -0.534106 1.805 255 255 255
0.19082 0.0683265 0.511 255 255 255
-0.609747 -0.0522139 1.242 255 255 255
-0.293072 -0.220746 1.599 255 255 255
-0.229275 0.240964 1.297 255 255 255
-0.84597 -0.488699 1.616 255 255 255
0.350106 -0.427548 1.384 255 255 255
-0.748631 -0.630769 1.865 0 0 0
-0.547604 0.117235 1.381 255 255 255
0.0957612 -0.238872 1.616 255 255 255
0.177296 0.081979 0.508 0 0 0
0.361764 -0.410586 1.403 255 255 255
-0.510876 -0.346271 1.691 255 255 255
0.0612841 0.0857734 0.506 255 255 255
-0.569172 0.102252 1.278 255 255 255
-0.444833 -0.419978 1.734 255 255 255
0.501224 -0.215427 1.114 255 255 255
-0.189165 -0.544041 1.799 255 255 255
0.0805558 0.133572 0.474 255 255 255
-0.139184 -0.602719 1.724 255 255 255
0.0547692 -0.394581 1.734 255 255 255
0.025106 0.0257724 0.543 255 255 255
-0.293268 -0.269953 1.629 255 255 255
0.163233 0.0137719 0.493 255 255 255
0.124707 0.0816562 0.506 255 255 255
-0.169196 0.15053 1.357 255 255 255
0.119065 0.0864472 0.338 255 255 255
0.114657 0.105428 0.348 255 255 255
-0.299423 -0.130828 1.551 255 255 255
-0.238927 0.0999033 1.39 255 255 255
-0.48553 0.0734399 1.403 255 255 255
0.240855 -0.629768 1.655 255 255 255
0.109428 -0.00717726 0.563 255 255 255
-0.0900706 0.226539 1.299 255 255 255
0.215897 -0.0406676 0.473 255 255 255
-0.437439 0.108999 0.868 255 255 255
-0.355106 0.257207 0.738 255 255 255
0.205268 0.113693 0.488 255 255 255
0.0331323 0.0484424 0.53 255 255 255
0.104024 0.0833301 0.341 255 255 255
0.20539 0.0773221 0.51 255 255 255
0.150726 0.0384558 0.453 255 255 255
0.250169 -0.533834 1.719 255 255 255
-0.148661 -0.55173 1.805 0 0 0
0.473708 -0.182112 1.351 255 255 255
0.317004 -0.32625 1.673 255 255 255
0.110125 0.10656 0.348 255 255 255
0.148105 -0.107032 1.435 255 255 255
0.240605 0.090718 0.497 255 255 255
-0.0514311 -0.0448393 1.463 255 255 255
0.091861 0.112335 0.489 255 255 255
-0.465439 0.205181 0.906 255 255 255
-0.316635 0.187335 1.336 255 255 255
-0.562095 0.0598688 1.406 255 255 255
-0.442131 0.310521 1.254 255 255 255
-0.738162 -0.228552 1.599 255 255 255
0.0621804 0.164839 0.458 255 255 255
-0.258594 0.272149 1.275 255 255 255
-0.412612 -0.46737 1.753 255 255 255
-0.31415 -0.376084 1.714 255 255 255
-0.323798 -0.669977 1.815 0 0 0
0.290136 -0.343519 1.691 255 255 255
0.145044 0.0587462 0.456 255 255 255
-0.498277 0.140722 1.369 255 255 255
0.178716 0.138176 0.42 255 255 255
-0.140513 -0.318083 1.673 255 255 255
0.114503 0.110906 0.351 255 255 255
-0.353351 -0.136226 1.555 255 255 255
-0.287459 0.101724 1.384 255 255 255
-0.593438 0.0121818 1.449 255 255 255
0.238994 -0.0521119 0.584 255 255 255
0.190828 0.00834049 0.459 255 255 255
0.248937 -0.287728 1.655 255 255 255
0.172869 0.0282449 0.467 255 255 255
-0.470215 -0.729575 1.893 255 255 255
-0.749098 -0.344428 1.682 255 255 255
0.22596 0.122254 0.478 255 255 255
-0.106159 0.103005 1.342 255 255 255
0.239427 0.0690227 0.51 255 255 255
0.118697 0.117369 0.355 255 255 255
0.0628189 0.0443798 0.533 255 255 255
-0.356554 -0.45078 1.744 255 255 255
0.110453 0.0986012 0.342 255 255 255
-0.375631 -0.237541 1.607 255 255 255
0.149658 0.0376354 0.452 255 255 255
-0.501675 0.295603 1.26 255 255 255
-0.354602 0.256307 0.732 255 255 255
0.234942 0.0915268 0.497 255 255 255
0.378752 -0.480447 1.319 255 255 255
0.373625 -0.367456 1.449 255 255 255
-0.672576 -0.412699 1.739 255 255 255
-0.511049 -0.386337 1.71 255 255 255
0.249186 0.063585 0.513 255 255 255
0.119827 -0.339015 1.696 255 255 255
0.238245 0.0108349 0.47 0 0 0
-0.57237 -0.756723 1.947 255 255 255
-0.644324 -0.383889 1.724 255 255 255
-0.44791 -0.0138511 1.459 255 255 255
0.487948 -0.176318 1.324 255 255 255
-0.505992 0.199257 1.132 255 255 255
-0.561128 -0.751233 1.941 255 255 255
-0.586182 -0.0191075 1.194 255 255 255
0.0934153 0.158228 0.454 255 255 255
-0.0723377 0.390791 1.182 255 255 255
0.0480728 0.0109485 0.553 255 255 255
-0.0148754 0.374241 1.203 255 255 255
0.464183 -0.32493 1.162 255 255 255
-0.491627 -0.0520306 0.945 255 255 255
0.124699 0.0716016 0.346 255 255 255
-0.245125 0.432888 1.171 255 255 255
0.115089 0.0904519 0.5 255 255 255
0.119515 0.115887 0.354 255 255 255
-0.0321688 -0.724853 1.865 255 255 255
-0.293736 -0.0599726 1.484 255 255 255
0.144827 0.0362443 0.453 255 255 255
0.114415 0.0308453 0.539 255 255 255
0.231307 0.105603 0.491 255 255 255
0.189088 0.0238018 0.441 255 255 255
-0.262332 0.284152 1.273 255 255 255
-0.317102 0.353665 1.213 255 255 255
0.0954512 0.119603 0.483 255 255 255
0.0159974 0.0444631 0.534 255 255 255
0.226198 -0.00956528 0.458 255 255 255
0.0229514 0.0444631 0.534 255 255 255
0.235708 0.00698085 0.468 255 255 255
0.0771834 0.0996146 0.497 255 255 255
0.341513 -0.47338 1.463 255 255 255
-0.386672 0.0216585 1.452 255 255 255
-0.47629 0.148357 1 255 255 255
0.135041 0.0457357 0.438 255 255 255
-0.396849 -0.417156 1.734 255 255 255
-0.509754 0.0248037 1.005 255 255 255
-0.486789 -0.236827 1.62 255 255 255
-0.0148507 0.019869 1.201 255 255 255
-0.265694 0.0716132 1.412 255 255 255
-0.374137 0.200734 1.324 255 255 255
-0.77043 -0.739464 1.935 255 255 255
0.45552 -0.259362 1.33 255 255 255
-0.461329 0.223828 0.898 255 255 255
0.3542 -0.234926 1.607 255 255 255
0.345827 -0.421738 1.535 255 255 255
-0.0726774 0.345779 1.22 255 255 255
-0.361606 -0.127973 1.547 255 255 255
0.504749 -0.265937 1.098 255 255 255
-0.451988 0.351735 1.22 255 255 255
-0.389512 0.0286086 1.445 255 255 255
-0.428184 -0.133352 1.551 255 255 255
0.220245 -0.440436 1.748 255 255 255
0.176164 -0.614649 1.853 255 255 255
-0.448981 0.127914 1.375 255 255 255
-0.307325 0.200734 1.324 255 255 255
0.245741 -0.0950981 1.275 255 255 255
-0.00359624 -0.0469225 1.384 255 255 255
-0.548153 -0.210338 1.599 255 255 255
-0.6471 -0.407039 1.739 255 255 255
0.220019 -0.0435568 0.597 255 255 255
-0.939875 -0.629726 1.853 255 255 255
-0.535989 0.0780189 1.137 255 255 255
-0.929204 -0.673171 1.899 255 255 255
-0.0866704 -0.570389 1.799 255 255 255
-0.283443 0.0400029 1.432 255 255 255
-0.429411 0.114755 0.828 255 255 255
-0.838069 -0.585925 1.848 255 255 255
0.15077 0.019412 0.474 255 255 255
0.169833 0.141259 0.415 255 255 255
0.129385 0.0663524 0.348 255 255 255
0.104515 0.107785 0.352 255 255 255
-0.470517 -0.182472 1.583 255 255 255
0.288528 -0.505737 1.563 255 255 255
-0.453183 0.217404 0.914 255 255 255
-0.0147212 -0.228352 1.616 255 255 255
-0.384943 -0.479161 1.744 255 255 255
0.0121863 -0.342581 1.7 255 255 255
-0.316706 0.278374 1.275 255 255 255
-0.151661 0.43863 1.156 255 255 255
-0.259561 -0.311703 1.668 255 255 255
-0.654862 -0.121746 1.532 255 255 255
0.05818 0.132801 0.474 0 0 0
-0.282777 0.41878 1.185 255 255 255
-0.379252 -0.55402 1.784 255 255 255
0.0274615 -0.516254 1.794 255 255 255
0.112851 0.0220415 0.449 255 255 255
-0.39846 -0.529307 1.779 255 255 255
-0.202953 0.405735 1.192 255 255 255
0.161379 -0.0123166 0.478 255 255 255
0.136412 -0.0551084 1.262 255 255 255
-0.4335 0.245954 0.883 255 255 255
-0.461059 0.0373861 0.878 255 255 255
-0.204487 -0.581103 1.805 255 255 255
-0.238399 0.264471 1.278 255 255 255
-0.457156 0.0911763 0.916 0 0 0
0.270708 -0.489601 1.673 255 255 255
-0.400453 -0.0857661 1.513 255 255 255
0.212944 -0.0328133 0.482 0 0 0
-0.440794 -0.464298 1.763 255 255 255
-0.258732 0.106459 1.387 0 0 0
0.11816 0.0598741 0.517 255 255 255
-0.249074 0.0714611 1.409 255 255 255
0.093984 -0.645359 1.899 255 255 255
0.212029 -0.50891 1.799 255 255 255
0.188752 0.149762 0.418 255 255 255
-0.166584 0.324953 1.239 255 255 255
0.235262 0.0493155 0.521 255 255 255
-0.221266 -0.0358231 1.484 255 255 255
-0.241605 -0.431265 1.734 255 255 255
-0.464834 0.343282 1.158 255 255 255
-0.0637255 0.0335499 1.201 255 255 255
0.144261 -0.0146502 0.478 255 255 255
-0.580514 -0.460121 1.769 255 255 255
-0.240234 -0.254048 1.629 255 255 255
-0.444883 -0.0804144 1.505 255 255 255
-0.307792 -0.294914 1.65 255 255 255
0.427161 -0.303746 1.316 255 255 255
-0.492425 0.152964 1.359 255 255 255
-0.154874 0.0974305 1.387 255 255 255
0.430828 -0.191922 1.459 255 255 255
-0.142781 -0.660724 1.7 255 255 255
0.0450808 0.112794 0.491 255 255 255
0.213693 -0.64813 1.696 255 255 255
-0.831099 -0.432508 1.739 255 255 255
0.145193 -0.0301068 0.489 255 255 255
-0.188165 0.306341 1.262 255 255 255
0.0455442 0.0913564 0.505 255 255 255
0.212222 -0.401885 1.729 255 255 255
-0.312539 -0.174303 1.579 255 255 255
0.130839 0.0781061 0.34 255 255 255
-0.16429 -0.193264 1.587 255 255 255
-0.156281 0.287616 1.27 255 255 255
0.43796 -0.302178 1.291 255 255 255
0.28468 -0.139266 1.362 255 255 255
-0.353136 -0.125131 1.543 255 255 255
-0.304407 0.29106 1.267 255 255 255
-0.14181 0.293816 1.27 255 255 255
0.24427 0.112995 0.485 255 255 255
-0.216376 -0.109495 1.535 255 255 255
0.317578 -0.402294 1.607 255 255 255
-0.0992564 -0.0704771 1.502 255 255 255
0.225871 0.13255 0.465 0 0 0
-0.188966 -0.298131 1.668 255 255 255
-0.118569 -0.369641 1.71 255 255 255
0.1875 -0.00661276 0.46 0 0 0
0.243725 -0.213472 1.603 255 255 255
0.417627 -0.335837 1.237 255 255 255
0.0686762 0.103033 0.494 255 255 255
0.105929 0.0258673 0.545 255 255 255
0.17579 0.117086 0.433 255 255 255
-0.290358 0.0691682 1.409 255 255 255
-0.549132 0.165988 1.357 255 255 255
-0.188789 0.209353 1.324 255 255 255
-0.674355 -0.0891319 1.487 255 255 255
-0.228244 -0.693371 1.784 255 255 255
-0.375997 -0.324257 1.691 255 255 255
-0.526718 0.269261 1.281 255 255 255
0.0221777 0.0899876 0.516 255 255 255
0.175587 0.131212 0.424 255 255 255
-0.0380873 0.398644 1.194 255 255 255
0.338594 -0.181089 1.571 255 255 255
-0.0830675 0.0627092 1.198 255 255 255
-0.435174 0.385346 1.201 255 255 255
-0.56894 -0.356414 1.7 255 255 255
-0.0855112 0.231984 1.294 255 255 255
-0.51512 -0.099014 0.984 255 255 255
-0.228388 0.117235 1.381 255 255 255
-0.684393 -0.17732 1.583 255 255 255
-0.407976 -0.109281 1.532 255 255 255
-0.408968 0.352312 1.222 255 255 255
0.00667641 0.349372 1.205 255 255 255
-0.12792 0.380484 1.198 255 255 255
0.224678 0.0877205 0.503 255 255 255
0.14293 0.0570109 0.454 255 255 255
0.376262 -0.466024 1.333 255 255 255
0.116246 0.171446 0.448 255 255 255
0.143982 0.0274849 0.467 255 255 255
-0.0671125 -0.0555143 1.494 255 255 255
