ply
format ascii 1.0
comment Created by Open3D
element vertex 1336
property double x
property double y
property double z
property uchar red
property uchar green
property uchar blue
end_header
-0.955203 0.664179 2.278 100 101 95
0.370234 0.454902 1.543 2 6 0
1.00205 -0.165256 2.615 40 42 31
0.125191 0.0046475 2.449 131 122 117
0.420398 0.463575 1.498 26 34 21
0.215442 -0.739038 2.228 47 69 72
0.798747 -0.788987 2.278 183 179 180
-0.870288 -0.734544 1.947 134 134 128
-0.0577366 0.566137 2.43 113 106 100
0.253503 -0.84892 2.212 43 40 37
0.420887 0.0125203 2.43 138 129 124
0.137663 -0.672717 2.261 153 143 143
-0.695252 -0.172549 2.365 138 128 126
-0.40121 -0.715415 2.189 151 142 135
-0.993016 0.664489 2.136 95 100 90
-0.243648 0.348645 2.43 114 105 108
-0.0895249 -0.694388 2.236 161 153 150
0.246842 0.087654 2.43 129 121 120
0.0382532 0.460212 2.499 113 106 100
0.488476 -0.080487 2.374 142 134 131
-0.676663 -0.709251 2.181 134 129 125
1.10636 0.513592 3.215 15 23 12
-0.682858 0.61291 2.459 125 122 117
0.68591 -0.299878 2.43 155 148 140
-0.0373651 0.296482 2.392 121 111 109
0.571198 0.0481099 2.43 135 130 128
-0.322609 0.644923 2.459 125 118 110
-0.628833 -0.0795716 2.347 136 129 123
-1.00316 0.531278 2.489 120 120 114
0.568278 -0.621206 2.261 171 163 162
-0.947024 -0.425914 2.166 121 117 108
-0.371256 0.322378 2.411 129 122 116
-0.2373 -0.640608 2.189 157 149 146
-0.868389 -0.584451 1.664 134 138 133
-0.538204 -0.666661 2.181 127 126 128
0.157724 0.468852 2.459 114 106 105
-0.52627 -0.0501655 2.402 135 127 126
-0.572247 -0.793784 2.189 147 142 138
0.0840018 0.389077 2.411 122 115 109
-0.246995 0.788922 2.212 118 119 110
-0.466035 0.760825 2.143 110 111 98
-0.537623 0.190663 2.383 118 113 109
-0.0691998 -0.509032 2.286 139 128 134
-0.9253 -0.419157 1.842 136 134 124
0.208268 0.470522 2.489 114 107 101
-0.181142 -0.235259 2.338 144 135 130
0.729433 -0.78012 2.329 179 178 178
1.2324 -0.23331 2.479 100 99 84
-0.375181 0.330225 2.411 128 123 119
0.627489 0.0325448 2.449 137 129 126
0.051676 -0.799223 2.204 162 151 144
0.272278 0.389617 1.543 1 8 2
0.732802 -0.652943 2.269 174 170 171
-0.173531 -0.360814 2.338 157 149 146
-0.0688012 0.305539 2.402 117 109 106
-0.82259 0.287067 2.411 125 123 113
1.14113 -0.350457 2.509 33 44 55
-0.949313 -0.393753 2.071 129 127 119
-0.490246 -0.75262 2.173 146 144 136
1.02408 -0.778985 2.707 92 89 73
0.710227 -0.38861 2.392 158 155 150
0.586073 -0.175055 2.347 146 139 133
-0.49354 -0.501537 2.236 148 141 135
0.759486 0.000695431 2.572 18 19 13
-0.770367 0.016156 2.383 134 126 123
1.12845 -0.304326 2.499 31 47 55
-0.156881 -0.192522 2.374 141 133 132
0.178461 0.595313 2.469 110 102 99
-0.158307 -0.337986 2.338 151 140 144
0.0366153 0.043465 2.392 128 118 116
0.181798 -0.467109 2.356 120 117 114
0.406432 0.263988 1.528 12 14 5
-0.625376 -0.210795 2.32 137 129 128
-0.0837733 0.582333 2.383 108 104 97
-0.821053 0.698927 2.114 104 106 95
0.394048 0.153668 2.411 128 120 119
-1.0332 0.0861838 2.024 121 126 112
-0.333431 -0.398188 2.312 146 141 137
-0.204762 -0.20561 2.347 147 133 127
0.275864 0.507499 1.535 1 6 0
0.0643786 0.114433 2.411 125 116 111
-0.297971 -0.310154 2.329 145 137 136
0.690966 -0.318335 2.42 156 147 150
-0.0133824 -0.40859 2.286 142 132 130
-0.457142 -0.508814 2.236 155 147 144
-0.325232 0.182207 2.479 137 128 123
-0.137559 0.329021 2.374 118 106 104
0.486624 -0.418861 2.365 138 141 144
1.06344 0.00509346 2.684 5 25 40
-0.510517 0.288138 2.42 128 124 117
-1.05029 0.207267 2.228 117 114 109
-0.546841 -0.667751 2.173 128 124 127
0.285252 0.249048 1.559 6 11 1
-1.04222 0.656197 2.166 93 100 94
-0.873562 -0.670081 1.899 136 133 130
-0.377108 0.219855 2.449 126 116 114
0.161727 0.656927 2.459 106 103 100
1.1656 0.360647 2.572 131 133 120
-0.710004 -0.46502 2.253 137 133 126
0.280246 0.527877 1.362 7 18 27
-0.140351 0.3687 2.356 117 107 105
0.487009 -0.590069 2.312 86 95 116
0.502107 0.361326 1.18 190 201 201
1.19396 -0.124335 2.561 7 15 14
-0.996892 -0.204912 2.004 125 125 119
-0.790207 0.477169 2.42 127 123 114
-0.317976 -0.372678 2.365 146 141 137
-0.948744 -0.4091 2.228 112 110 100
0.613944 -0.857322 2.253 184 181 178
-0.0216263 0.82352 2.374 106 102 93
0.35962 0.292629 1.509 8 10 1
0.00550908 0.310608 2.411 118 109 104
1.05902 0.097213 2.695 0 15 28
-0.4419 0.400848 2.411 128 123 119
0.434076 0.47644 1.47 46 43 38
-0.534153 0.378715 2.42 127 125 117
-0.319376 -0.209429 2.347 142 132 132
0.430166 0.434265 1.473 63 65 47
0.443661 0.370382 1.439 80 85 71
1.3766 -0.563131 2.707 11 19 18
1.1656 0.398317 2.572 130 131 120
0.473645 0.397387 1.034 171 179 176
-0.579759 -0.0840304 2.365 133 128 126
0.299308 0.518063 1.348 0 13 18
-0.00235864 0.791539 2.43 107 101 88
0.823555 -0.0781546 2.55 69 77 66
-0.840539 -0.59549 2.22 129 127 115
0.833221 -0.23138 2.593 10 20 8
1.11129 -0.516119 2.582 45 52 60
-0.921179 -0.124434 2.402 126 127 116
-0.0586964 0.82835 2.312 113 106 96
1.05433 -0.0514562 2.672 70 69 71
1.20091 0.110034 2.489 94 84 82
-0.220557 -0.530647 2.236 155 147 144
-0.244427 -0.629922 2.189 156 148 145
1.35179 -0.545243 2.684 6 12 10
1.20103 -0.83166 2.78 36 37 33
0.793757 -0.0284807 2.561 45 49 44
0.0776259 -0.699155 2.228 153 143 143
-0.2192 -0.337986 2.338 149 139 137
-0.731569 0.739576 1.966 107 112 100
0.220562 -0.565683 2.32 29 31 37
-0.453961 0.606613 2.499 130 120 118
-0.156286 -0.203338 2.365 141 133 130
-0.772906 0.437435 2.44 128 124 117
1.12102 -0.660045 2.707 42 44 50
-0.110508 -0.161616 2.374 140 130 128
1.39861 -0.891132 2.768 5 12 6
-0.750971 0.0200339 2.383 131 124 118
0.53113 -0.707828 2.244 118 128 133
0.515542 0.0551427 2.392 137 129 128
-0.103712 -0.67015 2.228 162 151 155
0.366445 -0.859215 2.22 53 60 68
-0.491843 -0.654538 2.212 144 137 131
0.509723 -0.216519 2.383 146 136 136
-0.945271 -0.299379 1.789 131 132 123
0.511618 -0.363592 2.356 153 147 149
-1.052 0.311579 1.991 115 119 112
1.18152 0.0562638 2.626 6 13 7
1.01086 -0.123781 2.638 57 57 59
0.322185 0.140241 1.591 22 12 22
-0.554915 0.0585911 2.374 133 123 123
-0.534756 -0.539022 2.196 135 128 120
0.0319829 -0.22765 2.338 136 126 124
0.328836 -0.52822 2.338 57 63 65
-0.644482 0.596658 2.561 127 122 120
-0.316702 -0.639083 2.196 149 141 138
-0.743695 0.698086 2.244 107 113 111
-0.553622 -0.248549 2.32 135 130 128
0.13226 0.551319 1.612 106 99 93
-0.321443 -0.519466 2.204 150 143 137
-0.167835 -0.137911 2.365 139 131 128
0.418288 0.340136 1.535 31 22 13
-0.147552 0.216444 2.411 126 116 116
-0.842213 0.287067 2.411 121 117 108
0.998185 -0.317793 2.509 17 34 39
-0.508099 -0.516092 2.236 148 142 144
-0.978956 0.553349 2.479 120 120 114
1.20727 0.297461 2.805 11 13 4
1.36365 -0.825054 2.743 17 14 0
-0.407826 -0.378829 2.286 144 139 137
-0.0325899 -0.348055 2.329 143 134 129
-0.358634 0.184739 2.459 137 125 125
0.436709 0.0125203 2.43 135 127 124
-0.70485 0.224291 2.411 125 123 115
0.0719517 -0.529493 2.278 146 141 137
0.303359 -0.327829 2.347 163 159 164
0.448576 -0.0547047 2.43 142 132 130
-0.858619 0.137459 2.402 115 113 103
-0.399553 0.219047 2.44 126 114 114
1.13552 0.546808 3.165 15 20 10
-0.705325 -0.670104 2.204 138 138 132
-0.386653 0.672934 2.459 127 120 112
-0.787646 -0.134063 2.365 129 125 116
-0.431272 0.519215 2.509 127 123 116
1.19714 0.0546354 2.55 117 121 116
1.27752 -0.584553 2.684 48 43 51
1.07885 0.448949 3.165 21 17 8
-0.047939 0.83386 2.338 109 105 94
0.347865 -0.520611 2.338 61 68 72
1.04727 0.521285 2.519 168 174 172
1.19813 0.346602 2.561 128 132 125
1.28659 0.334173 2.53 133 135 122
0.278737 -0.0917277 2.365 137 127 127
-0.678855 0.61291 2.459 125 122 117
-0.932823 -0.439112 1.972 132 133 124
0.286393 -0.664007 2.244 27 28 22
0.256745 0.259708 2.449 122 114 113
0.975989 -0.678886 2.66 77 84 78
0.208327 -0.630788 2.269 27 28 24
-1.10424 0.600103 2.392 105 105 101
0.0246528 0.108401 2.365 126 117 112
-0.783343 0.655875 2.411 115 115 111
-0.243732 0.164135 2.392 136 126 124
0.368679 -0.0882135 2.374 138 128 126
0.519435 -0.267941 2.392 149 143 145
-0.345299 -0.721276 2.196 152 143 146
-0.541502 0.136372 2.383 132 127 125
0.535484 0.35986 1.169 196 206 211
-0.297971 -0.241933 2.329 152 143 138
-0.858576 -0.0412195 2.338 126 127 114
1.18597 0.425223 2.898 19 12 2
0.369191 0.478202 1.498 5 22 23
-0.93475 -0.41802 1.837 132 133 122
-0.475287 -0.549347 2.253 139 131 130
-0.876071 -0.663635 1.744 136 137 133
-0.199817 0.149634 0.403 7 19 25
-1.10333 0.300833 2.365 97 98 94
-0.514349 0.0471794 2.383 132 126 128
-0.654202 -0.583613 2.189 140 137 132
1.20129 -0.322986 2.55 78 96 94
-0.651756 0.298543 2.347 127 124 121
-0.19438 -0.579508 2.228 166 156 154
0.535334 0.324586 1.403 202 207 212
0.48824 0.0163459 2.411 137 129 126
-0.773759 -0.191256 2.312 131 122 115
0.204633 -0.630788 2.269 25 26 22
-0.408337 -0.758162 2.189 153 145 144
-0.0163778 -0.825844 2.189 147 143 134
-0.272482 -0.265696 2.338 149 139 137
0.295718 -0.369841 2.347 173 171 178
-0.177936 -0.784877 2.204 165 160 158
0.322461 -0.32019 2.347 165 160 170
0.925928 0.171325 2.911 17 22 12
0.857313 0.309886 3.165 41 38 24
-1.05362 0.257556 2.392 123 120 106
-0.0380161 0.847041 2.204 113 109 102
-1.12248 0.61658 2.294 102 107 97
0.667553 -0.417884 2.338 161 156 152
1.2135 -0.0312204 2.449 157 159 150
1.21064 -0.466077 2.561 77 86 79
-0.886414 -0.703113 2.173 125 124 109
-0.0888843 -0.577427 2.22 163 149 145
-0.502693 0.735899 2.329 119 116 102
0.369629 0.179622 1.551 9 11 2
0.450503 0.360801 1.273 176 175 175
-1.05784 0.132069 2.244 117 116 116
-0.552405 0.753021 2.181 110 108 100
0.245785 0.244763 2.459 121 113 110
-0.995074 0.572894 2.459 122 115 107
0.194376 0.291727 2.519 121 113 112
-0.765496 -0.622142 2.212 140 136 127
-0.0744367 -0.0633607 2.459 136 122 116
0.245785 0.604907 2.459 108 100 97
0.157575 -0.513002 2.338 61 55 59
0.756898 -0.799198 2.286 183 180 177
1.38436 -0.585901 2.731 13 20 12
1.09768 -1.05824 2.805 46 37 40
0.452531 -0.00725178 2.43 139 128 132
-0.307086 -0.262742 2.312 136 125 129
-0.629812 0.619666 2.519 127 124 121
-0.63406 -0.815727 2.181 140 141 130
-0.90748 -0.556202 2.099 128 124 115
-0.113071 -0.217068 2.347 142 135 127
-1.03788 0.0814607 2.365 127 124 121
-0.851042 -0.731403 2.173 139 140 136
1.0065 -0.204394 2.572 35 39 32
-0.122564 0.330268 2.383 119 108 103
-0.777079 -0.637825 2.204 138 136 126
0.369533 -0.680076 2.261 48 46 53
-0.765489 -0.0499567 2.392 132 126 128
0.470249 0.375403 1.182 164 170 168
-0.770919 0.468852 2.459 125 123 115
1.07317 -0.883664 2.731 21 17 8
1.27999 0.237491 2.509 142 140 130
-0.919586 -0.503382 1.985 135 130 126
1.19593 0.238612 2.707 37 39 21
-0.604203 -0.477988 2.228 145 138 130
-0.73639 -0.433949 2.244 141 134 128
0.0468427 0.838767 2.32 103 101 91
-0.914688 0.100704 2.365 125 123 113
-1.08946 0.385154 2.411 117 125 112
-0.805339 0.581955 2.43 126 122 113
1.33395 -0.912816 2.793 6 11 0
-0.81383 0.10495 2.374 127 122 118
1.27881 -0.637576 2.743 89 89 83
0.437668 0.436973 1.466 65 66 57
0.337743 -0.457686 2.347 42 43 34
-0.781529 -0.353858 2.269 136 129 123
0.563287 0.0402011 2.43 136 131 127
0.0797783 0.60652 2.402 107 104 99
0.240239 -0.0801818 2.365 133 122 126
1.2668 0.475497 2.582 134 132 124
0.541763 0.36651 1.154 199 211 215
1.06093 -0.539233 2.572 14 30 40
0.931141 -0.149982 2.572 75 76 72
-0.84043 -0.75262 2.173 145 143 135
-0.480694 -0.4376 2.244 146 141 139
0.0543958 -0.399565 2.32 143 134 129
-0.5771 0.418896 2.402 126 120 122
-0.732323 -0.0503535 2.411 132 130 122
0.242766 0.418527 2.469 117 108 111
-1.06652 0.665655 2.151 92 101 94
-0.879027 -0.787334 2.181 119 126 130
-0.79928 -0.399653 2.236 139 132 126
-0.920296 -0.480849 1.959 137 128 121
-0.616428 -0.241933 2.329 137 130 124
0.155822 -0.213831 2.312 140 128 126
-0.907974 -0.549158 1.887 132 130 122
-0.431663 -0.345073 2.236 144 139 137
0.298706 0.208991 1.563 6 10 5
-0.64089 0.393796 2.392 124 124 118
-0.0531613 0.805871 2.402 109 102 96
0.70462 -0.305083 2.44 155 148 142
1.2171 -1.05619 2.939 36 42 25
1.20898 -0.259718 2.54 34 34 36
0.253556 0.454328 1.567 5 5 0
-0.107452 0.401581 2.392 116 106 104
-0.481146 0.259602 2.411 128 123 121
0.0918021 -0.815863 2.22 154 149 147
0.644034 -0.349685 2.392 157 149 146
0.0323523 0.0853094 2.365 128 117 108
0.708854 0.328965 1.412 184 198 204
-1.06305 0.288944 2.037 113 118 108
0.222378 0.412472 1.563 4 8 1
-0.801342 -0.234565 2.294 133 129 122
1.25531 0.477523 2.593 128 130 119
-0.822294 -0.11482 2.365 135 131 122
-0.240373 -0.42347 2.286 159 151 150
0.666283 -0.609231 2.244 171 168 165
-0.56951 -0.534075 2.22 152 145 139
0.944897 0.35624 3.165 30 28 16
-0.740567 -0.680857 2.181 139 134 132
0.469905 0.344206 1.372 153 158 163
-0.46021 0.77077 2.085 113 114 103
0.545477 -0.775295 2.228 121 137 145
-0.566606 -0.453708 2.181 141 139 131
0.330102 -0.522615 2.347 64 67 66
-0.182191 0.246907 2.402 128 118 118
0.260542 0.303101 1.563 8 9 5
0.168426 0.740814 2.499 116 116 110
-0.98451 -0.160566 1.941 128 126 118
-0.504627 -0.435689 2.253 143 139 140
-1.00325 -0.00703094 2.356 129 127 119
1.17951 -0.258696 2.53 53 61 62
1.13705 -0.2443 2.509 53 45 33
1.13541 -0.745893 2.731 87 90 74
0.861634 0.136471 2.78 19 20 7
0.0444028 -0.0343864 2.392 131 123 122
1.00206 0.124627 2.719 38 37 37
-0.920705 0.173285 2.411 127 123 114
-0.876026 -0.212166 2.294 132 128 121
0.321659 0.189718 1.551 9 10 0
-0.289687 -0.613423 2.181 137 132 128
1.27095 -0.801764 2.755 29 37 34
0.903581 -0.38221 2.53 77 88 88
-0.398729 0.247832 2.411 137 127 127
-0.314603 0.628916 2.459 122 117 115
-0.853235 0.603189 2.42 114 111 106
0.193892 0.396924 2.411 115 107 106
-0.641645 -0.258087 2.338 136 128 125
-0.36998 -0.749084 2.173 153 145 142
-0.815227 0.707631 2.099 107 112 102
-0.260538 0.473171 2.44 110 103 97
-0.263082 -0.771307 2.196 158 150 149
-0.740596 0.674063 2.338 116 116 112
0.270719 0.267492 1.563 9 11 0
0.238251 0.337027 1.567 10 11 2
1.1932 -0.634787 2.731 68 76 77
-0.0504169 -0.477594 2.278 151 143 140
0.211816 -0.768044 2.228 72 53 51
1.16978 0.235083 2.572 137 134 118
1.20901 0.223446 2.489 144 145 134
0.113694 0.800985 2.459 121 114 104
0.4791 -0.453867 2.347 89 77 92
0.348325 0.44505 1.535 4 6 0
0.49648 0.393791 1.029 189 197 198
-0.194035 0.149427 0.406 47 54 60
0.299857 0.377307 2.411 118 107 100
-0.408321 0.454687 2.469 135 127 124
0.679077 -0.135593 2.392 141 138 135
-0.888624 -0.0490168 2.347 126 127 116
0.527237 0.345203 1.225 201 209 208
1.04159 -0.632598 2.684 47 57 62
0.879744 -0.554605 2.509 9 14 2
-0.984671 -0.246778 2.269 108 101 93
0.48292 -0.369841 2.347 155 147 146
-0.275198 -0.702996 2.151 157 147 145
-0.104381 0.338072 2.411 116 108 105
-0.361401 -0.129223 2.347 135 126 117
-0.427516 -0.692687 2.196 146 143 140
-0.853621 0.691242 2.294 104 104 106
-0.520185 0.230308 2.392 129 123 125
0.271411 0.255426 1.567 9 11 0
1.07963 -0.438527 2.499 110 116 114
0.211832 0.15635 2.392 123 118 114
1.13487 -0.464076 2.55 134 113 82
-1.03414 0.248831 2.383 117 111 98
-1.00342 -0.0842485 2.004 122 120 112
1.12921 -0.0387422 2.695 17 47 68
-0.648678 0.366548 2.392 129 125 116
-0.828802 0.698788 2.189 105 101 92
0.0592786 -0.786962 2.22 160 148 146
0.158343 0.765904 2.294 115 113 105
-0.113071 -0.239984 2.347 142 130 130
1.2636 -0.368977 2.469 95 100 88
-0.644784 0.284804 2.392 128 124 117
0.375927 -0.859719 2.212 47 67 78
-0.502639 0.437787 2.42 123 116 110
-0.356649 -0.0149235 2.392 139 129 129
0.723718 -0.411314 2.411 164 156 153
-0.328154 -0.348369 2.383 147 136 140
1.05538 0.249459 2.996 3 8 0
-0.361737 -0.764295 2.166 153 148 146
-0.906161 -0.536183 2.128 109 105 98
0.214485 0.336103 1.599 16 10 12
1.19205 0.198344 2.479 143 144 138
-0.295313 0.529346 2.499 128 120 119
0.607839 -0.857549 2.244 183 180 177
-0.112638 -0.299939 2.338 129 119 117
0.831856 -0.0615558 2.55 77 83 81
-0.228842 -0.229672 2.32 145 135 133
-0.275801 -0.582545 2.212 154 143 147
-0.725732 -0.722842 2.158 139 134 130
-0.683764 -0.577931 2.181 126 127 118
-0.42852 0.23518 2.402 145 137 136
0.0779845 0.478795 2.469 126 122 123
-0.35423 0.305539 2.402 122 117 115
-0.686672 0.419824 2.43 118 113 109
-0.98743 0.226416 2.392 123 114 109
0.799251 -0.566793 2.356 142 134 133
0.65233 -0.383642 2.338 159 154 150
-0.53576 0.230308 2.392 127 122 118
-0.173645 0.164135 2.392 132 122 120
0.261066 0.34873 1.551 4 9 0
-1.06819 0.25653 2.347 106 99 89
-1.01478 0.0392747 2.374 125 124 124
0.238747 0.362276 2.469 116 109 103
-0.819749 0.737653 1.978 108 113 103
0.476338 -0.689569 2.244 121 152 168
0.448678 0.411395 1.075 140 152 142
-1.00668 -0.103815 2.004 127 124 119
0.721595 -0.827322 2.212 180 181 177
-0.439836 -0.695211 2.204 148 142 144
0.218401 0.391574 1.571 6 11 0
0.502131 0.37534 1.108 190 198 195
-0.359914 -0.458209 2.22 147 142 140
0.389316 0.478768 1.539 8 17 10
-0.581707 -0.838731 2.158 146 145 128
-0.755751 -0.306692 2.303 139 130 125
-1.07299 0.269055 2.037 111 123 113
0.265342 -0.0536466 2.383 138 128 128
-0.665779 -0.265467 2.303 137 128 131
0.441305 0.163602 2.329 128 120 119
0.80732 -0.801412 2.22 180 181 177
-0.17138 -0.679736 2.212 151 142 137
0.423045 0.418079 1.33 74 78 71
0.94509 -0.391287 2.509 78 84 84
-0.832038 -0.359627 2.236 133 131 123
-1.07543 0.058403 2.22 120 120 114
1.15304 0.389946 2.572 133 131 121
0.427714 0.439198 1.498 38 39 28
1.14875 -0.115675 2.649 25 43 50
1.08913 0.113776 2.672 0 24 46
0.815652 0.146199 2.793 23 24 15
1.05465 0.317962 2.953 2 7 0
-0.743213 0.322512 2.383 125 121 114
0.228376 0.491118 1.587 1 8 0
-0.502712 0.392315 2.383 127 123 116
0.110596 0.117424 2.392 130 118 118
0.865806 -0.391988 2.54 10 11 5
0.112815 0.647881 2.44 108 105 100
0.363566 0.264913 1.505 11 8 3
0.931141 -0.129055 2.572 115 112 109
-0.263426 0.372371 2.43 128 123 119
0.319862 -0.202564 2.356 143 135 132
-1.10124 0.479318 2.411 122 127 117
-0.0372246 0.116982 2.383 125 117 114
0.335945 0.34511 1.513 4 11 5
0.356126 0.0912314 2.42 130 121 116
-0.34367 -0.0691583 2.383 138 130 129
0.283604 0.258754 2.44 121 115 117
0.570289 -0.682482 2.269 174 166 163
0.675011 -0.687435 2.261 177 172 168
0.013519 0.536702 2.44 111 104 98
-0.775494 0.294914 2.411 122 120 112
0.398305 0.495821 1.403 0 13 39
0.585086 -0.0920768 2.374 142 137 135
-0.846137 0.177209 2.411 130 123 115
-0.506025 0.769954 2.092 117 110 102
0.458366 -0.027135 2.44 142 132 130
0.11018 0.338024 2.383 118 111 105
0.506806 0.354244 1.182 194 205 205
0.269018 0.228125 1.646 72 62 60
0.139079 -0.534073 2.347 146 138 137
0.280436 -0.480602 2.347 27 30 29
0.181798 -0.175726 2.356 140 128 128
0.0797783 0.0944617 2.402 129 120 115
-0.777833 -0.664098 2.196 140 135 131
-1.04698 0.691448 2.051 97 98 87
-0.228991 -0.596944 2.212 156 147 140
0.0247466 -0.0302643 2.374 133 123 123
0.456789 -0.830314 2.22 37 43 43
0.51162 0.362381 1.171 192 203 203
-0.416227 -0.274029 2.312 134 126 123
0.438506 0.11978 2.44 131 121 119
0.175459 0.159036 2.374 122 114 111
-0.64275 0.0236409 2.356 134 127 121
1.41712 -1.12634 2.898 31 31 27
-0.349378 0.81421 2.092 114 116 105
-0.957898 -0.379543 2.143 127 125 115
-1.01387 -0.0280971 2.204 122 120 110
-0.536041 -0.779031 2.158 147 143 136
0.639449 0.0285595 2.449 139 131 128
1.19686 0.182942 2.489 138 142 137
0.891451 -0.355953 2.519 78 91 88
0.145639 0.798624 2.392 118 116 108
0.576072 0.363862 1.182 85 102 103
-0.669529 0.220367 2.411 125 123 115
-1.00322 -0.0985554 2.03 124 124 120
0.254663 0.561177 2.392 111 104 94
0.269221 -0.127327 2.383 139 129 127
-0.0141668 0.587436 2.42 108 104 95
-0.922078 -0.628414 2.078 132 129 124
-0.616878 0.678014 2.42 119 116 111
-0.579759 -0.0647873 2.365 133 129 122
0.540755 -0.243665 2.383 149 141 140
0.286603 0.381094 1.539 1 8 0
0.290071 0.482089 1.48 50 18 0
-0.936812 0.59621 2.392 87 89 78
1.05045 0.306526 2.982 2 6 0
0.94509 -0.268797 2.509 71 71 73
-0.372863 -0.239984 2.347 146 135 139
-0.42259 -0.651295 2.189 142 134 133
-0.965564 -0.330761 2.099 132 128 121
0.261483 0.563383 1.524 0 6 0
0.287348 0.429793 1.543 4 8 3
0.459784 0.376825 1.205 158 164 164
0.284737 0.202296 2.383 126 116 114
0.665022 -0.244738 2.356 152 145 139
0.0130536 -0.168058 2.356 134 122 120
-1.07856 0.276232 2.32 101 102 89
-1.11626 0.635049 2.166 108 113 103
-0.0939691 0.050286 2.347 128 116 114
1.27796 -0.727608 2.78 120 116 109
-0.228491 -0.727867 2.173 157 151 153
-0.99925 -0.173041 2.32 122 123 114
1.19396 0.346602 2.561 129 134 124
-1.14664 0.586211 2.383 113 121 120
1.27689 0.127758 2.519 145 149 142
0.353323 0.222733 1.535 10 11 0
-0.480982 0.301192 2.43 130 122 119
0.615793 -0.70387 2.22 173 172 176
-0.815122 -0.773137 2.181 142 139 134
-0.128635 -0.617166 2.22 162 150 148
-0.281713 -0.407116 2.32 149 143 145
-0.469614 -0.577053 2.261 144 139 135
-0.898866 -0.462861 1.837 133 134 123
-0.426349 -0.171236 2.347 138 128 126
1.03488 -0.243326 2.499 46 51 41
-0.439937 -0.170579 2.338 133 123 121
0.275807 0.259861 1.563 8 9 3
1.23189 -0.742485 2.768 82 82 84
0.0883843 -0.222121 2.32 138 128 126
-0.638131 0.683339 2.411 117 118 109
0.18248 0.727903 2.469 119 116 113
0.288077 -0.304913 2.347 161 160 171
-0.542548 -0.470737 2.228 141 136 132
-0.496949 0.170626 2.374 130 125 121
-0.690634 -0.293268 2.286 139 130 123
-0.118237 0.356063 2.374 117 107 107
0.538805 0.370575 1.132 200 210 213
0.142871 -0.0189655 2.411 132 123 118
0.536557 0.378112 1.09 194 206 210
1.05433 -0.103635 2.672 90 96 98
1.20819 -0.0477395 2.479 151 159 146
0.328556 0.31064 1.513 1 9 6
0.0422866 -0.514665 2.278 145 135 133
-1.07994 0.654061 2.136 97 104 98
-0.901313 -0.44014 1.842 133 134 123
0.47581 0.355461 1.247 185 188 189
0.505843 -0.545531 2.347 124 129 138
-0.639081 0.764237 1.997 105 114 105
-0.304372 0.774585 2.32 115 111 102
0.446298 0.357513 1.463 72 79 71
0.578282 -0.657835 2.286 172 167 165
-0.0143366 0.777801 2.449 104 100 93
-0.301425 -0.129719 2.356 122 114 111
-0.591738 0.447505 2.43 135 132 127
-0.404774 -0.793784 2.189 153 144 139
-0.858576 -0.00697723 2.338 130 123 115
-0.347815 -0.672537 2.212 149 144 142
-0.120249 -0.307548 2.338 129 119 117
-0.550378 -0.82688 2.173 146 143 138
-1.0144 -0.127714 2.253 109 111 100
0.523123 -0.394264 2.356 158 150 147
0.24316 -0.401932 2.356 154 144 144
0.152272 -0.115256 2.374 138 126 124
-0.348757 -0.777373 2.173 156 149 143
-1.05418 0.216059 2.244 113 111 103
-0.455283 0.781709 2.078 114 116 105
0.914652 -0.145173 2.561 84 84 84
0.18593 -0.582544 2.312 57 43 58
-0.902712 -0.0843502 2.374 126 127 116
-0.443424 -0.688037 2.204 148 139 142
0.616124 -0.599129 2.261 169 165 166
-0.0616921 -0.08634 2.43 131 121 119
0.164205 0.616631 1.591 2 6 0
-0.473987 -0.606921 2.196 149 141 138
-0.126877 0.816114 2.32 112 108 99
-0.117788 0.0776121 2.365 133 122 117
1.13198 -0.994173 2.857 34 34 30
0.210238 0.653536 2.374 108 109 96
1.06845 -0.862083 2.719 19 19 19
0.290286 -0.0763332 2.365 139 127 127
0.0513243 -0.825844 2.189 164 159 155
0.0444028 0.0317873 2.392 132 121 114
0.899652 -0.417441 2.519 58 62 55
1.02408 0.124077 2.707 17 19 27
0.469724 -0.742718 2.196 31 34 35
1.21658 -0.229876 2.53 8 14 14
0.23778 0.248764 2.459 121 113 112
1.17233 0.550297 2.911 7 12 2
0.296624 0.438696 1.539 2 10 0
0.406511 -0.297274 2.347 151 142 137
0.68609 -0.0273463 2.459 128 118 116
-0.854977 0.368812 2.459 120 119 104
-0.181432 0.113531 2.392 131 120 115
1.00664 0.0880807 2.684 53 52 54
0.533495 0.378688 1.102 201 212 212
0.666302 -0.236165 2.347 152 144 141
-0.771322 0.665126 2.374 113 113 109
0.530984 -0.509311 2.374 164 157 151
1.41578 -0.649198 2.793 13 14 10
-0.617585 0.743186 2.173 113 111 103
-0.638131 0.29099 2.411 132 125 119
1.26869 0.513086 2.519 120 127 121
0.277461 0.519569 1.477 4 4 0
1.24953 0.110034 2.489 131 132 128
1.22897 0.420874 2.582 127 133 116
-1.04578 0.159639 2.383 126 126 122
-0.0834569 0.819657 2.374 111 107 96
1.05427 0.407867 3.248 32 37 23
-0.898315 -0.443138 1.842 133 134 123
-1.03476 0.360508 2.43 116 112 101
-1.01453 -0.110596 2.278 104 102 90
-0.224576 -0.691624 2.204 157 149 148
-0.905151 -0.60464 1.947 130 130 124
-0.796638 0.043465 2.392 140 138 130
1.14677 -0.143979 2.615 19 27 24
-0.548308 -0.748501 2.151 145 143 133
1.04625 0.325822 3.026 6 10 5
0.598392 -0.723498 2.236 177 173 174
-1.15924 0.426758 2.338 114 116 107
0.899112 0.277572 3.149 33 31 23
-0.185111 -0.788463 2.204 164 159 157
-0.0182557 0.778913 2.44 105 101 94
-1.07068 0.253325 2.071 118 116 104
-0.287761 0.328992 2.402 129 124 120
-0.885989 0.176547 2.402 126 122 113
-0.709914 -0.560464 2.196 140 138 130
-0.659254 -0.153889 2.374 134 126 125
-0.00235864 0.332827 2.43 118 108 106
0.61018 -0.578009 2.294 171 162 165
-0.124533 -0.266719 2.347 123 115 114
0.444669 0.395419 1.196 143 146 147
0.232577 0.280152 2.489 122 112 110
0.311962 -0.634794 2.244 29 31 22
-0.678855 0.628916 2.459 123 124 115
1.00649 0.151842 2.731 9 16 10
-0.25868 -0.822282 2.189 155 151 144
-0.221634 0.737948 2.449 121 118 113
-0.0691998 -0.549953 2.286 136 128 127
-0.873881 -0.612392 1.659 134 137 136
-0.625315 -0.0188161 2.392 135 125 123
0.432903 0.382684 1.27 140 143 142
-1.16063 0.412874 2.303 116 118 109
-0.782803 0.728458 2.024 108 108 104
0.0621591 0.246753 2.479 120 112 109
0.0875528 0.861388 2.204 108 106 96
0.0770685 -0.812923 2.212 157 149 146
-0.520538 0.352599 2.43 130 122 119
-0.799042 0.408695 2.411 125 127 118
0.273841 -0.279244 2.356 157 152 160
-0.657475 -0.43136 2.212 139 134 130
0.59599 -0.386596 2.356 161 153 150
-0.712011 0.741187 2.107 115 116 103
-0.722816 -0.677308 2.181 135 132 127
-0.453422 0.77077 2.085 118 116 108
0.389308 -0.652943 2.269 100 123 140
-0.392437 -0.501561 2.22 159 150 143
0.0581237 0.678407 2.479 149 144 140
0.0879265 0.192903 2.411 122 112 112
0.95459 0.586838 3.215 55 53 45
-0.130814 0.280912 2.392 119 110 105
0.518853 -0.59152 2.303 145 152 156
-0.548961 -0.0686359 2.365 134 130 123
-0.128353 -0.381299 2.347 151 143 140
-0.439989 0.543429 2.489 128 123 119
-0.247604 0.352599 2.43 115 106 109
0.198671 -0.370795 2.329 145 137 136
-0.1231 -0.471298 2.32 155 148 142
-0.361162 0.415136 2.449 129 121 118
0.0244651 -0.297274 2.347 139 128 123
0.629635 0.142438 2.489 130 122 121
-0.674805 0.672907 2.43 120 113 107
1.12983 0.000731933 2.707 20 47 69
-0.878169 0.160912 2.402 129 125 116
-0.962859 -0.265475 1.923 132 128 119
1.10573 0.207953 2.768 9 14 19
1.36847 -0.899519 2.78 6 10 5
-0.912506 -0.503263 2.064 132 130 122
0.281482 0.511585 1.39 12 24 42
-0.434232 -0.442159 2.212 146 138 135
-0.901313 -0.482106 1.842 136 132 125
-0.694034 0.367653 2.374 125 126 117
-0.413493 -0.131205 2.383 146 137 132
-0.00999506 -0.211035 2.365 137 125 123
0.515453 -0.513117 2.356 159 151 150
-0.290145 -0.715819 2.158 153 150 145
0.669966 -0.577009 2.32 165 161 162
0.124003 0.586221 1.607 50 43 54
1.25048 -0.18741 2.459 167 168 157
-0.630746 -0.277791 2.312 137 129 128
0.0311622 -0.529493 2.278 146 136 136
-0.626358 -0.00719508 2.411 135 127 124
0.200984 -0.563732 2.312 27 26 30
1.21939 0.181472 2.469 143 144 138
0.395445 0.374899 1.524 6 7 1
0.0318598 -0.283624 2.329 139 129 127
-0.360543 0.109639 2.392 128 120 117
-0.476039 -0.751037 2.189 146 143 138
-0.612045 -0.734664 2.204 145 138 132
0.160759 -0.427646 2.329 149 139 137
1.23507 0.135416 2.509 131 139 126
-0.418949 0.0356799 2.392 136 129 123
-0.602049 -0.27671 2.303 139 129 127
-0.520538 0.340736 2.43 129 121 118
-0.644506 -0.279362 2.294 135 131 132
-1.06285 0.417581 2.44 124 125 114
0.5774 0.34824 1.265 192 200 199
0.323405 0.0281163 2.411 131 124 118
-0.508542 0.0701809 2.374 130 120 120
-0.349202 0.614403 2.449 125 119 121
-0.472625 0.69576 2.469 104 102 92
0.11583 0.32752 2.42 117 109 106
-0.595513 0.734613 2.278 113 111 101
0.089677 0.772974 2.459 120 115 111
0.19488 -0.329104 2.329 143 133 131
-0.868473 -0.627088 1.769 130 134 129
0.0836883 0.176547 2.402 124 116 113
-0.931299 -0.286126 1.779 126 127 121
0.171621 0.501477 1.612 11 11 15
1.31188 -0.627573 2.719 89 109 104
0.182793 0.43649 1.595 81 72 77
0.661006 -0.135083 2.383 143 137 139
-0.369135 0.435063 2.449 129 124 120
0.263591 0.363873 1.551 1 8 2
1.23547 -0.184155 2.469 153 157 150
-0.469567 0.0901759 2.392 124 115 108
-0.348035 0.603349 2.469 125 122 117
-0.896573 -0.564273 1.876 133 134 123
-0.876539 0.372371 2.43 122 118 107
-0.753808 0.382119 2.392 125 120 116
1.00216 -0.433838 2.519 39 58 60
-0.63227 -0.643739 2.212 142 138 131
1.29447 -0.956564 2.898 13 10 5
-1.06275 0.246143 2.286 103 101 91
-0.913368 -0.264429 2.294 128 126 114
-0.683721 -0.151163 2.392 135 127 126
0.54025 0.338662 1.26 196 206 211
0.5038 -0.565683 2.32 120 132 136
1.21009 0.177723 2.719 15 20 10
0.602032 -0.723498 2.236 176 172 173
0.305289 0.322219 2.196 118 110 107
0.297032 0.176931 1.595 26 17 20
0.0135689 0.534696 2.449 111 104 98
0.83019 -0.475526 2.459 13 13 13
0.437075 -0.469144 2.347 38 41 42
-0.905587 0.676169 2.22 102 104 93
-0.737409 0.0944617 2.402 128 122 124
-0.0102275 0.555931 2.42 111 104 98
-0.412035 0.0282213 2.42 138 131 125
-0.933937 0.285438 2.365 121 119 111
-0.956463 0.660536 2.204 101 101 95
-1.04817 0.200102 2.114 117 118 109
-0.0629361 0.367778 2.479 116 108 105
-0.190418 -0.48096 2.312 155 147 146
-0.458573 -0.404122 2.261 147 137 135
-0.265688 -0.40195 2.312 149 144 140
0.422459 0.346951 1.532 25 26 20
-0.201873 0.154902 0.398 19 20 11
0.691853 -0.864852 2.244 186 183 180
1.0689 0.500803 2.561 86 88 77
0.727129 -0.583433 2.286 170 167 162
0.484894 0.31473 1.509 92 95 98
-0.768683 -0.410024 2.253 137 132 128
1.06877 0.414983 3.181 20 21 12
0.529236 -0.843575 2.236 73 117 131
0.270575 0.301192 2.43 119 115 108
-0.409301 0.801307 2.085 117 118 105
0.363687 -0.0538492 2.392 138 129 124
0.629065 -0.122517 2.365 146 140 142
0.382274 0.247832 2.411 123 113 113
0.19488 -0.495867 2.329 23 30 24
0.421793 -0.32019 2.347 152 142 140
-0.848832 -0.688037 2.204 140 136 139
-0.235326 0.768322 2.347 116 112 103
-1.10301 0.638323 2.107 103 110 104
0.68773 -0.480706 2.329 165 157 156
1.07756 0.275542 2.911 3 7 0
-0.289363 0.314756 2.383 131 123 120
0.224339 -0.573234 2.32 32 44 50
1.06401 0.321237 2.939 3 6 5
-0.31068 -0.523052 2.204 151 146 142
0.0122115 -0.795636 2.204 159 155 148
-0.028267 -0.490432 2.286 157 153 144
-0.0183231 0.777801 2.449 104 100 93
1.05539 -0.73256 2.731 103 103 99
-0.914414 -0.288534 2.278 129 125 116
-0.381993 -0.531791 2.181 148 143 139
-0.957132 -0.333035 2.181 116 109 103
0.893808 -0.0409834 2.561 60 58 46
-1.02234 -0.00700409 2.347 130 123 117
1.20012 -0.0154663 2.479 153 154 143
-0.574314 0.445376 2.44 124 122 114
-0.740291 -0.542949 2.212 137 133 124
0.380146 0.23673 2.303 124 114 112
0.462678 0.39565 1.075 172 186 188
-0.163819 0.658236 2.479 133 130 127
0.600609 -0.553673 2.286 166 160 162
-0.595525 -0.746292 2.196 148 140 137
-0.0458699 0.78363 2.43 107 100 90
0.0172185 0.149186 2.402 127 116 111
-0.367426 0.790733 2.158 115 115 109
0.652742 0.337951 1.313 165 175 180
-0.393468 -0.233236 2.356 142 134 131
-0.39396 0.372371 2.43 132 125 119
0.438851 0.0518501 2.42 135 127 124
-1.0271 0.528876 2.459 121 116 114
0.842485 -0.806638 2.286 133 122 128
-0.36596 0.747239 2.402 121 115 102
1.16566 0.518422 3.149 13 14 5
0.503308 0.34919 1.225 195 201 203
-1.05908 0.0457652 2.136 121 121 121
0.337584 -0.596674 2.294 30 31 27
0.240239 -0.0724846 2.365 135 125 125
0.477102 -0.33292 2.356 156 148 147
-1.10315 0.556887 2.459 120 115 111
0.307301 0.484602 1.384 7 19 25
-0.664958 -0.774869 2.166 138 136 126
-0.822294 -0.103274 2.365 134 130 121
-0.385762 0.202378 2.479 132 127 125
1.22241 0.539802 3.011 9 14 2
-0.605383 0.548995 2.572 126 123 120
-0.704655 -0.691236 2.158 142 138 131
-0.173645 0.175812 2.392 130 122 119
-0.767457 -0.126846 2.374 135 128 122
0.466426 -0.0466033 2.42 139 131 130
0.436878 -0.650395 2.286 107 135 152
-0.339776 -0.309916 2.356 149 141 138
-1.04414 0.636751 2.286 94 102 91
0.707732 -0.561908 2.32 170 165 163
1.32445 -0.939056 2.831 6 7 1
-0.906235 -0.469253 2.204 138 136 128
-0.871776 -0.804917 2.071 131 122 125
-0.185326 0.568962 2.392 111 104 94
1.18431 -0.692562 2.731 104 112 113
-0.857914 -0.597666 1.686 130 138 135
0.63479 -0.865408 2.236 184 181 178
0.303571 -0.708943 2.236 31 44 55
-0.922034 0.224712 2.374 122 120 110
-0.937491 0.251755 2.374 121 119 111
-0.935373 -0.386431 1.815 135 131 120
-0.35423 0.137459 2.402 142 132 130
0.550527 0.314006 1.449 204 209 214
1.17848 0.0949636 2.519 138 139 128
-0.128353 -0.411854 2.347 154 144 144
1.23915 0.241573 2.509 142 140 130
-0.155595 -0.536197 2.244 158 148 148
0.383128 -0.834521 2.212 43 49 51
-0.444041 0.486724 2.489 139 135 126
-0.634797 0.770177 2.004 105 112 104
0.432594 0.153767 2.189 125 120 116
1.1603 0.195283 2.78 8 10 0
1.17158 -0.925572 2.818 17 18 9
-0.254452 0.0122781 2.383 139 129 127
1.25957 -0.35454 2.509 29 41 31
0.556699 -0.821032 2.244 114 129 144
-0.533116 -0.533812 2.204 142 140 128
-0.328085 0.365536 2.411 130 122 119
-0.907311 0.466946 2.449 125 123 113
1.17031 -0.0682564 2.649 3 15 17
0.0163296 -0.455352 2.278 143 135 134
-0.571058 0.745726 2.212 115 116 107
-1.05491 0.552585 2.44 115 117 108
1.04845 0.370363 3.198 25 27 18
-0.090873 -0.80153 2.181 164 159 157
0.293747 0.487468 1.439 34 13 8
-0.166554 -0.5435 2.244 157 147 145
-0.40897 0.747239 2.402 120 121 112
0.949175 -0.31371 2.509 57 63 63
-1.06575 0.125266 2.253 120 118 110
0.0340486 0.438118 2.489 117 107 107
-0.560898 0.0510573 2.383 133 128 124
1.12543 0.507327 2.707 47 47 47
0.0341049 -0.615765 2.228 149 138 133
1.03228 -0.038239 2.66 82 90 89
-0.706336 -0.417357 2.253 141 133 132
1.44313 -0.984796 2.884 10 10 12
-0.37302 -0.456558 2.212 148 143 141
-0.763681 0.705544 2.166 110 115 105
-0.900553 -0.541009 1.859 133 130 125
0.380574 -0.691114 2.261 70 73 90
0.0716587 0.0940685 2.392 128 119 114
-0.0431517 -0.449511 2.286 153 144 139
-0.727512 -0.245944 2.228 136 127 122
0.0306971 -0.572714 2.244 146 137 140
-1.12069 0.559727 2.121 119 132 119
-0.694034 -0.142299 2.374 134 126 125
-0.782328 0.41022 2.42 119 120 109
0.815832 -0.46391 2.44 20 16 21
-0.156881 -0.146163 2.374 124 114 114
0.75714 -0.0615558 2.55 15 16 10
-0.615633 -0.594785 2.204 138 138 134
-1.01079 0.277019 2.392 106 95 86
-0.490756 0.774163 2.085 113 114 105
-0.740172 -0.0582004 2.411 131 128 123
0.391229 -0.308732 2.347 151 141 141
-0.77051 0.496859 2.42 127 123 114
0.448439 0.415061 1.062 150 161 161
0.169811 0.574057 1.595 1 8 0
0.067765 0.152457 2.392 124 114 112
1.1409 -0.801764 2.755 62 63 52
-0.853221 -0.329178 2.303 134 130 121
-0.392114 -0.407881 2.303 148 140 137
0.112097 0.597708 1.624 105 103 95
0.356845 -0.331648 2.347 150 145 143
0.40237 0.506918 1.319 4 7 6
-0.683721 0.117424 2.392 131 123 122
-0.799461 -0.355261 2.278 139 132 124
0.358667 0.264913 1.505 9 10 6
1.27322 -0.674785 2.731 116 118 109
0.991098 0.352864 3.181 25 27 14
-1.13505 0.463398 2.312 115 120 110
0.518317 -0.836298 2.236 107 139 150
-0.949953 -0.426875 2.189 115 113 103
1.15826 0.464973 2.743 59 61 48
-0.864796 -0.454234 2.236 132 130 118
-0.00236834 0.342138 2.44 118 108 108
-0.216224 0.0541054 2.347 139 129 127
0.92299 -0.149341 2.561 86 87 83
0.488315 0.364888 1.198 182 190 191
-0.125965 -0.10753 2.374 140 129 122
-0.199401 0.79654 2.329 120 116 109
-0.412643 -0.175726 2.356 139 129 127
-0.357141 -0.794432 2.181 153 148 144
-0.918169 0.085634 2.374 126 123 118
-0.64275 -0.0530388 2.356 135 125 123
0.272795 -0.182694 2.347 138 130 127
-1.04678 0.171624 2.236 112 114 103
-0.0337373 0.593099 2.411 106 102 95
-0.821676 0.698788 2.189 108 106 98
0.756237 -0.0409834 2.561 18 18 12
-0.0769103 -0.514546 2.294 135 125 125
-0.0518203 -0.766038 2.181 163 158 156
0.429576 0.425168 1.176 108 112 107
-0.100456 0.565634 2.411 111 106 102
0.412283 0.45342 1.165 99 107 94
-0.446695 0.204747 2.459 132 122 120
1.17542 0.165175 2.731 5 12 6
-0.440327 -0.263651 2.32 155 148 142
-0.461363 -0.601958 2.204 144 136 133
0.918821 -0.0576538 2.561 69 68 68
-0.853877 -0.505176 2.236 135 131 124
0.199455 0.438358 1.583 6 7 1
0.248882 -0.13071 2.374 139 129 129
0.257513 0.48951 2.347 115 108 102
0.492993 0.327568 1.406 172 178 176
-0.237047 -0.5413 2.22 156 146 146
0.761666 -0.711139 2.278 181 172 177
-0.075234 -0.700525 2.244 165 155 153
-0.34743 -0.539962 2.143 152 144 143
-0.987424 0.349842 2.411 125 123 111
-0.187796 -0.0457174 2.374 140 130 130
-0.694117 -0.772007 2.158 145 144 129
0.106118 0.454687 2.469 125 121 124
0.629847 0.327058 1.375 207 217 222
0.338387 0.243457 1.524 4 9 0
-1.14131 0.518225 2.356 127 128 119
-1.14276 0.566821 2.383 122 123 119
-1.1487 0.57552 2.236 121 122 118
0.138546 -0.436908 2.338 146 137 132
0.963514 -0.738582 2.626 91 93 84
0.100858 -0.672717 2.261 152 143 146
-0.767645 0.655875 2.411 115 112 109
-0.0579742 0.540672 2.44 110 102 99
-0.435045 -0.270267 2.312 146 139 131
-0.764051 -0.23487 2.261 135 127 126
-0.563353 -0.560464 2.196 146 138 135
-0.941132 -0.401909 1.917 136 132 123
-0.180288 -0.729664 2.189 161 153 150
-0.515006 -0.561666 2.173 145 138 132
0.222273 -0.311353 2.338 151 140 144
-0.132726 -0.626642 2.228 162 151 146
-0.157475 0.159639 2.383 131 121 119
0.80466 -0.390642 2.479 44 35 40
0.57802 0.364888 1.198 91 96 103
0.529593 -0.703334 2.253 99 124 147
0.683087 -0.322273 2.42 156 148 147
1.16545 0.0693996 2.638 11 11 11
1.19114 0.311629 2.582 131 138 130
-0.103169 -0.100182 2.383 144 133 126
-1.04966 0.248831 2.383 125 126 113
0.0461562 -0.486712 2.286 145 135 135
0.0800772 0.185056 2.411 123 113 111
1.05518 -0.862083 2.719 19 20 9
0.30017 0.498262 1.372 5 13 12
-0.120249 0.814837 2.338 111 107 98
-1.0807 0.251697 2.269 116 118 100
1.2023 0.354937 2.561 129 134 124
-0.880146 0.425523 2.44 124 122 112
0.274132 -0.0188161 2.392 138 126 126
0.216545 0.340453 1.595 11 11 5
-0.335934 0.750038 2.411 117 111 98
0.168992 -0.452127 2.338 147 137 135
-0.0772121 0.828873 2.303 108 106 94
-0.561728 0.0282213 2.42 132 127 123
-0.334575 -0.5962 2.196 157 146 150
-1.12867 0.380779 2.204 114 119 107
0.527624 0.390238 1.051 196 208 212
0.0158565 0.857315 2.212 114 109 105
-0.449862 0.757456 2.236 114 111 108
0.280589 -0.609474 2.286 27 28 24
-0.685526 0.429493 2.44 126 126 122
0.937879 0.202714 3.026 19 21 12
-0.610061 0.342138 2.44 129 122 116
0.471225 -0.295705 2.365 150 142 141
-0.832038 -0.461511 2.236 132 129 124
-0.587459 -0.0917277 2.365 134 129 127
-0.930412 -0.616015 2.037 134 131 126
-0.820131 -0.680864 2.204 136 129 121
-0.727178 0.296014 2.42 126 122 115
1.15892 -0.217524 2.53 24 19 15
-0.0143366 0.542667 2.449 111 104 98
0.328394 0.167864 1.559 10 11 5
-1.01103 0.364463 2.43 122 118 107
1.01726 0.444866 3.248 42 46 41
-0.531532 -0.0875447 2.356 134 129 125
-0.663467 -0.43292 2.22 139 134 132
-0.222576 0.0315481 2.374 139 128 132
-0.880746 -0.504576 1.794 133 133 127
1.06249 0.609529 3.117 31 41 29
1.2677 0.378311 2.55 127 134 126
-0.226812 -0.315157 2.338 151 139 137
0.230431 0.508652 2.383 108 103 99
0.524887 0.302755 1.463 190 198 197
0.462487 0.402543 1.043 171 184 183
0.181489 -0.827322 2.212 163 154 157
0.299308 0.520257 1.348 0 15 17
0.2278 0.337892 1.583 9 11 2
-0.890359 -0.791479 2.107 131 124 118
-0.238936 0.182907 2.383 134 127 121
0.362699 0.464946 1.543 8 10 1
0.429802 0.448371 1.48 54 56 45
-0.999732 -0.159973 2.099 126 121 117
-0.500776 0.502975 2.53 132 122 122
-0.423853 0.0164069 2.42 137 128 123
-0.732323 0.310608 2.411 124 122 112
0.00151347 -0.389142 2.303 142 134 131
0.585373 0.353015 1.26 81 97 107
-1.05022 0.314531 2.411 112 109 95
1.24158 -0.49511 2.582 62 68 79
-1.05648 0.076726 2.338 101 94 88
-0.0952188 0.662271 2.479 142 139 136
0.284737 -0.259177 2.383 135 129 131
0.443569 0.405797 1.143 149 158 151
-0.557917 -0.208626 2.338 136 131 129
-0.193921 0.196092 2.402 130 121 114
-1.0486 0.11915 2.143 120 121 112
-0.972271 -0.134573 2.374 127 127 121
-0.204672 0.795143 2.303 122 119 116
1.37976 -1.01314 2.939 15 18 17
0.302814 -0.845849 2.204 57 57 57
-0.0970395 -0.442806 2.329 135 125 125
0.365101 0.431715 1.532 4 8 1
0.492557 0.33512 1.302 190 193 194
0.960534 -0.551219 2.55 88 101 96
-0.205688 0.722007 2.449 123 115 112
-0.471679 0.73745 2.383 117 114 109
0.355604 -0.768898 2.22 50 52 60
1.09783 0.139866 2.672 1 8 16
-1.06056 0.310618 2.071 115 116 110
0.959848 -0.134328 2.593 63 57 63
-0.716624 -0.0503535 2.411 133 129 122
1.18152 -0.00356333 2.626 5 16 14
0.461306 -0.685189 2.278 141 162 181
1.22433 -0.148593 2.479 151 144 138
0.213949 0.490998 1.595 2 6 0
0.507798 -0.165479 2.374 144 139 137
0.594103 0.323624 1.429 205 212 218
-1.00312 0.338072 2.411 119 120 109
-0.929502 -0.608673 2.057 135 128 120
-0.307915 -0.358383 2.347 143 138 136
0.417038 -0.819476 2.22 37 38 34
-0.451212 -0.422519 2.261 144 139 137
0.559769 -0.0147551 2.365 138 131 125
-0.770367 -0.10406 2.383 130 124 126
-0.00212471 -0.829406 2.189 161 157 150
-1.06051 0.215794 2.204 120 116 107
0.322002 0.473765 1.419 14 34 47
0.243886 0.473171 2.44 115 107 106
-0.995751 -0.239393 2.269 101 101 95
-0.478717 0.660929 2.459 123 118 114
1.22552 0.352027 2.54 129 134 122
-0.874394 -0.63985 1.805 130 134 129
-0.39701 0.594413 2.499 125 121 114
0.377298 0.482446 1.445 13 33 57
-1.04604 0.131838 2.017 116 120 115
-0.0449827 0.0549353 2.383 125 117 116
1.35579 -0.98486 2.898 19 12 2
0.109799 -0.522013 2.294 146 138 137
-0.110567 -0.642455 2.22 159 149 149
-0.786267 0.461416 2.42 127 120 112
-0.812213 0.218631 2.392 125 123 115
-0.882577 -0.677308 2.181 136 133 128
-0.489346 0.00447101 2.356 136 128 125
0.582974 0.36033 1.229 89 95 95
-0.772599 0.379807 2.402 126 123 118
-0.502693 -0.169922 2.329 123 118 114
0.920585 -0.407618 2.509 86 96 99
-0.127861 -0.448322 2.338 155 146 149
-0.989495 -0.196166 2.121 127 123 114
0.540755 -0.453073 2.383 162 153 148
-0.0487791 -0.644998 2.204 141 133 132
-1.02707 0.680304 2.099 99 99 93
0.436874 0.384958 1.313 109 110 106
0.256342 -0.697252 2.269 30 31 27
-0.557453 -0.671288 2.173 135 131 124
0.443727 0.366464 1.308 153 142 135
-0.912506 -0.496545 2.064 130 127 113
0.439461 -0.702152 2.261 126 147 164
0.0856742 0.516871 2.459 113 107 113
-0.27979 -0.459511 2.244 153 142 146
1.20886 0.510684 3.102 14 18 11
-0.587476 0.758963 2.128 109 110 104
0.0205655 -0.292329 2.338 139 128 123
-0.748135 -0.126846 2.374 135 128 122
-1.03591 0.16851 1.985 119 121 112
-0.636386 -0.793784 2.189 144 140 133
-0.812215 -0.175055 2.347 135 133 123
-1.11301 0.502859 2.411 122 120 112
0.122941 -0.632244 2.261 153 143 143
-0.326478 -0.549282 2.166 151 144 138
0.23553 0.577466 1.583 0 6 0
0.30125 0.211534 1.563 5 12 4
-1.09488 0.655409 2.085 103 105 96
-0.568684 -0.654857 2.189 149 145 138
0.152763 0.747862 2.509 118 115 110
-0.0426797 0.839512 2.261 115 111 102
1.04586 -0.643962 2.695 57 62 71
1.09443 0.296969 2.844 10 12 3
-0.591813 -0.392376 2.236 143 139 132
0.49625 0.312863 1.477 170 174 167
-0.897043 -0.369694 2.253 94 91 88
0.0755524 0.0356799 2.392 132 120 118
0.970385 0.316629 3.181 26 28 15
0.832266 -0.537143 2.43 21 16 26
-0.351325 0.791405 2.189 113 114 101
0.608052 -0.572273 2.286 170 165 161
0.211266 0.592489 1.575 2 6 1
0.358213 -0.467109 2.356 28 31 32
0.729109 -0.64925 2.269 175 171 172
0.592484 0.181809 2.42 41 39 46
-0.608324 0.000662174 2.449 133 128 124
-0.613292 0.478795 2.469 129 124 122
-0.906806 -0.576606 1.917 132 134 123
0.788518 -0.309959 2.479 23 14 19
0.462267 0.400775 1.07 175 181 181
0.957595 -0.462927 2.499 45 53 68
0.846446 0.111844 2.731 13 18 4
1.04223 0.611644 3.102 47 57 45
-0.0996645 0.234201 2.392 120 108 108
-0.379686 0.537682 2.519 129 121 118
1.23565 -0.453575 2.561 51 53 63
0.0160285 -0.57795 2.236 149 142 136
0.00155421 0.0853094 2.365 128 119 112
-0.628347 0.75741 2.114 103 111 108
0.620672 -0.0538492 2.392 141 132 135
1.23447 -0.247434 2.459 136 138 125
0.0705803 -0.367426 2.356 143 133 131
-0.228558 -0.168058 2.356 76 67 62
0.854719 -0.633005 2.449 82 77 85
-0.929025 -0.104453 2.392 125 126 115
-0.584172 -0.111815 2.383 132 127 123
0.202509 -0.0379909 2.374 135 125 123
-0.675535 -0.810117 2.166 143 141 131
1.19658 0.248692 2.54 139 139 133
0.267188 0.169979 2.365 128 118 116
1.09783 0.100732 2.672 13 34 53
-0.210531 0.624915 2.459 145 137 134
-1.13778 0.615546 2.236 116 118 109
-0.493652 -0.558919 2.204 148 140 137
-0.169725 -0.383642 2.338 152 145 139
1.35616 -0.783831 2.755 18 20 11
1.40926 -1.11244 2.911 29 34 20
0.028611 0.827383 2.374 105 101 94
-0.0740055 -0.384464 2.32 150 141 136
-0.91345 0.140779 2.392 127 123 112
0.249872 -0.450048 2.347 118 114 117
0.321804 0.293986 1.516 11 12 6
-0.644097 -0.470737 2.228 140 136 129
0.324978 0.158525 1.567 10 12 3
-0.0840897 0.125209 2.392 124 114 112
0.361524 -0.748129 2.212 62 58 61
-0.499244 -0.778394 2.166 146 144 136
0.416931 -0.0309782 2.43 138 128 126
-0.250634 -0.631169 2.181 153 145 142
0.266746 0.534179 1.445 7 7 1
0.341563 -0.507338 2.347 37 36 43
-0.944394 -0.29374 2.261 131 132 119
0.366021 0.131474 1.579 13 19 19
0.197139 -0.459441 2.356 128 123 119
0.972936 0.183408 2.953 20 21 12
0.339038 -0.386596 2.356 152 144 141
-0.235737 0.313055 2.43 109 101 98
-0.579759 -0.0955763 2.365 135 127 124
0.5626 -0.747331 2.253 172 172 172
-0.883494 -0.227098 2.294 134 127 117
-0.74994 0.470759 2.469 125 123 115
1.15587 0.133184 2.626 7 14 18
-0.00934845 -0.719332 2.212 159 152 142
-0.734608 -0.41516 2.261 134 127 121
0.360714 0.39226 1.524 3 7 0
-0.621123 -0.833952 2.173 141 142 131
-0.912077 -0.645169 2.004 131 131 125
-0.446356 0.761941 2.166 112 110 100
-0.914494 -0.328011 2.269 107 99 96
-0.676095 0.443034 2.449 139 135 128
-0.838958 -0.343106 2.347 133 130 127
0.0176271 0.41283 2.459 115 106 101
-0.410506 -0.450983 2.22 149 141 138
-0.624549 0.567936 2.582 127 123 116
0.278739 0.426973 1.551 3 7 0
0.450669 -0.1805 2.42 144 134 132
-0.638479 0.291489 2.383 130 123 117
-1.05782 0.140614 2.099 114 121 113
0.667553 -0.509197 2.338 165 160 156
0.874075 -0.280385 2.54 81 85 80
-1.07352 0.658654 2.151 95 103 100
-0.781407 -0.664098 2.196 137 132 128
1.21913 0.222426 2.78 10 15 5
1.4756 -1.00349 2.911 8 17 10
0.326573 -0.700525 2.244 37 59 73
0.541383 0.377765 1.089 195 207 209
0.916501 -0.317793 2.509 69 79 84
0.451863 0.413155 1.066 159 167 168
-0.388824 -0.490723 2.22 157 149 146
-0.277117 0.790139 2.166 108 109 98
-0.720259 -0.231442 2.228 135 127 124
-0.391693 -0.209552 2.392 139 131 130
-0.971856 0.210846 2.392 124 123 108
0.26662 0.419824 2.43 116 109 103
0.102808 -0.392503 2.392 142 134 133
-0.805104 -0.514152 2.212 136 134 124
0.327602 0.376389 1.52 3 7 0
-1.05849 0.483095 2.43 117 117 113
0.457084 -0.723904 2.204 50 68 66
-0.850975 0.396823 2.459 114 109 107
-0.213956 0.65948 2.499 132 123 128
-0.909128 -0.475928 1.753 130 134 129
0.21383 0.600178 1.575 5 7 0
-0.590519 -0.555332 2.204 129 126 123
0.037197 0.404007 2.43 114 106 105
-0.275801 -0.586145 2.212 156 147 152
-0.445389 -0.785601 2.196 147 144 139
1.07322 0.267347 2.925 6 7 0
-1.05251 0.210605 2.151 116 117 108
0.635589 -0.59622 2.278 166 161 159
0.0925749 0.328873 2.43 117 109 108
0.496417 -0.616914 2.286 108 130 144
0.39982 0.48665 1.494 13 21 18
0.480074 0.323757 1.494 133 139 137
-0.409782 0.00856585 2.43 137 128 123
0.101974 -0.482991 2.286 146 138 135
1.03252 0.565102 3.181 27 26 11
-0.748463 -0.823344 2.173 143 136 128
0.941006 -0.366789 2.509 72 79 83
-0.398785 -0.248549 2.32 147 136 140
0.476116 0.346844 1.275 178 184 186
-0.394804 0.0359633 2.411 137 129 126
0.311285 0.499063 1.362 6 14 11
-0.226206 -0.559364 2.22 156 146 146
-0.0893811 -0.0428415 2.43 134 122 120
-0.318804 0.736177 2.43 112 108 101
0.237948 0.492921 2.42 114 106 105
0.430963 0.444753 1.484 62 60 52
-0.0141141 -0.04643 2.411 133 122 117
1.02675 -0.243326 2.499 38 40 31
1.19451 0.220881 2.818 8 6 0
0.173029 0.223841 2.449 123 113 111
0.46998 0.378235 1.167 150 161 159
0.0925749 0.206286 2.43 122 113 116
0.343328 0.447548 1.535 2 6 0
-0.74091 0.725402 2.121 111 112 103
-0.658131 -0.253303 2.329 138 130 129
0.0980798 0.555134 2.469 113 106 98
0.0932334 -0.155958 2.347 137 126 121
0.483555 -0.662947 2.278 157 173 183
-0.170461 0.790236 2.402 117 115 107
1.32224 -0.573792 2.695 41 41 41
-0.451212 0.754886 2.261 113 113 109
-0.481491 0.379243 2.374 128 124 115
-0.347447 -0.164224 2.356 142 132 130
-0.351633 0.255679 2.411 124 116 115
-0.347919 0.457288 2.44 131 122 117
0.299479 0.368424 1.528 6 7 1
-0.950832 0.708696 2.024 97 104 98
-0.21507 0.485045 2.42 128 119 122
-0.0143366 0.219855 2.449 122 112 110
-0.229679 0.798669 2.151 119 120 109
0.277219 0.243295 1.571 7 11 4
0.00950806 0.78363 2.43 104 100 91
1.4756 -1.12192 2.911 26 27 21
-0.514349 0.714182 2.383 120 118 108
-0.853279 -0.422993 2.244 134 132 124
