ply
format ascii 1.0
comment Created by Open3D
element vertex 1284
property double x
property double y
property double z
property uchar red
property uchar green
property uchar blue
end_header
0.30112 0.0488449 0.905 255 255 255
-0.0337771 0.179156 0.567 255 255 255
-0.201445 0.138234 0.551 255 255 255
-0.185047 -0.170999 0.513 255 255 255
-0.0628596 -0.0968783 0.547 255 255 255
-0.0886482 -0.00892962 0.558 255 255 255
0.0810618 0.0251227 0.59 255 255 255
0.41733 0.0318556 0.845 255 255 255
0.115016 0.0920285 0.607 0 0 0
0.00775634 -0.0672035 0.567 255 255 255
0.214238 0.176455 0.677 255 255 255
-0.0161835 -0.0412221 0.565 255 255 255
0.0246706 -0.0250651 0.574 255 255 255
-0.0448527 -0.00261478 0.567 255 255 255
-0.204212 -0.167476 0.515 255 255 255
-0.276747 0.0779201 0.537 255 255 255
-0.147547 0.175782 0.654 255 255 255
-0.0660811 0.192398 0.537 255 255 255
0.436684 -0.198058 0.896 255 255 255
0.279769 -0.0122128 0.958 255 255 255
-0.168258 0.104597 0.563 255 255 255
-0.235642 0.195302 0.533 255 255 255
-0.0368038 0.0308181 0.571 255 255 255
-0.265413 -0.101345 0.507 255 255 255
-0.164551 -0.0687627 0.536 255 255 255
0.298657 0.0527399 0.872 255 255 255
0.0851912 0.0136474 0.592 255 255 255
0.069797 0.204897 0.54 255 255 255
0.0604804 0.0144627 0.586 255 255 255
0.140011 0.0728984 0.604 255 255 255
0.0793808 -0.110421 0.571 255 255 255
-0.0445647 -0.0753067 0.552 255 255 255
-0.273887 0.16693 0.579 255 255 255
-0.077454 0.175673 0.674 255 255 255
-0.0513134 0.0195299 0.567 255 255 255
-0.235478 -0.0670949 0.523 255 255 255
-0.0762893 -0.0350103 0.554 255 255 255
-0.157454 0.144094 0.567 255 255 255
0.352885 -0.12967 0.887 255 255 255
0.257919 0.201265 0.597 255 255 255
0.151964 -0.0680342 0.582 255 255 255
0.449811 -0.0478746 0.896 255 255 255
-0.231301 0.00619236 0.531 255 255 255
0.0601708 0.173776 0.583 255 255 255
0.0343397 0.180044 0.564 255 255 255
0.339811 -0.048612 0.811 255 255 255
-0.0968556 -0.035847 0.553 255 255 255
-0.0165886 -0.161263 0.548 255 255 255
0.0867885 0.198699 0.61 255 255 255
0.427321 -0.00663126 0.843 255 255 255
-0.0655308 0.186189 0.547 255 255 255
0.0932025 -0.0963904 0.576 255 255 255
0.137511 -0.0731448 0.585 255 255 255
-0.106987 -0.0681435 0.545 255 255 255
-0.0716325 -0.0922586 0.546 255 255 255
0.071441 -0.155782 0.567 255 255 255
0.277709 0.196324 0.615 255 255 255
0.0361923 0.166101 0.708 255 255 255
-0.261277 0.0655361 0.543 255 255 255
-0.164072 0.0477584 0.552 255 255 255
0.291747 -0.0949336 0.86 255 255 255
-0.180176 -0.0130595 0.541 255 255 255
0.0120657 -0.156435 0.553 255 255 255
-0.0554351 -0.0172247 0.562 255 255 255
-0.0758418 0.0726324 0.571 255 255 255
0.398318 -0.225509 0.895 255 255 255
-0.0724335 -0.18646 0.526 255 255 255
-0.0775688 -0.103429 0.544 255 255 255
0.0475582 0.176219 0.689 255 255 255
0.111324 -0.1653 0.568 255 255 255
0.331247 -0.327596 0.85 255 255 255
-0.222628 -0.0172032 0.533 255 255 255
-0.114761 -0.0600511 0.544 255 255 255
-0.189143 -0.120483 0.522 255 255 255
0.144177 -0.0740968 0.585 255 255 255
0.0899189 -0.108943 0.573 255 255 255
0.3251 -0.0835184 0.804 255 255 255
-0.284617 0.142151 0.542 255 255 255
0.15759 0.194033 0.627 255 255 255
0.282237 0.204464 0.595 255 255 255
0.0416336 -0.0467113 0.576 255 255 255
-0.105475 -0.0402006 0.551 255 255 255
0.265053 -0.216738 0.883 255 255 255
-0.176162 0.0892995 0.559 255 255 255
-0.0950929 0.113377 0.575 255 255 255
0.0785003 0.165397 0.705 255 255 255
0.154452 0.0352537 0.599 255 255 255
0.364022 -0.0394222 0.812 255 255 255
0.00267634 0.186071 0.684 255 255 255
-0.226113 -0.0500731 0.523 255 255 255
-0.12532 0.17684 0.666 255 255 255
0.0153804 0.000155742 0.576 255 255 255
-0.228947 0.0854457 0.546 255 255 255
0.428726 0.053041 0.854 255 255 255
-0.247889 -0.103604 0.51 255 255 255
0.426896 -0.0267565 0.873 255 255 255
-0.0304106 -0.189666 0.54 255 255 255
-0.0437909 0.170101 0.59 255 255 255
0.250371 -0.252316 0.867 255 255 255
0.140242 0.118308 0.605 255 255 255
0.13281 0.216221 0.565 255 255 255
-0.148638 0.201296 0.526 255 255 255
0.180797 0.191406 0.557 255 255 255
-0.133538 0.176395 0.605 255 255 255
0.378749 0.0576716 0.821 255 255 255
0.387438 -0.333471 0.858 255 255 255
-0.0987822 0.0533857 0.564 255 255 255
-0.136486 0.174309 0.588 255 255 255
0.143007 0.0224686 0.596 255 255 255
0.352126 -0.0566003 0.812 255 255 255
-0.263319 -0.128376 0.503 255 255 255
0.296998 -0.0771223 0.897 255 255 255
-0.0987433 -0.157143 0.534 255 255 255
-0.176792 0.1024 0.561 255 255 255
0.254211 0.214382 0.565 255 255 255
-0.0789947 -0.0314041 0.554 255 255 255
-0.112237 -0.191949 0.52 255 255 255
-0.183174 0.0493754 0.55 0 0 0
0.133529 0.00113294 0.597 255 255 255
-0.242782 -0.134612 0.508 255 255 255
-0.125997 -0.151941 0.528 255 255 255
0.32375 0.150932 0.741 255 255 255
0.294133 -0.237123 0.884 255 255 255
0.29359 0.17602 0.667 255 255 255
-0.172082 -0.12421 0.527 255 255 255
-0.153749 -0.163268 0.523 255 255 255
-0.235082 0.177632 0.574 0 0 0
-0.00871645 -0.0970104 0.558 255 255 255
0.0393536 -0.157567 0.557 255 255 255
0.0881511 0.174429 0.682 255 255 255
0.334869 -0.218211 0.889 255 255 255
-0.0890146 -0.173329 0.533 255 255 255
0.0276656 -0.131752 0.559 255 255 255
0.048353 0.188514 0.546 255 255 255
-0.0932209 0.17607 0.575 255 255 255
0.365378 0.0444731 0.824 255 255 255
-0.0831318 0.132798 0.57 255 255 255
-0.178448 0.055843 0.552 255 255 255
0.312576 -0.141517 0.917 255 255 255
-0.0665471 0.0642695 0.571 255 255 255
-0.167793 -0.137074 0.527 255 255 255
0.100824 0.0362284 0.599 255 255 255
-0.0867418 -0.0851504 0.546 255 255 255
0.195312 0.195028 0.587 255 255 255
-0.223108 -0.11956 0.518 255 255 255
0.231757 -0.246388 0.866 255 255 255
0.197628 0.187934 0.641 255 255 255
-0.162253 0.0570496 0.555 255 255 255
-0.231588 0.160625 0.57 255 255 255
-0.121701 0.180631 0.664 255 255 255
-0.27072 0.124541 0.546 255 255 255
-0.115247 -0.0979109 0.538 255 255 255
-0.00515607 -0.0459004 0.566 255 255 255
0.0742098 -0.15486 0.567 255 255 255
0.137416 0.00793354 0.597 255 255 255
-0.0590077 0.0354021 0.57 255 255 255
-0.109583 -0.145521 0.536 255 255 255
-0.0725213 -0.0922586 0.546 255 255 255
0.383574 -0.205806 0.898 255 255 255
0.336711 0.163102 0.705 255 255 255
-0.104055 -0.115635 0.539 255 255 255
0.119956 0.0959796 0.607 255 255 255
-0.265383 0.0517038 0.537 255 255 255
0.0564388 -0.0633627 0.574 255 255 255
0.139861 0.0020974 0.595 255 255 255
0.119435 -0.18254 0.567 255 255 255
0.427826 -0.320465 0.872 255 255 255
0.103935 -0.0391391 0.589 255 255 255
0.0378174 -0.0316588 0.575 255 255 255
0.118724 -0.123788 0.577 255 255 255
-0.0504794 0.0121698 0.568 255 255 255
0.3262 -0.20466 0.893 255 255 255
-0.222655 -0.137305 0.515 255 255 255
0.0247128 -0.176552 0.554 255 255 255
0.156766 0.203777 0.593 255 255 255
-0.114075 0.124717 0.567 255 255 255
0.086737 0.0350771 0.596 255 255 255
-0.282853 0.189779 0.542 255 255 255
-0.169088 -0.000739534 0.545 0 0 0
-0.0645748 0.0456054 0.57 255 255 255
-0.064213 -0.179538 0.536 255 255 255
0.199521 0.193114 0.539 255 255 255
0.237995 -0.263659 0.858 255 255 255
-0.262271 0.193784 0.536 255 255 255
0.256209 0.182671 0.652 255 255 255
-0.154081 -0.0774852 0.536 255 255 255
-0.230437 0.0148893 0.533 255 255 255
0.112932 0.00792025 0.596 255 255 255
0.0842275 0.0223178 0.592 255 255 255
0.143256 0.198288 0.618 255 255 255
-0.0654982 -0.00899363 0.562 255 255 255
0.0584989 -0.185999 0.558 255 255 255
-0.218597 0.178751 0.62 255 255 255
-0.0377333 0.0336058 0.571 255 255 255
-0.00565864 0.199964 0.527 255 255 255
-0.0458904 -0.183027 0.536 255 255 255
-0.157279 0.189429 0.541 255 255 255
-0.0774697 -0.0224695 0.556 0 0 0
0.0575351 0.0650343 0.595 255 255 255
0.22007 0.183512 0.655 255 255 255
-0.135866 -0.128226 0.533 255 255 255
-0.0716507 -0.045746 0.553 255 255 255
-0.206005 -0.0854553 0.526 255 255 255
0.355596 0.0535981 0.82 255 255 255
-0.0283887 0.0103575 0.57 255 255 255
0.335437 -0.0208712 0.81 255 255 255
0.285176 -0.215301 0.883 255 255 255
0.37875 -0.125782 0.88 0 0 0
0.271688 -0.0153148 0.957 255 255 255
0.0270908 -0.0901116 0.566 255 255 255
0.288694 0.126252 0.851 255 255 255
-0.069005 0.121073 0.576 255 255 255
0.046172 0.0173235 0.586 255 255 255
0.250962 0.140015 0.781 255 255 255
0.382223 -0.0649259 0.817 255 255 255
-0.199298 -0.176985 0.511 255 255 255
-0.150591 -0.0766129 0.536 255 255 255
0.10123 -0.0152025 0.59 255 255 255
0.332343 -0.141671 0.918 255 255 255
-0.0850149 0.184485 0.558 255 255 255
-0.234979 0.177424 0.626 255 255 255
-0.207996 0.187079 0.547 255 255 255
0.263408 0.212544 0.565 255 255 255
0.427598 -0.0122049 0.849 255 255 255
0.00581659 -0.105183 0.558 255 255 255
-0.244636 -0.114916 0.505 255 255 255
0.141334 0.187298 0.646 255 255 255
0.2796 0.211823 0.568 255 255 255
-0.105127 -0.0991536 0.54 255 255 255
-0.0625845 -0.166765 0.537 255 255 255
-0.150591 -0.0801019 0.536 255 255 255
0.10003 0.086946 0.606 255 255 255
0.0867896 0.212363 0.577 255 255 255
0.0498983 0.177632 0.574 255 255 255
-0.0735838 -0.0332072 0.554 255 255 255
0.146393 0.0997661 0.606 255 255 255
-0.0646699 0.174509 0.678 255 255 255
0.32648 -0.111073 0.824 255 255 255
0.0022655 0.0237121 0.579 255 255 255
-0.0189091 -0.0457382 0.564 255 255 255
0.0796479 0.165397 0.705 255 255 255
-0.0504085 0.183248 0.557 255 255 255
-0.11705 0.132332 0.568 255 255 255
-0.0550464 -0.0659634 0.549 255 255 255
-0.201962 -0.137792 0.52 255 255 255
-0.0825772 -0.115397 0.542 255 255 255
0.0501437 -0.178999 0.556 255 255 255
-0.0944314 0.0930749 0.571 255 255 255
0.345086 0.155819 0.73 255 255 255
-0.0828654 0.201679 0.527 255 255 255
-0.0979774 0.176394 0.57 255 255 255
-0.0459371 0.014969 0.569 255 255 255
-0.194755 -0.0797656 0.528 255 255 255
-0.104738 -0.118047 0.538 255 255 255
-0.200548 0.0638117 0.551 255 255 255
0.10747 0.0264365 0.598 255 255 255
0.271676 -0.144879 0.91 255 255 255
-0.0881716 0.187106 0.555 255 255 255
-0.187585 -0.0269449 0.537 255 255 255
-0.0217806 -0.173365 0.544 255 255 255
-0.208041 -0.0506475 0.529 255 255 255
0.376092 0.145952 0.759 255 255 255
-0.136012 -0.089864 0.537 255 255 255
-0.0630492 0.0738192 0.573 255 255 255
-0.0672402 0.052933 0.569 255 255 255
0.368055 -0.108786 0.827 255 255 255
-0.289743 0.163523 0.564 255 255 255
-0.0413786 0.0298366 0.57 255 255 255
-0.0838749 -0.141072 0.539 255 255 255
-0.16001 0.101849 0.563 255 255 255
-0.0488568 -0.0271877 0.56 255 255 255
0.0427955 0.174715 0.62 255 255 255
0.301209 0.021888 0.832 255 255 255
-0.245793 -0.152416 0.504 255 255 255
0.329055 0.154284 0.734 255 255 255
-0.138118 -0.108683 0.535 255 255 255
-0.0933038 -0.0738692 0.548 255 255 255
-0.0215097 -0.0763981 0.56 255 255 255
0.286984 0.205084 0.583 255 255 255
0.423065 -0.140569 0.84 255 255 255
-0.194906 -0.156347 0.517 255 255 255
0.0125675 0.176376 0.576 255 255 255
-0.279721 0.0681803 0.536 255 255 255
0.0932299 0.208756 0.588 255 255 255
0.226988 0.159764 0.721 255 255 255
-0.211171 0.0401311 0.546 255 255 255
-0.188901 0.179357 0.559 255 255 255
-0.216535 0.164833 0.617 255 255 255
0.27446 0.143427 0.772 255 255 255
0.0891851 0.171984 0.69 255 255 255
-0.190038 0.100763 0.557 255 255 255
0.331197 -0.283682 0.868 255 255 255
0.174131 0.160987 0.716 255 255 255
-0.14541 0.195302 0.533 0 0 0
0.40336 0.0301559 0.836 0 0 0
0.247763 -0.189064 0.888 255 255 255
0.132582 -0.110451 0.576 255 255 255
0.219 -0.290946 0.844 255 255 255
0.104994 0.00790696 0.595 255 255 255
0.336313 -0.300305 0.863 255 255 255
-0.0113184 0.187891 0.552 255 255 255
0.306602 0.189952 0.627 255 255 255
-0.268005 0.0560732 0.537 255 255 255
0.290933 -0.152283 0.91 255 255 255
-0.242431 -0.135705 0.509 255 255 255
0.385912 -0.276148 0.88 255 255 255
-0.17176 -0.0719821 0.534 255 255 255
-0.234307 0.0523778 0.544 255 255 255
-0.090359 0.0239731 0.563 255 255 255
0.221157 -0.290602 0.847 255 255 255
-0.152313 -0.166035 0.521 255 255 255
0.0836312 0.194639 0.616 255 255 255
0.0805086 0.0349006 0.593 255 255 255
-0.196599 -0.047561 0.533 255 255 255
-0.257332 -0.0285755 0.519 255 255 255
0.224688 0.191467 0.632 255 255 255
0.0651385 0.0296698 0.585 0 0 0
-0.128199 -0.136992 0.53 255 255 255
0.440138 0.0436171 0.86 255 255 255
-0.253195 -0.168561 0.496 255 255 255
-0.248884 -0.0488455 0.519 255 255 255
-0.116125 0.135105 0.568 255 255 255
0.433485 -0.187777 0.917 255 255 255
0.0365697 0.177638 0.653 255 255 255
0.186563 0.195615 0.52 255 255 255
-0.0787565 0.197866 0.54 255 255 255
0.0401725 -0.00836658 0.582 255 255 255
0.295499 -0.0595623 0.835 255 255 255
0.0289524 0.0382377 0.585 255 255 255
-0.244337 -0.0883522 0.513 255 255 255
0.0217913 -0.0445253 0.572 255 255 255
-0.162337 0.198728 0.526 0 0 0
0.359177 0.0968001 0.813 255 255 255
0.130176 -0.00468042 0.595 255 255 255
0.323579 -0.25123 0.878 255 255 255
-0.197477 0.0249804 0.545 255 255 255
0.12595 0.211579 0.58 255 255 255
0.297244 -0.0142266 0.889 255 255 255
-0.205743 0.201079 0.521 255 255 255
-0.0531285 -0.0379191 0.557 255 255 255
-0.242774 -0.0861824 0.515 255 255 255
0.0916262 0.00592027 0.59 255 255 255
0.238522 0.174577 0.674 255 255 255
-0.073387 0.174125 0.581 255 255 255
0.166066 0.200506 0.533 255 255 255
0.10466 0.217817 0.562 255 255 255
0.111324 -0.183787 0.568 255 255 255
0.179332 0.19242 0.547 255 255 255
0.104962 0.102725 0.606 0 0 0
-0.234246 0.09646 0.548 255 255 255
-0.0962782 -0.174079 0.53 255 255 255
0.0519538 -0.169046 0.556 255 255 255
0.253333 0.148672 0.754 255 255 255
0.315545 -0.30346 0.86 255 255 255
0.0508545 -0.00364977 0.585 255 255 255
0.433076 -0.0296317 0.874 0 0 0
-0.0792505 0.165065 0.68 255 255 255
0.315733 0.183169 0.65 255 255 255
-0.0386909 -0.0552401 0.558 255 255 255
-0.0242575 0.191715 0.54 255 255 255
0.397249 0.128917 0.807 255 255 255
-0.111014 -0.0723116 0.543 255 255 255
-0.236487 0.00792058 0.531 255 255 255
0.231052 -0.214529 0.874 255 255 255
-0.0554306 -0.127331 0.544 255 255 255
0.0364362 0.184966 0.554 255 255 255
-0.00936604 -0.19337 0.543 255 255 255
0.39189 -0.300254 0.871 255 255 255
0.140096 0.00889014 0.596 255 255 255
-0.0803654 -0.124407 0.539 255 255 255
0.296909 -0.00554017 0.888 255 255 255
-0.212684 -0.0344857 0.532 255 255 255
0.0809552 -0.122998 0.569 255 255 255
-0.00629215 0.0802621 0.586 255 255 255
-0.0522701 -0.0881377 0.548 255 255 255
0.424834 0.0250984 0.849 255 255 255
0.267499 0.215073 0.562 255 255 255
-0.228281 0.114438 0.553 255 255 255
-0.12084 -0.16397 0.528 255 255 255
-0.160725 -0.107208 0.532 255 255 255
-0.234846 -0.11406 0.516 255 255 255
0.310029 0.177656 0.665 255 255 255
-0.0434649 -0.0363656 0.561 255 255 255
0.016573 0.0429976 0.585 255 255 255
-0.0871109 -0.0305026 0.554 255 255 255
-0.278293 0.182261 0.554 255 255 255
0.31446 0.139277 0.784 255 255 255
0.147227 -0.0680342 0.582 255 255 255
0.0989551 -0.155507 0.566 255 255 255
0.0505897 -0.202496 0.551 0 0 0
0.0693012 0.00302959 0.588 255 255 255
0.413945 -0.194503 0.814 255 255 255
0.1557 0.180361 0.667 255 255 255
0.307612 -0.0982317 0.796 255 255 255
0.282301 -0.241166 0.883 255 255 255
-0.189915 0.127276 0.562 0 0 0
0.0411999 0.178249 0.57 255 255 255
0.128554 0.0275472 0.601 255 255 255
0.0354256 0.174987 0.693 255 255 255
-0.0383218 -0.175605 0.54 255 255 255
0.145278 -0.185308 0.567 255 255 255
0.0523983 -0.0234799 0.581 255 255 255
0.149547 0.0069387 0.595 255 255 255
0.145655 -0.0825508 0.591 255 255 255
0.0900617 0.198355 0.612 255 255 255
0.0111655 -0.160035 0.553 255 255 255
0.0324073 0.129156 0.596 255 255 255
0.0888217 -0.0844974 0.578 255 255 255
0.0932025 -0.0954531 0.576 255 255 255
-0.0224213 -0.0645512 0.56 255 255 255
-0.0482576 -0.146537 0.543 255 255 255
0.0258677 0.178082 0.679 255 255 255
0.34433 -0.315609 0.855 255 255 255
0.13189 0.215302 0.565 255 255 255
-0.188521 0.199205 0.525 255 255 255
0.257915 -0.294398 0.85 255 255 255
-0.240763 -0.0187958 0.529 255 255 255
-0.186237 -0.138905 0.521 255 255 255
0.144191 -0.152896 0.57 0 0 0
-0.173268 -0.103824 0.528 255 255 255
-0.0599887 0.175934 0.675 255 255 255
-0.256034 0.200914 0.525 255 255 255
0.024067 0.0172053 0.582 255 255 255
0.214554 0.185769 0.648 255 255 255
0.424453 -0.106736 0.832 255 255 255
0.0465234 -0.161808 0.556 255 255 255
-0.187666 0.198351 0.525 255 255 255
0.304905 0.0489079 0.831 255 255 255
-0.245793 -0.144214 0.504 255 255 255
-0.0608819 0.100032 0.579 255 255 255
-0.198033 0.0921069 0.554 255 255 255
-0.00761223 -0.191071 0.544 255 255 255
0.110149 0.0491454 0.602 255 255 255
0.305152 0.0608581 0.828 255 255 255
0.295574 -0.0517289 0.863 255 255 255
-0.255499 -0.035196 0.517 255 255 255
0.334346 0.0999355 0.817 255 255 255
0.422953 0.0526683 0.848 255 255 255
-0.0024808 0.0851752 0.587 255 255 255
0.217058 0.200024 0.605 255 255 255
0.203264 0.184999 0.649 255 255 255
0.13281 -0.193849 0.565 255 255 255
0.42039 -0.170371 0.832 255 255 255
-0.209512 0.0293609 0.544 255 255 255
-0.0043694 0.0695342 0.584 255 255 255
0.0308574 -0.197116 0.551 255 255 255
-0.156374 -0.128986 0.529 255 255 255
-0.0138404 0.183623 0.675 255 255 255
-0.0100732 0.0552788 0.584 255 255 255
0.0860354 -0.215318 0.554 255 255 255
-0.043587 -0.101173 0.551 255 255 255
0.0466071 0.131873 0.604 255 255 255
0.0570419 0.129047 0.6 255 255 255
-0.223496 -0.0111316 0.533 255 255 255
0.272858 -0.149158 0.909 255 255 255
-0.0725509 -0.0475459 0.553 255 255 255
0.439372 0.048038 0.864 255 255 255
0.0433842 0.0269055 0.587 255 255 255
-0.0814829 0.177605 0.565 0 0 0
0.293231 -0.246663 0.877 255 255 255
-0.151381 0.104969 0.565 255 255 255
-0.205488 -0.167987 0.514 255 255 255
-0.272115 -0.0576879 0.515 255 255 255
0.434661 -0.278526 0.883 255 255 255
-0.168728 -0.0271457 0.541 255 255 255
-0.0621701 -0.141596 0.541 255 255 255
-0.207972 0.190836 0.54 255 255 255
0.258993 -0.299578 0.849 255 255 255
0.378808 0.142498 0.767 255 255 255
0.289938 0.170488 0.684 255 255 255
-0.283192 0.182832 0.553 255 255 255
-0.0685761 -0.0571333 0.55 255 255 255
-0.0925724 0.0837828 0.571 255 255 255
-0.00330168 -0.0686835 0.564 255 255 255
-0.127706 0.0473694 0.558 0 0 0
0.0313509 0.191365 0.544 255 255 255
-0.0360812 0.186737 0.546 255 255 255
-0.0813584 -0.171047 0.534 255 255 255
0.147748 -0.148106 0.573 255 255 255
0.373557 -0.332305 0.855 255 255 255
-0.0812577 -0.0671004 0.551 255 255 255
0.1786 0.197325 0.615 0 0 0
-0.209486 -0.105596 0.524 255 255 255
-0.0581055 -0.179538 0.536 255 255 255
-0.173684 0.0668638 0.554 255 255 255
0.23299 0.14217 0.772 255 255 255
0.0700193 -0.00556324 0.586 255 255 255
-0.213363 0.101122 0.554 255 255 255
-0.0954349 0.186315 0.55 255 255 255
0.115213 -0.0947156 0.583 255 255 255
-0.0709451 0.053859 0.569 255 255 255
0.116138 0.218864 0.56 255 255 255
-0.0404937 0.114201 0.584 255 255 255
0.341769 -0.266643 0.877 255 255 255
-0.0584307 -0.155106 0.539 255 255 255
-0.201185 -0.150749 0.518 255 255 255
-0.212595 -0.157419 0.515 255 255 255
0.298702 0.146799 0.757 255 255 255
0.144414 0.190021 0.641 255 255 255
-0.0470337 -0.0363007 0.56 255 255 255
-0.116105 0.0310802 0.559 255 255 255
0.254084 -0.123475 0.916 255 255 255
-0.22028 0.139131 0.551 255 255 255
-0.155244 -0.0954449 0.534 255 255 255
-0.0328885 0.113251 0.584 255 255 255
0.134722 0.163334 0.711 255 255 255
0.0519846 0.0887177 0.598 255 255 255
-0.0463618 -0.0735102 0.552 255 255 255
0.0342901 0.171543 0.595 255 255 255
0.145332 -0.0632987 0.582 255 255 255
-0.135065 0.138313 0.566 255 255 255
-0.0724281 -0.0180424 0.559 255 255 255
-0.123132 0.0586837 0.562 255 255 255
-0.216994 0.0391707 0.545 255 255 255
-0.177871 0.0658432 0.553 255 255 255
-0.140993 0.192912 0.536 255 255 255
0.310723 -0.260042 0.874 255 255 255
0.386072 -0.150278 0.925 255 255 255
0.39744 0.0572962 0.835 255 255 255
0.113121 0.0108481 0.597 255 255 255
0.115806 -0.0894813 0.586 255 255 255
0.105424 0.0747403 0.603 255 255 255
-0.0771911 -0.0359118 0.554 255 255 255
0.0243977 0.181991 0.669 255 255 255
-0.0252401 0.062774 0.583 255 255 255
-0.244483 0.0681871 0.543 255 255 255
0.214238 0.175354 0.677 255 255 255
0.437067 0.0321949 0.854 255 255 255
0.097284 -0.165009 0.567 255 255 255
-0.236323 0.177624 0.568 255 255 255
-0.00426466 -0.0156147 0.57 255 255 255
-0.219054 0.015875 0.537 255 255 255
-0.0596889 -0.0280488 0.559 255 255 255
0.0743209 -0.0896731 0.575 255 255 255
0.0788727 0.0250376 0.588 0 0 0
0.0393442 -0.0768348 0.57 255 255 255
0.232322 0.191643 0.636 255 255 255
0.29783 0.0427052 0.966 255 255 255
-0.277637 0.176682 0.577 255 255 255
0.0230799 0.0152847 0.581 255 255 255
0.039023 -0.0158612 0.579 255 255 255
0.0954678 -0.00560122 0.59 255 255 255
0.315404 0.185958 0.645 255 255 255
-0.229729 0.102182 0.55 255 255 255
-0.153867 0.105701 0.564 255 255 255
0.103461 0.124786 0.603 255 255 255
-0.0437573 -0.155088 0.542 255 255 255
0.306396 -0.0847213 0.803 255 255 255
-0.00512874 -0.0777236 0.563 255 255 255
0.299399 -0.0145802 0.827 255 255 255
-0.231579 0.176735 0.642 255 255 255
-0.147963 0.11805 0.566 255 255 255
0.0616429 -0.0356479 0.579 0 0 0
0.249871 0.172303 0.678 255 255 255
-0.217615 -0.165156 0.513 255 255 255
0.281818 -0.204498 0.886 255 255 255
0.0930568 0.16102 0.711 255 255 255
-0.0178902 0.17039 0.591 255 255 255
-0.0252297 -0.175374 0.542 255 255 255
-0.190477 -0.125339 0.521 255 255 255
0.330489 -0.151963 0.917 255 255 255
-0.0309873 0.0942435 0.584 255 255 255
0.00466198 0.199377 0.53 255 255 255
-0.273524 0.0961082 0.541 255 255 255
-0.0299144 -0.152068 0.547 255 255 255
-0.25486 -0.104229 0.509 255 255 255
-0.171627 -0.157311 0.523 255 255 255
-0.192177 -0.0866394 0.528 255 255 255
-0.0373839 0.134184 0.58 255 255 255
0.408973 -0.230135 0.896 255 255 255
0.326096 -0.319672 0.851 255 255 255
-0.210386 -0.115386 0.522 255 255 255
-0.241281 -0.0564468 0.519 255 255 255
-0.00053676 -0.147436 0.553 255 255 255
0.0347253 0.0411639 0.586 255 255 255
0.319975 -0.0884208 0.801 255 255 255
-0.0364116 -0.100277 0.551 0 0 0
-0.0606499 0.0297319 0.568 255 255 255
0.0140165 -0.114468 0.559 255 255 255
0.280923 -0.133909 0.916 255 255 255
-0.0682862 0.0585915 0.57 255 255 255
-0.154323 0.0729253 0.559 255 255 255
0.128211 -0.194769 0.565 255 255 255
-0.0817713 0.0490562 0.567 255 255 255
-0.196531 0.123177 0.56 255 255 255
-0.213492 0.0908761 0.552 255 255 255
0.261916 0.180826 0.653 255 255 255
-0.00144213 -0.122681 0.555 255 255 255
-0.187174 0.0152525 0.546 0 0 0
0.0995749 0.183319 0.662 255 255 255
0.402784 0.0963545 0.832 255 255 255
-0.15611 -0.0350043 0.54 0 0 0
-0.176477 0.18059 0.56 255 255 255
-0.254797 0.126348 0.55 255 255 255
-0.0836437 -0.0704304 0.549 255 255 255
-0.120277 0.195019 0.537 255 255 255
0.46429 -0.0576974 0.913 255 255 255
0.137515 0.0810291 0.606 255 255 255
-0.264901 0.11633 0.545 255 255 255
-0.0233328 -0.0663738 0.56 255 255 255
-0.039543 0.0847399 0.584 255 255 255
0.341688 -0.100402 0.803 255 255 255
0.0223649 0.183389 0.563 255 255 255
-0.0618559 -0.102921 0.546 255 255 255
0.305014 0.0535071 0.935 255 255 255
-0.114818 -0.107142 0.536 255 255 255
-0.134013 -0.0958024 0.536 255 255 255
0.0857523 -0.180657 0.564 255 255 255
0.282931 -0.273622 0.863 255 255 255
-0.200957 -0.109007 0.524 255 255 255
-0.048887 0.0466146 0.571 255 255 255
0.409749 -0.191625 0.914 255 255 255
0.04849 0.0492091 0.591 255 255 255
-0.0938732 -0.101098 0.541 255 255 255
0.0317543 -0.197116 0.551 255 255 255
-0.174532 0.177949 0.597 255 255 255
0.140167 -0.177299 0.565 255 255 255
-0.0701893 -0.179203 0.535 255 255 255
-0.101173 0.186094 0.552 0 0 0
0.327818 0.086322 0.814 255 255 255
0.125773 -0.0534257 0.588 255 255 255
-0.165051 -0.18256 0.508 255 255 255
0.00598338 -0.00825158 0.574 255 255 255
0.0601708 -0.0178683 0.583 255 255 255
-0.0418868 0.176682 0.577 255 255 255
0.152573 -0.0199353 0.588 255 255 255
0.390194 -0.323428 0.861 255 255 255
-0.236061 -0.163725 0.506 255 255 255
0.301909 0.0176077 0.969 255 255 255
0.130727 0.0373895 0.602 255 255 255
-0.217966 0.0337251 0.543 255 255 255
-0.261594 -0.103615 0.506 255 255 255
-0.0730756 -0.0234164 0.557 255 255 255
-0.220771 0.180153 0.632 255 255 255
0.414887 -0.0151091 0.857 255 255 255
-0.158006 -0.159864 0.523 255 255 255
-0.148434 0.0362114 0.554 0 0 0
0.214652 0.179545 0.668 255 255 255
-0.0670882 0.182412 0.56 255 255 255
-0.0319379 0.0989954 0.584 255 255 255
-0.183853 -0.172332 0.512 255 255 255
-0.198208 0.193422 0.535 255 255 255
-0.135505 0.0818379 0.564 255 255 255
0.0163747 0.0105028 0.578 255 255 255
0.0224046 -0.0962179 0.564 255 255 255
-0.122671 -0.111503 0.536 255 255 255
0.275495 -0.0230291 0.954 255 255 255
0.108729 -0.0496826 0.589 255 255 255
-0.117225 0.0493618 0.56 255 255 255
-0.158127 -0.108939 0.532 255 255 255
0.0132238 -0.090711 0.564 255 255 255
-0.251166 0.108547 0.546 255 255 255
-0.0106222 0.18277 0.68 255 255 255
-0.178574 -0.0862676 0.531 255 255 255
0.0609487 0.0870616 0.6 255 255 255
0.0198594 -0.067559 0.57 255 255 255
-0.276812 0.117888 0.544 0 0 0
-0.0727378 -0.130151 0.541 255 255 255
0.139597 -0.108199 0.574 255 255 255
0.1001 -0.0180522 0.589 255 255 255
0.25699 -0.223162 0.88 255 255 255
0.0405018 0.186529 0.548 255 255 255
0.31499 0.138644 0.795 255 255 255
-0.237577 -0.0491279 0.522 255 255 255
0.0283831 0.109206 0.593 255 255 255
-0.108213 -0.189775 0.521 255 255 255
0.0293453 0.203089 0.524 255 255 255
0.064296 0.0278133 0.586 0 0 0
-0.0777008 0.0735616 0.571 255 255 255
0.254391 -0.0948892 0.928 255 255 255
0.0864708 0.19451 0.622 255 255 255
-0.234578 0.201079 0.521 255 255 255
0.436054 -0.260982 0.863 255 255 255
0.336825 -0.254377 0.879 255 255 255
0.403034 0.0741309 0.841 255 255 255
-0.188563 0.106393 0.558 255 255 255
-0.145831 -0.050916 0.541 255 255 255
-0.126997 0.111799 0.567 255 255 255
-0.138786 -0.0535572 0.541 255 255 255
-0.131611 0.112722 0.567 255 255 255
-0.195732 -0.0388874 0.533 255 255 255
-0.274687 0.0173274 0.528 255 255 255
0.00753747 -0.172906 0.551 255 255 255
0.300138 -0.20085 0.889 255 255 255
0.333568 0.161472 0.713 255 255 255
-0.117292 0.0155318 0.556 0 0 0
0.106582 0.170162 0.701 255 255 255
0.324396 0.179271 0.659 255 255 255
-0.213879 0.0973401 0.553 255 255 255
0.41446 -0.257271 0.889 255 255 255
0.361824 -0.0209485 0.813 255 255 255
0.319273 -0.102118 0.796 255 255 255
-0.130544 0.176574 0.665 255 255 255
0.0415613 -0.0354017 0.575 255 255 255
-0.0894525 0.181959 0.642 255 255 255
0.244669 0.21613 0.56 255 255 255
-0.280759 0.0435124 0.533 255 255 255
0.340711 -0.0419613 0.81 255 255 255
-0.275359 0.0559688 0.536 255 255 255
-0.0124382 -0.0748419 0.562 255 255 255
-0.249238 0.0456716 0.538 255 255 255
0.298542 0.138818 0.796 255 255 255
0.00897015 0.0592826 0.586 255 255 255
-0.0107596 -0.0156147 0.57 255 255 255
0.379492 -0.159945 0.92 255 255 255
0.387008 -0.195872 0.913 255 255 255
-0.224185 0.125464 0.554 255 255 255
0.267401 0.123987 0.845 255 255 255
-0.242623 0.192552 0.535 255 255 255
-0.0608364 0.198067 0.522 255 255 255
-0.269503 0.192594 0.54 255 255 255
-0.0730081 0.11679 0.578 255 255 255
-0.253358 -0.111849 0.506 255 255 255
0.366098 -0.297464 0.867 255 255 255
-0.122294 -0.0222271 0.55 255 255 255
-0.202941 -0.024278 0.536 255 255 255
-0.0722502 0.0746212 0.572 255 255 255
-0.039543 0.0913925 0.584 255 255 255
-0.226546 -0.0680759 0.524 255 255 255
-0.0178476 0.16836 0.703 255 255 255
0.320654 0.0905178 0.816 255 255 255
-0.243525 -0.0346869 0.522 255 255 255
0.310433 0.168508 0.685 255 255 255
-0.144166 0.176857 0.658 255 255 255
0.417867 -0.322191 0.869 255 255 255
-0.132863 0.0136482 0.553 255 255 255
-0.0766369 0.132798 0.57 255 255 255
0.0307836 0.174266 0.622 0 0 0
0.101465 -0.114002 0.575 255 255 255
-0.172284 -0.135699 0.525 255 255 255
-0.117015 0.182086 0.559 255 255 255
0.0079205 0.0180588 0.579 255 255 255
-0.120388 0.179405 0.562 255 255 255
0.0781765 -0.123923 0.569 255 255 255
0.353985 -0.168194 0.916 255 255 255
0.357895 0.147106 0.765 255 255 255
-0.158721 -0.0902309 0.534 255 255 255
-0.171311 0.119468 0.564 255 255 255
0.116425 0.0118592 0.599 255 255 255
-0.144869 -0.033493 0.544 255 255 255
0.0598771 0.197652 0.53 255 255 255
-0.0166491 -0.152902 0.55 255 255 255
-0.0755613 -0.00259172 0.562 255 255 255
-0.109583 -0.133309 0.536 255 255 255
0.115963 -0.0955003 0.582 255 255 255
-0.220865 0.0759491 0.548 255 255 255
-0.221676 0.19065 0.537 255 255 255
-0.145754 -0.0379194 0.544 255 255 255
-0.167257 -0.163178 0.52 255 255 255
0.313264 0.121801 0.821 255 255 255
0.0655259 -0.0404288 0.58 255 255 255
-0.261161 -0.134656 0.502 255 255 255
-0.277808 0.0444631 0.534 255 255 255
-0.158424 -0.0935314 0.533 255 255 255
0.43726 -0.32435 0.871 255 255 255
0.0334335 0.124515 0.597 255 255 255
0.273389 -0.163973 0.901 255 255 255
-0.162286 0.0126561 0.549 255 255 255
0.271722 -0.204498 0.886 255 255 255
0.107247 -0.158271 0.566 255 255 255
-0.131344 -0.0466861 0.543 255 255 255
-0.226546 -0.0348198 0.524 255 255 255
-0.257015 0.124332 0.549 255 255 255
0.0872657 0.0146354 0.593 255 255 255
-0.217872 0.111941 0.554 255 255 255
-0.00246813 0.0695342 0.584 255 255 255
0.250061 0.208162 0.581 255 255 255
-0.244644 0.159137 0.568 255 255 255
-0.0584075 -0.0853064 0.547 255 255 255
-0.0174362 0.0339 0.576 255 255 255
-0.197812 -0.151592 0.518 255 255 255
-0.269232 0.101765 0.543 255 255 255
0.073876 0.0436591 0.594 255 255 255
-0.194263 -0.0730298 0.529 255 255 255
-0.251922 0.0388113 0.54 0 0 0
0.033829 0.0431446 0.587 255 255 255
0.141466 -0.139958 0.574 255 255 255
-0.0210027 0.00480041 0.571 255 255 255
-0.12998 -0.0597199 0.541 255 255 255
0.272138 0.151746 0.745 255 255 255
0.354333 -0.0354143 0.811 255 255 255
0.365041 0.148905 0.749 255 255 255
-0.232263 -0.121982 0.514 255 255 255
0.221271 -0.304878 0.837 255 255 255
-0.0308811 0.0730845 0.582 255 255 255
0.0490337 0.172763 0.586 255 255 255
0.118518 -0.126385 0.576 255 255 255
0.430759 -0.207411 0.905 255 255 255
0.226813 0.183792 0.656 255 255 255
0.0609641 -0.152205 0.564 255 255 255
0.287798 0.00967312 0.964 255 255 255
-0.101887 -0.0402006 0.551 255 255 255
0.19092 0.194933 0.525 255 255 255
0.0505398 0.131873 0.604 255 255 255
-0.129496 0.183162 0.554 255 255 255
-0.000539672 -0.117473 0.556 0 0 0
-0.0940467 0.188015 0.542 255 255 255
-0.0774448 -0.157152 0.537 255 255 255
-0.152029 -0.0716458 0.538 255 255 255
-0.0731344 0.174468 0.579 255 255 255
-0.235986 -0.131763 0.513 255 255 255
-0.111895 0.0929119 0.57 255 255 255
0.079694 -0.0141699 0.587 255 255 255
0.0891342 0.216445 0.568 255 255 255
-0.0705829 -0.157445 0.538 255 255 255
0.0138159 -0.184563 0.551 255 255 255
0.274225 0.185093 0.642 255 255 255
-0.0157771 0.0723853 0.584 255 255 255
0.0022968 0.123385 0.587 255 255 255
-0.138357 0.0490974 0.557 0 0 0
0.047528 0.0482474 0.591 255 255 255
0.155058 0.210286 0.559 255 255 255
0.287194 0.165127 0.699 255 255 255
-0.0707437 -0.0931471 0.546 255 255 255
-0.220549 -0.152094 0.514 255 255 255
0.0623882 0.0182771 0.586 255 255 255
0.303417 -0.0603407 0.809 255 255 255
0.314207 -0.0078512 0.827 255 255 255
0.149044 0.00305536 0.593 255 255 255
0.1104 -0.183787 0.568 255 255 255
-0.186415 0.0314176 0.549 0 0 0
0.0712642 -0.0716444 0.573 0 0 0
-0.19519 -0.141177 0.52 255 255 255
0.118593 -0.209654 0.563 255 255 255
-0.0466137 -0.0666843 0.555 255 255 255
0.123045 0.00600055 0.598 255 255 255
-0.21928 0.131537 0.553 255 255 255
-0.156422 0.0757897 0.56 255 255 255
0.240358 0.18114 0.658 255 255 255
-0.161982 0.188897 0.542 255 255 255
-0.166707 0.195558 0.529 255 255 255
0.138224 -0.100835 0.58 255 255 255
-0.107006 0.0192544 0.559 255 255 255
-0.270419 0.18032 0.562 255 255 255
-0.13631 -0.145067 0.528 255 255 255
-0.0885193 0.187626 0.546 255 255 255
0.298384 0.071857 0.863 0 0 0
0.105673 -0.0553394 0.588 255 255 255
0.262456 -0.135104 0.914 255 255 255
-0.13691 -0.150796 0.527 255 255 255
-0.0709871 -0.00624995 0.562 255 255 255
-0.220549 -0.149585 0.514 255 255 255
-0.147773 0.173919 0.655 255 255 255
-0.168748 -0.116292 0.53 255 255 255
0.387309 -0.00917476 0.825 255 255 255
-0.155026 0.0552433 0.555 255 255 255
0.253783 0.165599 0.701 255 255 255
0.338243 0.0322475 0.82 255 255 255
-0.101887 -0.0545472 0.551 255 255 255
0.150842 0.207691 0.585 255 255 255
0.403842 0.0261057 0.837 255 255 255
-0.192427 0.199678 0.524 0 0 0
-0.18273 0.0125869 0.546 255 255 255
-0.278841 0.0312516 0.531 255 255 255
-0.123815 -0.0650022 0.541 255 255 255
0.386789 -0.189063 0.916 255 255 255
-0.0200732 0.0131633 0.571 255 255 255
-0.014141 -0.091398 0.557 255 255 255
0.374283 0.0709454 0.82 255 255 255
-0.255655 0.137482 0.548 255 255 255
-0.226099 0.0131546 0.533 255 255 255
-0.178945 -0.10277 0.527 255 255 255
0.0726688 0.0763212 0.6 255 255 255
-0.033241 0.181761 0.558 255 255 255
0.185311 0.177295 0.676 255 255 255
-0.0239995 0.0442108 0.576 255 255 255
0.117589 -0.183463 0.567 255 255 255
-0.191753 -0.0467813 0.534 255 255 255
-0.156046 -0.139117 0.525 255 255 255
-0.0255603 -0.0063278 0.569 255 255 255
0.370674 -0.0236525 0.815 255 255 255
0.0392062 -0.0885814 0.568 255 255 255
-0.0124604 -0.0703941 0.563 255 255 255
0.12634 -0.160961 0.569 255 255 255
-0.0774448 -0.160648 0.537 255 255 255
0.290291 -0.275345 0.864 255 255 255
-0.20965 0.0537526 0.549 0 0 0
-0.147047 -0.0744103 0.539 255 255 255
0.129623 0.12442 0.606 255 255 255
-0.174694 -0.06254 0.535 255 255 255
-0.107632 0.177944 0.572 255 255 255
-0.189569 0.150019 0.572 255 255 255
0.324241 0.0877544 0.815 255 255 255
-0.249888 -0.105886 0.509 255 255 255
0.25901 -0.206445 0.882 255 255 255
-0.133222 0.106076 0.566 255 255 255
0.113716 -0.0488068 0.59 255 255 255
0.0425733 0.0461671 0.589 255 255 255
0.382916 -0.238292 0.883 255 255 255
-0.13473 0.0273433 0.557 0 0 0
-0.188591 -0.0774803 0.53 255 255 255
0.0782776 0.167216 0.703 255 255 255
-0.11231 0.189943 0.545 255 255 255
-0.164671 0.0449819 0.551 255 255 255
-0.0956949 0.116712 0.573 255 255 255
-0.00148371 -0.0156421 0.571 255 255 255
0.106329 0.212932 0.576 255 255 255
-0.165568 0.0279454 0.551 255 255 255
-0.153567 0.0289467 0.553 0 0 0
-0.0576115 0.173155 0.604 255 255 255
-0.060043 0.106812 0.58 255 255 255
-0.0818457 -0.106774 0.543 255 255 255
0.10595 -0.200849 0.564 255 255 255
-0.0420838 -0.00815095 0.567 255 255 255
-0.167847 -0.0262653 0.541 255 255 255
0.297919 0.0471717 0.874 255 255 255
0.326075 -0.164672 0.913 255 255 255
-0.0865739 0.196537 0.534 255 255 255
0.387778 -0.01053 0.826 255 255 255
-0.17009 0.126586 0.563 255 255 255
0.0479943 0.177389 0.664 255 255 255
-0.223868 0.104161 0.551 0 0 0
-0.235151 -0.142615 0.513 255 255 255
0.32331 0.0878621 0.816 255 255 255
-0.258691 0.142937 0.545 255 255 255
0.053895 0.172102 0.587 255 255 255
-0.0199326 -0.0266049 0.567 255 255 255
0.325422 -0.233981 0.883 255 255 255
0.00567066 -0.199923 0.544 255 255 255
0.15604 0.116117 0.609 0 0 0
-0.21142 -0.035285 0.531 255 255 255
-0.0127038 0.00856198 0.574 255 255 255
0.427954 -0.155251 0.893 255 255 255
-0.272883 0.193632 0.538 255 255 255
-0.114285 0.0283511 0.559 255 255 255
-0.00906011 0.0388547 0.58 255 255 255
-0.0921331 0.192912 0.536 255 255 255
-0.0328085 0.175281 0.681 255 255 255
0.1633 0.180361 0.667 255 255 255
-0.0885894 -0.117825 0.541 255 255 255
0.206225 0.199039 0.605 255 255 255
-0.167968 -0.0779188 0.533 255 255 255
-0.124984 -0.13725 0.531 255 255 255
0.14829 -0.0142423 0.59 255 255 255
-0.131181 -0.0336162 0.546 255 255 255
-0.278849 0.195529 0.536 255 255 255
-0.0931744 0.130713 0.569 255 255 255
-0.231301 -0.00676932 0.531 255 255 255
-0.166129 0.0998389 0.562 255 255 255
-0.0905177 -0.0942288 0.542 255 255 255
0.0786044 -0.0255891 0.586 255 255 255
-0.131611 0.0951909 0.567 255 255 255
0.298782 0.0379105 0.964 255 255 255
0.0196623 0.0974613 0.592 255 255 255
0.0174953 0.0343709 0.584 255 255 255
-0.177587 -0.130927 0.523 255 255 255
0.263604 -0.119263 0.918 255 255 255
-0.00972826 -0.0622588 0.564 255 255 255
0.124269 -0.172695 0.568 255 255 255
-0.0138109 -0.184874 0.544 255 255 255
-0.121828 -0.0666396 0.54 255 255 255
-0.247403 -0.105058 0.509 255 255 255
-0.169275 0.202774 0.521 255 255 255
0.122693 -0.191091 0.565 255 255 255
0.300995 -0.0185501 0.824 255 255 255
-0.145016 0.175519 0.657 255 255 255
-0.0328885 0.0961443 0.584 255 255 255
0.0749953 0.102216 0.603 255 255 255
-0.116101 -0.177045 0.526 255 255 255
-0.00339535 0.036967 0.58 255 255 255
-0.12116 0.184632 0.553 255 255 255
0.0548656 -0.165114 0.558 255 255 255
-0.247083 -0.0587532 0.517 255 255 255
0.0712083 0.154192 0.701 255 255 255
-0.243354 -0.166333 0.499 255 255 255
-0.0886878 0.168494 0.676 255 255 255
0.0420384 0.113447 0.595 255 255 255
0.26705 -0.0799596 0.93 255 255 255
-0.0446396 -0.15597 0.542 255 255 255
0.0137396 0.0707259 0.586 255 255 255
0.368944 0.0669422 0.82 255 255 255
0.12464 0.018745 0.601 255 255 255
-0.000528995 0.189056 0.545 255 255 255
0.0146434 0.0381723 0.584 255 255 255
0.357925 -0.205348 0.896 255 255 255
0.126629 -0.0191075 0.592 255 255 255
0.188272 0.179276 0.667 255 255 255
0.0835161 -0.0246776 0.587 255 255 255
0.431788 -0.224089 0.901 255 255 255
0.0441233 0.118686 0.597 255 255 255
0.0849576 0.212942 0.571 255 255 255
-0.111692 -0.0695324 0.542 255 255 255
-0.162286 0.0135495 0.549 0 0 0
0.0665542 0.190499 0.557 255 255 255
0.353861 0.126371 0.816 255 255 255
-0.111154 -0.154532 0.531 255 255 255
-0.241466 -0.101908 0.514 255 255 255
0.139838 0.218864 0.56 255 255 255
0.204263 0.1942 0.547 255 255 255
0.019629 0.129034 0.591 255 255 255
-0.24466 -0.0750276 0.519 255 255 255
0.0692268 0.191058 0.564 255 255 255
-0.104114 -0.181324 0.526 0 0 0
0.0267439 0.166978 0.702 255 255 255
0.346918 -0.284989 0.872 255 255 255
-0.140121 -0.0905689 0.536 255 255 255
-0.215109 -0.166825 0.513 255 255 255
-0.0971179 0.050722 0.565 255 255 255
-0.110383 0.123794 0.567 255 255 255
-0.103862 -0.132055 0.538 255 255 255
-0.0710602 -0.180944 0.535 255 255 255
0.292314 -0.095213 0.826 255 255 255
-0.18534 0.119959 0.562 255 255 255
0.0100257 0.103242 0.592 255 255 255
-0.0267864 -0.112044 0.556 255 255 255
-0.121887 0.089971 0.569 255 255 255
-0.008074 0.031142 0.577 255 255 255
-0.0684855 0.007495 0.564 255 255 255
0.0663167 0.00397968 0.587 255 255 255
-0.129079 0.17729 0.564 255 255 255
-0.253464 -0.0445366 0.518 255 255 255
-0.0152097 -0.0658132 0.563 255 255 255
-0.0544528 0.197872 0.526 255 255 255
-0.190819 -0.0747515 0.529 255 255 255
-0.254541 0.19814 0.529 255 255 255
0.126176 0.00796012 0.599 255 255 255
0.0368308 -0.14748 0.56 255 255 255
-0.180064 0.016141 0.546 255 255 255
-0.104517 -0.0664915 0.546 255 255 255
-0.0818564 0.190443 0.549 255 255 255
0.0913312 -0.074664 0.582 255 255 255
-0.100971 0.196667 0.532 255 255 255
0.147379 0.0997661 0.606 255 255 255
0.097849 -0.0523796 0.587 255 255 255
0.226911 0.143091 0.777 255 255 255
-0.160354 0.0823155 0.561 255 255 255
0.378791 0.106155 0.824 255 255 255
-0.0294194 0.0299413 0.572 255 255 255
0.050246 -0.031824 0.578 255 255 255
-0.10309 -0.155405 0.534 255 255 255
0.201444 0.142809 0.762 255 255 255
0.0849516 0.0964881 0.604 255 255 255
0.310923 0.16172 0.709 255 255 255
-0.269728 0.115232 0.544 255 255 255
0.125828 0.0226948 0.602 255 255 255
0.258265 0.154341 0.74 255 255 255
0.0839719 -0.0843512 0.577 255 255 255
0.318152 -0.0328556 0.813 255 255 255
0.312687 0.0430799 0.823 255 255 255
-0.167954 0.0252096 0.55 255 255 255
-0.20412 -0.0429809 0.53 255 255 255
0.0775523 0.124165 0.6 255 255 255
0.0228678 -0.163635 0.553 255 255 255
0.2235 0.182241 0.662 255 255 255
0.120907 -0.0966131 0.583 255 255 255
-0.0498411 -0.147758 0.541 255 255 255
-0.155242 -0.0697648 0.537 255 255 255
-0.280759 0.0426451 0.533 255 255 255
0.349483 -0.0103516 0.812 255 255 255
0.196605 0.175354 0.677 255 255 255
0.0731546 0.0564146 0.596 255 255 255
0.15206 0.201008 0.605 255 255 255
-0.219222 0.17541 0.579 255 255 255
-0.107444 0.100508 0.571 255 255 255
0.32848 -0.326212 0.85 255 255 255
0.24015 0.14764 0.755 255 255 255
-0.248065 0.104295 0.547 255 255 255
0.352596 -0.287827 0.872 255 255 255
0.0383435 0.0134399 0.583 255 255 255
0.0705976 0.0742445 0.599 255 255 255
0.324695 -0.0873348 0.803 0 0 0
0.0795434 0.0358656 0.593 255 255 255
0.147386 0.0765756 0.602 255 255 255
0.016436 0.16674 0.701 255 255 255
-0.111991 -0.127837 0.535 255 255 255
0.0124584 0.179491 0.571 255 255 255
-0.162889 0.177708 0.627 255 255 255
0.0509553 -0.128569 0.565 255 255 255
-0.0243923 -0.172163 0.543 255 255 255
-0.122731 -0.0467721 0.544 255 255 255
-0.159258 -0.121467 0.53 255 255 255
0.221251 0.192191 0.631 255 255 255
-0.0121948 -0.146903 0.551 255 255 255
0.0822883 0.192176 0.621 255 255 255
0.436952 0.0647599 0.862 255 255 255
0.0439063 0.179788 0.569 255 255 255
-0.189145 0.00811449 0.544 255 255 255
0.0813058 -0.171783 0.565 255 255 255
0.0137865 0.11594 0.588 255 255 255
-0.0358017 0.108685 0.585 255 255 255
-0.211942 0.11124 0.555 255 255 255
-0.203768 -0.155205 0.516 255 255 255
0.314568 0.0174405 0.814 255 255 255
0.318046 0.0551335 0.823 255 255 255
0.0354453 -0.0948843 0.567 255 255 255
0.241903 -0.266141 0.857 255 255 255
-0.21164 -0.107096 0.523 255 255 255
-0.253532 -0.106505 0.508 255 255 255
-0.026401 -0.147887 0.548 255 255 255
-0.11569 0.0200919 0.557 255 255 255
-0.22628 0.0827801 0.546 255 255 255
-0.203448 0.0169048 0.542 0 0 0
-0.0563228 0.0531191 0.571 255 255 255
-0.14366 0.0712331 0.56 255 255 255
0.116111 0.184352 0.658 255 255 255
-0.0951042 -0.13118 0.538 255 255 255
0.277062 0.162644 0.708 255 255 255
-0.216367 -0.147648 0.516 255 255 255
-0.207322 -0.0861472 0.525 255 255 255
-0.0330622 -0.0784255 0.555 255 255 255
0.411801 0.115606 0.815 255 255 255
0.130026 -0.132254 0.573 255 255 255
0.347518 0.168615 0.69 255 255 255
-0.0628596 -0.0639428 0.547 255 255 255
-0.0709871 0.183064 0.562 255 255 255
0.242054 0.152343 0.742 255 255 255
-0.259987 0.0656568 0.544 255 255 255
-0.242263 0.136193 0.55 255 255 255
-0.169509 0.198249 0.527 255 255 255
0.12428 0.207546 0.59 255 255 255
-0.0625148 -0.119364 0.544 255 255 255
-0.253522 -0.0992048 0.513 255 255 255
0.0500356 -0.131327 0.565 255 255 255
-0.163774 0.0270487 0.551 255 255 255
-0.113733 -0.144378 0.535 255 255 255
-0.146278 -0.12042 0.533 255 255 255
0.380455 -0.199232 0.908 255 255 255
-0.266763 0.151473 0.547 255 255 255
0.364425 -0.267555 0.88 255 255 255
-0.156731 -0.178717 0.516 0 0 0
-0.23154 -0.109444 0.518 255 255 255
0.324241 0.0121568 0.815 0 0 0
0.352449 0.0363392 0.822 255 255 255
-0.222447 0.0327205 0.541 255 255 255
-0.255438 0.192594 0.54 255 255 255
0.109688 -0.0487241 0.589 255 255 255
0.3065 0.0568159 0.828 255 255 255
0.0636053 -0.158348 0.563 255 255 255
-0.00336608 0.0151269 0.575 255 255 255
0.143012 -0.153554 0.569 255 255 255
0.31012 0.189836 0.63 255 255 255
0.329595 -0.273155 0.875 255 255 255
-0.184107 -0.0786384 0.532 255 255 255
0.018998 -0.0361478 0.572 255 255 255
0.204516 0.155266 0.733 255 255 255
0.130115 -0.0789916 0.586 255 255 255
0.0891291 -0.0781828 0.58 255 255 255
0.0712083 0.165599 0.701 255 255 255
-0.113263 0.00195287 0.554 255 255 255
-0.221323 -0.172489 0.51 0 0 0
0.349347 0.0149184 0.821 255 255 255
-0.212579 -0.136156 0.517 255 255 255
0.00483791 -0.178857 0.55 255 255 255
-0.054108 0.168262 0.684 255 255 255
-0.250715 -0.134372 0.504 255 255 255
0.0961911 -0.182218 0.566 255 255 255
-0.277621 0.0831634 0.537 255 255 255
-0.0316373 -0.15179 0.546 255 255 255
0.263392 0.20122 0.594 255 255 255
-0.184973 -0.069981 0.532 255 255 255
-0.250759 0.14756 0.549 255 255 255
-0.2625 -0.11446 0.503 255 255 255
0.356421 0.111654 0.825 255 255 255
-0.299031 0.16893 0.573 255 255 255
0.0109707 0.134805 0.591 255 255 255
0.15471 0.0450765 0.6 255 255 255
0.119956 0.0949918 0.607 255 255 255
0.303309 -0.025224 0.823 255 255 255
0.283258 0.170488 0.684 255 255 255
0.0104881 -0.0871941 0.565 255 255 255
-0.117217 -0.122613 0.535 255 255 255
-0.159543 0.0615654 0.555 255 255 255
-0.120035 0.112194 0.569 255 255 255
0.102497 0.183839 0.66 255 255 255
0.0879929 -0.0493452 0.585 255 255 255
-0.236356 0.170339 0.601 255 255 255
0.378977 -0.199232 0.908 255 255 255
0.0670174 0.194734 0.546 255 255 255
-0.111956 -0.0178165 0.552 255 255 255
-0.173993 -0.130573 0.525 255 255 255
-0.0701419 0.13187 0.57 255 255 255
-0.101147 -0.0728443 0.547 255 255 255
0.419031 -0.17946 0.824 255 255 255
0.269365 -0.228233 0.883 255 255 255
0.298816 0.088195 0.916 255 255 255
0.13203 0.201016 0.608 255 255 255
-0.0534406 0.0335469 0.57 255 255 255
0.424112 -0.267097 0.888 255 255 255
-0.153218 0.195302 0.533 255 255 255
0.000371303 -0.0734025 0.565 255 255 255
0.285119 0.184335 0.643 255 255 255
0.319497 0.161955 0.705 255 255 255
0.0383645 0.189246 0.543 255 255 255
0.0489421 -0.138192 0.563 255 255 255
-0.200263 0.176699 0.568 0 0 0
0.0254872 0.0870109 0.593 255 255 255
-0.213304 -0.0835841 0.525 255 255 255
0.354295 0.102595 0.817 255 255 255
0.0846703 0.122619 0.602 255 255 255
0.376565 0.112997 0.825 255 255 255
0.0453841 -0.0364006 0.576 255 255 255
0.237114 0.19803 0.611 255 255 255
-0.0826019 -0.0341087 0.554 255 255 255
-0.228252 -0.0339671 0.524 255 255 255
0.159328 0.202914 0.599 255 255 255
0.170324 0.179814 0.669 255 255 255
0.10517 0.205777 0.596 255 255 255
0.245279 -0.237285 0.874 255 255 255
0.313711 -0.0534923 0.805 255 255 255
-0.130523 -0.101036 0.536 255 255 255
-0.184021 0.0891397 0.558 255 255 255
-0.19013 0.0648258 0.552 255 255 255
-0.0201787 0.0263096 0.574 255 255 255
0.124917 0.209237 0.584 255 255 255
0.141567 -0.0843314 0.59 255 255 255
0.25611 -0.0137574 0.957 255 255 255
0.270073 0.217301 0.556 255 255 255
0.0678243 -0.179375 0.56 255 255 255
-0.136764 0.185299 0.547 255 255 255
0.079694 -0.0199014 0.587 255 255 255
0.193578 0.19153 0.547 255 255 255
0.0795583 0.000158446 0.586 255 255 255
-0.0214441 0.120647 0.583 255 255 255
-0.0958113 -0.0907007 0.542 255 255 255
-0.134587 0.134153 0.564 255 255 255
0.0853351 0.0165654 0.593 255 255 255
0.293882 -0.069256 0.854 255 255 255
-0.187168 -0.0914471 0.526 255 255 255
0.282718 0.12355 0.871 255 255 255
-0.161952 0.203163 0.522 0 0 0
0.0362271 0.113447 0.595 255 255 255
0.268688 0.000260381 0.963 255 255 255
-0.149186 -0.128609 0.531 255 255 255
0.0156947 -0.144998 0.554 255 255 255
-0.0033251 0.182245 0.568 255 255 255
-0.0494863 0.13184 0.578 255 255 255
0.358265 0.0722798 0.82 255 255 255
-0.14629 -0.024731 0.546 0 0 0
0.296207 -0.0229289 0.837 0 0 0
0.312931 -0.0768808 0.803 255 255 255
-0.239586 0.0210789 0.536 255 255 255
-0.237463 -0.17877 0.502 255 255 255
-0.153724 -0.0237551 0.544 0 0 0
-0.225698 -0.0409446 0.526 255 255 255
-0.249297 0.17318 0.581 255 255 255
0.269817 0.13817 0.823 255 255 255
0.151083 0.106206 0.609 255 255 255
-0.283374 0.120322 0.543 0 0 0
0.0650536 0.20024 0.53 255 255 255
0.0125239 -0.0157243 0.574 255 255 255
-0.171017 -0.180311 0.511 255 255 255
0.188231 0.158195 0.73 255 255 255
0.437067 0.0308052 0.854 255 255 255
-0.0788521 0.190031 0.553 255 255 255
0.326894 0.0943857 0.815 255 255 255
-0.28691 0.118555 0.543 255 255 255
0.288584 0.189836 0.63 255 255 255
0.0790444 -0.180016 0.562 255 255 255
0.389656 -0.0416467 0.83 0 0 0
-0.0558296 0.00107411 0.566 255 255 255
-0.0701855 0.103622 0.578 0 0 0
-0.0172573 -0.191778 0.541 255 255 255
0.0274182 -0.18106 0.554 255 255 255
0.420688 -0.161418 0.849 255 255 255
-0.204661 0.139774 0.55 255 255 255
0.0589724 0.042405 0.59 255 255 255
-0.229011 -0.0984858 0.518 255 255 255
0.15275 0.176716 0.678 255 255 255
-0.157946 -0.170794 0.52 255 255 255
0.0070262 0.0428506 0.583 255 255 255
0.0142923 -0.0452972 0.57 255 255 255
0.363147 -0.0447628 0.813 255 255 255
-0.15101 -0.0123142 0.547 255 255 255
-0.126867 0.189606 0.539 0 0 0
-0.218787 -0.0369435 0.53 255 255 255
0.337171 -0.0591701 0.811 255 255 255
0.00884769 0.174167 0.578 255 255 255
-0.103157 -0.0259479 0.553 255 255 255
-0.221539 0.179086 0.561 255 255 255
0.0176451 0.078756 0.589 255 255 255
0.0594072 -0.173287 0.558 255 255 255
-0.0242911 0.077005 0.583 255 255 255
-0.275727 0.199377 0.53 255 255 255
-0.134826 0.127955 0.565 255 255 255
-0.226047 0.0254876 0.537 255 255 255
-0.0461221 -0.0308329 0.56 255 255 255
-0.0348225 0.014969 0.569 255 255 255
0.0596281 0.0278607 0.587 255 255 255
0.238129 -0.134809 0.912 255 255 255
-0.239693 -0.144837 0.512 255 255 255
0.00489601 0.188022 0.683 255 255 255
-0.120613 -0.187114 0.516 255 255 255
0.0363705 -0.196931 0.553 255 255 255
-0.256563 -0.144986 0.501 255 255 255
